# .PCD v0.7 - Point Cloud Data file format
VERSION 0.7
FIELDS x y z rgb
SIZE 4 4 4 4
TYPE F F F F
COUNT 1 1 1 1
WIDTH 1030
HEIGHT 1
VIEWPOINT 0 0 0 1 0 0 0
POINTS 1030
DATA ascii
-0.46028048 -0.77969229 2.2161801 1.6736774e-38
-0.42161712 -0.77654904 2.2159052 1.6736774e-38
-0.38035509 -0.76704723 2.2195489 1.6736774e-38
-0.34079021 -0.76465285 2.2184808 1.6736774e-38
-0.30103353 -0.7654177 2.2194376 1.6736774e-38
-0.26223847 -0.76500583 2.2175 1.6736774e-38
-0.22820596 -0.76321745 2.21175 1.6736774e-38
-0.18294857 -0.76333719 2.2080002 1.6736774e-38
-0.067291431 -0.76544005 2.2080002 1.6736774e-38
-0.5670706 -0.75001907 2.2080002 1.6736774e-38
-0.53776091 -0.73949873 2.2155318 1.6736774e-38
-0.50700384 -0.73716712 2.2310767 1.6736774e-38
-0.36345923 -0.75461465 2.237 1.6736774e-38
-0.34720421 -0.75557381 2.2306664 1.6736774e-38
-0.30055213 -0.754646 2.2326519 1.6736774e-38
-0.24892148 -0.75422084 2.2294116 1.6736774e-38
-0.21868706 -0.74747121 2.2254484 1.6736774e-38
-0.18233259 -0.74657202 2.2160728 1.6736774e-38
-0.14130501 -0.74702668 2.2209623 1.6736774e-38
-0.099029288 -0.74173516 2.222177 1.6736774e-38
-0.060137685 -0.7453447 2.2229152 1.6736774e-38
-0.020635344 -0.74186671 2.2192187 1.6736774e-38
0.019363241 -0.73743796 2.2187669 1.6736774e-38
0.060150422 -0.73515737 2.2198381 1.6736774e-38
0.10044722 -0.73400903 2.2140014 1.6736774e-38
0.13964783 -0.73294669 2.2147818 1.6736774e-38
0.17853233 -0.72881007 2.2134809 1.6736774e-38
0.22058666 -0.72638279 2.2142193 1.6736774e-38
0.2597205 -0.72895843 2.2083335 1.6736774e-38
0.30362022 -0.72289771 2.2080002 1.6736774e-38
0.34008941 -0.72242707 2.2080002 1.6736774e-38
0.37872458 -0.72443438 2.2080002 1.6736774e-38
0.4226743 -0.72128004 2.2080002 1.6736774e-38
0.45772192 -0.72174734 2.2080002 1.6736774e-38
0.49459204 -0.72296238 2.2080002 1.6736774e-38
-0.53025711 -0.70344472 2.2103686 1.6736774e-38
-0.5001058 -0.70006913 2.2218087 1.6736774e-38
-0.47687161 -0.69489026 2.2369998 1.6736774e-38
0.070305713 -0.71797049 2.237 1.6736774e-38
0.10140689 -0.71624649 2.2299998 1.6736774e-38
0.1406627 -0.71315026 2.2292998 1.6736774e-38
0.17954937 -0.71303326 2.2303681 1.6736774e-38
0.22081903 -0.71337157 2.2296426 1.6736774e-38
0.26122865 -0.71040112 2.2241309 1.6736774e-38
0.30238119 -0.70983469 2.2241249 1.6736774e-38
0.34009209 -0.70728165 2.2229736 1.6736774e-38
0.37974414 -0.70687956 2.2234814 1.6736774e-38
0.42105451 -0.70131254 2.2215207 1.6736774e-38
0.45926329 -0.70282483 2.2167575 1.6736774e-38
0.50043494 -0.70262301 2.220217 1.6736774e-38
0.54073668 -0.69706303 2.2217476 1.6736774e-38
0.57933694 -0.69626647 2.2170665 1.6736774e-38
0.62036717 -0.6982339 2.2215784 1.6736774e-38
0.66093868 -0.69837981 2.2227442 1.6736774e-38
0.69946736 -0.69699675 2.2175817 1.6736774e-38
0.73884779 -0.69251895 2.2178679 1.6736774e-38
0.77771032 -0.69138801 2.2207582 1.6736774e-38
0.81945384 -0.68968403 2.2123752 1.6736774e-38
0.85160333 -0.68541449 2.2121668 1.6736774e-38
0.88320005 -0.68342859 2.2080002 1.6736774e-38
-0.52641535 -0.66716659 2.2080002 1.6736774e-38
-0.50011152 -0.66031826 2.2101145 1.6736774e-38
-0.46210805 -0.65925539 2.2311749 1.6736774e-38
-0.43185177 -0.64656448 2.2337689 1.6736774e-38
0.55392385 -0.67962188 2.237 1.6736774e-38
0.57735908 -0.67962188 2.237 1.6736774e-38
0.66417587 -0.67908919 2.2369998 1.6736774e-38
0.70226139 -0.67799419 2.2309997 1.6736774e-38
0.73986715 -0.67448246 2.2308233 1.6736774e-38
0.78283608 -0.67231232 2.2321303 1.6736774e-38
0.81919795 -0.67299539 2.2310886 1.6736774e-38
0.85823178 -0.67500764 2.2248719 1.6736774e-38
0.90190929 -0.66910726 2.2222908 1.6736774e-38
0.94051695 -0.65706635 2.2194192 1.6736774e-38
0.97782701 -0.64805925 2.2190168 1.6736774e-38
1.0202343 -0.64596987 2.2188773 1.6736774e-38
1.055832 -0.64532769 2.2174838 1.6736774e-38
1.0878782 -0.64627814 2.2080002 1.6736774e-38
-0.48716196 -0.63155812 2.2080002 1.6736774e-38
-0.45987865 -0.63166589 2.2080002 1.6736774e-38
-0.43265 -0.63504893 2.2226999 1.6736774e-38
1.0250897 -0.63541168 2.2348459 1.6736774e-38
1.0669526 -0.62504768 2.2296031 1.6736774e-38
1.0896057 -0.62068355 2.2159834 1.6736774e-38
1.0683393 -0.57786173 2.226562 1.6736774e-38
1.0874381 -0.58770758 2.2146175 1.6736774e-38
1.0684208 -0.53884715 2.2206032 1.6736774e-38
1.0386708 -0.49765405 2.2289999 1.6736774e-38
1.0561209 -0.5004527 2.2200232 1.6736774e-38
1.0339926 -0.45218554 2.2248526 1.6736774e-38
1.0544214 -0.46016845 2.2101779 1.6736774e-38
1.0307846 -0.41965517 2.22615 1.6736774e-38
1.0493387 -0.42412612 2.2116001 1.6736774e-38
1.0310808 -0.37893847 2.2207758 1.6736774e-38
1.0450188 -0.3778396 2.2091112 1.6736774e-38
1.0269033 -0.33950585 2.2225666 1.6736774e-38
1.043543 -0.35433146 2.2080002 1.6736774e-38
0.99919331 -0.28761429 2.237 1.6736774e-38
1.0158771 -0.30056977 2.2192326 1.6736774e-38
0.99658006 -0.25800642 2.2311664 1.6736774e-38
1.0097965 -0.2616199 2.2164357 1.6736774e-38
0.99120712 -0.21565895 2.224833 1.6736774e-38
1.0101144 -0.22459619 2.2108126 1.6736774e-38
0.98531157 -0.18212502 2.21889 1.6736774e-38
1.0030631 -0.18463087 2.2080002 1.6736774e-38
0.97486371 -0.13990824 2.2229123 1.6736774e-38
0.95473725 -0.095385596 2.2288706 1.6736774e-38
0.96914381 -0.1008923 2.2120008 1.6736774e-38
0.94460863 -0.058284052 2.2252975 1.6736774e-38
0.96674287 -0.066774927 2.2109032 1.6736774e-38
0.93953341 -0.019985838 2.219383 1.6736774e-38
0.96100587 -0.03434667 2.2080002 1.6736774e-38
0.91586804 0.030063387 2.2369998 1.6736774e-38
0.9310748 0.018843286 2.2167118 1.6736774e-38
0.90801322 0.060420569 2.2303078 1.6736774e-38
0.92896873 0.059925687 2.2134769 1.6736774e-38
0.14631131 0.1113275 2.2263749 1.6736774e-38
0.87988663 0.093740955 2.237 1.6736774e-38
0.89864999 0.09961772 2.2167695 1.6736774e-38
0.92669874 0.086952105 2.2103078 1.6736774e-38
0.15361419 0.14066623 2.2364397 1.6736774e-38
0.16972794 0.15045218 2.2369998 1.6736774e-38
0.87811291 0.14863367 2.2331109 1.6736774e-38
0.89363515 0.14075516 2.2184811 1.6736774e-38
0.15674564 0.18709473 2.2212727 1.6736774e-38
0.17908412 0.18385753 2.2361512 1.6736774e-38
0.20239523 0.18961239 2.237 1.6736774e-38
0.87412506 0.17997478 2.2312562 1.6736774e-38
0.89158648 0.1797079 2.2139015 1.6736774e-38
0.15918571 0.21010914 2.2286 1.6736774e-38
0.18006319 0.22029036 2.2243125 1.6736774e-38
0.2067215 0.22291704 2.2307775 1.6736774e-38
0.86901641 0.22169605 2.2264524 1.6736774e-38
0.89010638 0.21168192 2.211158 1.6736774e-38
0.1844898 0.25934255 2.2130716 1.6736774e-38
0.21931924 0.25975594 2.2287452 1.6736774e-38
0.24216413 0.26820326 2.2369998 1.6736774e-38
0.86391056 0.26035398 2.2214525 1.6736774e-38
0.88109726 0.25865144 2.2080002 1.6736774e-38
0.19313082 0.29273993 2.2080002 1.6736774e-38
0.22342208 0.29785806 2.2162709 1.6736774e-38
0.25799242 0.3051177 2.2291517 1.6736774e-38
0.83212924 0.30744976 2.2285666 1.6736774e-38
0.85484928 0.29954079 2.2181647 1.6736774e-38
0.17874287 0.32173717 2.2080002 1.6736774e-38
0.23385987 0.33280492 2.2080002 1.6736774e-38
0.26091471 0.34078038 2.2161934 1.6736774e-38
0.29285148 0.34723046 2.2319741 1.6736774e-38
0.82747233 0.3425965 2.2194471 1.6736774e-38
0.85092914 0.33834699 2.2104418 1.6736774e-38
0.27043191 0.37822944 2.208349 1.6736774e-38
0.30068195 0.37939033 2.220413 1.6736774e-38
0.33593416 0.38685229 2.2327671 1.6736774e-38
0.36005047 0.39839906 2.237 1.6736774e-38
0.79679811 0.37496382 2.237 1.6736774e-38
0.82546639 0.36848789 2.2307405 1.6736774e-38
0.84981257 0.37651724 2.2171924 1.6736774e-38
0.21831954 0.42100582 2.2212999 1.6736774e-38
0.2748735 0.40464982 2.2080002 1.6736774e-38
0.30564475 0.41457325 2.2111971 1.6736774e-38
0.33922645 0.41896048 2.2155719 1.6736774e-38
0.37122563 0.42283207 2.2301552 1.6736774e-38
0.31252578 0.46243396 2.2094288 1.6736774e-38
0.33679152 0.45146409 2.2207713 1.6736774e-38
0.36626571 0.44248289 2.223 1.6736774e-38
0.31333715 0.48059142 2.223 1.6736774e-38
-0.49091217 -0.76687169 2.2520001 1.6736774e-38
-0.46212316 -0.7684027 2.2529762 1.6736774e-38
-0.42192617 -0.76596445 2.2541533 1.6736774e-38
-0.38777298 -0.76310641 2.2520003 1.6736774e-38
-0.34101716 -0.76139051 2.2520001 1.6736774e-38
-0.2691676 -0.76139051 2.2520001 1.6736774e-38
-0.48933083 -0.74371248 2.2519996 1.6736774e-38
-0.45962495 -0.74017459 2.255862 1.6736774e-38
-0.42283049 -0.74350435 2.265177 1.6736774e-38
-0.38207787 -0.7482788 2.2614994 1.6736774e-38
-0.33873889 -0.74480224 2.2606149 1.6736774e-38
-0.30011413 -0.74105376 2.2596536 1.6736774e-38
-0.26141757 -0.73985028 2.2612779 1.6736774e-38
-0.22240716 -0.72940618 2.2586951 1.6736774e-38
-0.17896742 -0.73366398 2.2593679 1.6736774e-38
-0.14026339 -0.73306406 2.2586436 1.6736774e-38
-0.10285753 -0.72810578 2.2568996 1.6736774e-38
-0.060311671 -0.73053288 2.2619162 1.6736774e-38
-0.019717291 -0.7280916 2.2601047 1.6736774e-38
0.019025261 -0.72785366 2.2593679 1.6736774e-38
0.04614405 -0.72441548 2.2537501 1.6736774e-38
-0.48257142 -0.7163505 2.2520001 1.6736774e-38
-0.45965248 -0.7018159 2.2523882 1.6736774e-38
-0.42461857 -0.69951922 2.2618189 1.6736774e-38
-0.39115477 -0.68573475 2.266 1.6736774e-38
-0.32155618 -0.71864569 2.266 1.6736774e-38
-0.30573016 -0.71864569 2.266 1.6736774e-38
-0.23523238 -0.71864569 2.266 1.6736774e-38
-0.12301143 -0.71864569 2.266 1.6736774e-38
-0.094302453 -0.71647686 2.2650003 1.6736774e-38
-0.079726189 -0.71537095 2.2625 1.6736774e-38
-0.0086323805 -0.71864569 2.266 1.6736774e-38
0.025465524 -0.71735078 2.2660003 1.6736774e-38
0.061483979 -0.71322531 2.2610216 1.6736774e-38
0.10139742 -0.71016884 2.2607901 1.6736774e-38
0.13933843 -0.70664924 2.2607996 1.6736774e-38
0.18026486 -0.70296288 2.2589993 1.6736774e-38
0.22121979 -0.70103133 2.2600362 1.6736774e-38
0.26066214 -0.69655323 2.261961 1.6736774e-38
0.29967269 -0.69511503 2.2592409 1.6736774e-38
0.34018758 -0.69025999 2.2579105 1.6736774e-38
0.38006249 -0.69063956 2.260042 1.6736774e-38
0.41740778 -0.68639642 2.2586956 1.6736774e-38
0.46311972 -0.6884445 2.2592118 1.6736774e-38
0.49707681 -0.68766922 2.2570906 1.6736774e-38
0.53426749 -0.68588245 2.2548001 1.6736774e-38
0.58123058 -0.68417907 2.2520001 1.6736774e-38
0.62361759 -0.68758994 2.2575998 1.6736774e-38
0.64456135 -0.68672669 2.2590003 1.6736774e-38
0.68417907 -0.68417907 2.2520001 1.6736774e-38
-0.45468959 -0.67774481 2.2520003 1.6736774e-38
-0.41886246 -0.66351581 2.2590001 1.6736774e-38
-0.38537955 -0.66024572 2.2639339 1.6736774e-38
-0.34961146 -0.6490472 2.266 1.6736774e-38
0.31292379 -0.67872095 2.266 1.6736774e-38
0.33882099 -0.67980003 2.266 1.6736774e-38
0.38270223 -0.67908067 2.2660003 1.6736774e-38
0.42285746 -0.67518598 2.2644997 1.6736774e-38
0.45899281 -0.67616528 2.266 1.6736774e-38
0.49801204 -0.67268038 2.2656496 1.6736774e-38
0.54098654 -0.67306888 2.2610583 1.6736774e-38
0.58162206 -0.67465228 2.2614496 1.6736774e-38
0.61717921 -0.67563879 2.2650342 1.6736774e-38
0.66144234 -0.67348713 2.2619994 1.6736774e-38
0.70116401 -0.67294312 2.2623327 1.6736774e-38
0.74084634 -0.66779578 2.2620924 1.6736774e-38
0.7778092 -0.66384012 2.2588201 1.6736774e-38
0.82108206 -0.66063094 2.2607996 1.6736774e-38
0.86257917 -0.6583631 2.2601159 1.6736774e-38
0.8976984 -0.6550591 2.2605562 1.6736774e-38
0.93873161 -0.64763761 2.2598743 1.6736774e-38
0.97822869 -0.64277202 2.2589998 1.6736774e-38
1.0079491 -0.64114261 2.2580001 1.6736774e-38
-0.39034671 -0.6369943 2.2520001 1.6736774e-38
-0.34097904 -0.6366381 2.266 1.6736774e-38
0.87187046 -0.6366381 2.266 1.6736774e-38
0.90115887 -0.6329385 2.266 1.6736774e-38
0.93925095 -0.63567895 2.266 1.6736774e-38
0.98125893 -0.6315127 2.2659996 1.6736774e-38
1.0224966 -0.62666368 2.2632456 1.6736774e-38
1.0541556 -0.61754233 2.2571688 1.6736774e-38
1.054055 -0.58203197 2.2591181 1.6736774e-38
1.038044 -0.53520763 2.266 1.6736774e-38
1.055953 -0.54245234 2.2615283 1.6736774e-38
1.0369649 -0.48772955 2.266 1.6736774e-38
1.0460932 -0.49766761 2.2643845 1.6736774e-38
1.0274079 -0.45681664 2.2621815 1.6736774e-38
1.0472044 -0.4729653 2.2625003 1.6736774e-38
1.0215226 -0.41936788 2.2591481 1.6736774e-38
1.0216177 -0.38294184 2.2612538 1.6736774e-38
1.0423601 -0.39277333 2.266 1.6736774e-38
0.99747151 -0.3306202 2.2660003 1.6736774e-38
1.0134903 -0.33786106 2.2596359 1.6736774e-38
0.989384 -0.29353496 2.2628882 1.6736774e-38
1.0062927 -0.30566344 2.2593334 1.6736774e-38
0.98926491 -0.26287398 2.2633893 1.6736774e-38
1.0016038 -0.25951621 2.2520001 1.6736774e-38
0.95603621 -0.20933524 2.266 1.6736774e-38
0.97982872 -0.2184401 2.2606149 1.6736774e-38
1.0016038 -0.23806858 2.2520001 1.6736774e-38
0.95459747 -0.16329588 2.2660003 1.6736774e-38
0.9722085 -0.17821276 2.2603991 1.6736774e-38
0.94992691 -0.13614684 2.2647643 1.6736774e-38
0.9662329 -0.14320357 2.2593496 1.6736774e-38
0.9450447 -0.10176548 2.2623479 1.6736774e-38
0.96299815 -0.11796191 2.2520001 1.6736774e-38
0.91719043 -0.049636189 2.266 1.6736774e-38
0.93120664 -0.060617946 2.2619994 1.6736774e-38
0.91338205 -0.015868347 2.2660003 1.6736774e-38
0.9255746 -0.02073328 2.2599995 1.6736774e-38
0.906344 0.02342434 2.2617993 1.6736774e-38
0.92254686 0.010436464 2.2580004 1.6736774e-38
0.14905199 0.068482071 2.2623477 1.6736774e-38
0.16509429 0.074454285 2.266 1.6736774e-38
0.87834477 0.075533338 2.2660003 1.6736774e-38
0.89393997 0.060322601 2.2594664 1.6736774e-38
0.15301594 0.097302854 2.2570908 1.6736774e-38
0.17633398 0.10579625 2.2655165 1.6736774e-38
0.20286095 0.11869524 2.266 1.6736774e-38
0.87515408 0.0996387 2.2653637 1.6736774e-38
0.8840571 0.10481673 2.2580869 1.6736774e-38
0.15227811 0.12911467 2.2520001 1.6736774e-38
0.18199013 0.13613158 2.2569826 1.6736774e-38
0.20581833 0.14363325 2.2659998 1.6736774e-38
0.86851716 0.14482936 2.2642851 1.6736774e-38
0.88359463 0.12883356 2.257385 1.6736774e-38
0.15656763 0.1694362 2.2520001 1.6736774e-38
0.18696731 0.16831718 2.2519999 1.6736774e-38
0.21719706 0.18112122 2.2630379 1.6736774e-38
0.24386477 0.19422857 2.266 1.6736774e-38
0.86276633 0.17898905 2.2608058 1.6736774e-38
0.88149714 0.19731811 2.2520001 1.6736774e-38
0.22726753 0.2178604 2.2577372 1.6736774e-38
0.25307611 0.22304764 2.2648563 1.6736774e-38
0.83876574 0.22888301 2.2601671 1.6736774e-38
0.85344738 0.21656457 2.2572494 1.6736774e-38
0.22520001 0.2423581 2.2520001 1.6736774e-38
0.26033905 0.26096705 2.260061 1.6736774e-38
0.2931602 0.27385089 2.266 1.6736774e-38
0.83410376 0.26375008 2.2659998 1.6736774e-38
0.84823865 0.25936601 2.2559063 1.6736774e-38
0.26752967 0.2875016 2.2550435 1.6736774e-38
0.29886004 0.30065879 2.2611005 1.6736774e-38
0.32824627 0.30947083 2.266 1.6736774e-38
0.82396823 0.30028671 2.2616119 1.6736774e-38
0.84396386 0.28418097 2.2520001 1.6736774e-38
0.30680582 0.3354471 2.2575994 1.6736774e-38
0.33767888 0.34047091 2.2650919 1.6736774e-38
0.36954206 0.35126176 2.2660003 1.6736774e-38
0.79464817 0.34626618 2.2634549 1.6736774e-38
0.81457943 0.33807769 2.2615659 1.6736774e-38
0.34446955 0.37134022 2.2544341 1.6736774e-38
0.37534255 0.3828944 2.2642801 1.6736774e-38
0.40464288 0.39385238 2.266 1.6736774e-38
0.79295647 0.36654603 2.2613339 1.6736774e-38
0.81214261 0.36864284 2.2537503 1.6736774e-38
0.38864633 0.41284132 2.2587996 1.6736774e-38
0.41245878 0.42132854 2.2639408 1.6736774e-38
0.4618324 0.41867048 2.266 1.6736774e-38
-0.4124437 -0.73268092 2.2833705 1.6736774e-38
-0.38065684 -0.73296589 2.2928205 1.6736774e-38
-0.34303939 -0.72842836 2.2879012 1.6736774e-38
-0.29531205 -0.72550476 2.2934487 1.6736774e-38
-0.26065275 -0.72312683 2.2917895 1.6736774e-38
-0.21699673 -0.72388572 2.2810001 1.6736774e-38
-0.17763394 -0.72473985 2.2810001 1.6736774e-38
-0.14458402 -0.72388572 2.2810001 1.6736774e-38
-0.11513619 -0.72340292 2.2810001 1.6736774e-38
-0.05865429 -0.72340292 2.2810001 1.6736774e-38
-0.028240955 -0.72340292 2.2810001 1.6736774e-38
0.0086895246 -0.72340292 2.2810001 1.6736774e-38
-0.40512881 -0.71130294 2.2839999 1.6736774e-38
-0.37744647 -0.70131236 2.2887325 1.6736774e-38
-0.3438116 -0.7034722 2.3027422 1.6736774e-38
-0.30402663 -0.71171206 2.2970233 1.6736774e-38
-0.25930125 -0.71133381 2.3062346 1.6736774e-38
-0.22039752 -0.7117523 2.2994177 1.6736774e-38
-0.18251584 -0.71663958 2.2955127 1.6736774e-38
-0.13509314 -0.71078724 2.2936282 1.6736774e-38
-0.10249434 -0.71066833 2.2916658 1.6736774e-38
-0.057648927 -0.71187139 2.2921338 1.6736774e-38
-0.019487863 -0.71157134 2.2983859 1.6736774e-38
0.018033575 -0.70860857 2.2956862 1.6736774e-38
0.059343573 -0.69795644 2.2979414 1.6736774e-38
0.098661222 -0.69281262 2.2949872 1.6736774e-38
0.14020142 -0.69080245 2.292562 1.6736774e-38
0.18011598 -0.68716091 2.2927454 1.6736774e-38
0.21953662 -0.68634641 2.2926025 1.6736774e-38
0.25349084 -0.68460876 2.2893999 1.6736774e-38
0.29366642 -0.68587989 2.2810001 1.6736774e-38
0.34106383 -0.68430007 2.2810001 1.6736774e-38
0.46706194 -0.68430001 2.2810001 1.6736774e-38
-0.36995226 -0.66751844 2.28668 1.6736774e-38
-0.35260668 -0.65870517 2.2917602 1.6736774e-38
0.10128761 -0.6759848 2.312 1.6736774e-38
0.13201071 -0.67378163 2.3101251 1.6736774e-38
0.18831693 -0.67395288 2.3096924 1.6736774e-38
0.21728379 -0.67027563 2.3114445 1.6736774e-38
0.26475361 -0.67455906 2.2975581 1.6736774e-38
0.29961917 -0.67092234 2.2926977 1.6736774e-38
0.34085584 -0.67143106 2.293524 1.6736774e-38
0.38073736 -0.67130804 2.295655 1.6736774e-38
0.41767982 -0.66352481 2.2942054 1.6736774e-38
0.46212363 -0.66338271 2.2945719 1.6736774e-38
0.5000053 -0.65667123 2.2913544 1.6736774e-38
0.53775978 -0.6576342 2.2976713 1.6736774e-38
0.58172762 -0.65892828 2.2968931 1.6736774e-38
0.61892211 -0.6588645 2.2971082 1.6736774e-38
0.65792418 -0.65425253 2.2936664 1.6736774e-38
0.70282269 -0.65394598 2.2944736 1.6736774e-38
0.73792017 -0.65186298 2.2858634 1.6736774e-38
0.78270721 -0.65039146 2.294054 1.6736774e-38
0.81852597 -0.64825618 2.2929358 1.6736774e-38
0.85078973 -0.64770126 2.283742 1.6736774e-38
0.9471581 -0.64085239 2.2810001 1.6736774e-38
-0.35627049 -0.63433528 2.2810001 1.6736774e-38
0.60112 -0.63635051 2.312 1.6736774e-38
0.65876991 -0.63394845 2.3120003 1.6736774e-38
0.71767294 -0.63647389 2.3045001 1.6736774e-38
0.73671454 -0.63482904 2.3072276 1.6736774e-38
0.79261321 -0.63241172 2.3105001 1.6736774e-38
0.81423777 -0.63324022 2.3098574 1.6736774e-38
0.86323804 -0.63310367 2.2986658 1.6736774e-38
0.89493191 -0.62775826 2.2924588 1.6736774e-38
0.9432233 -0.62598509 2.2932992 1.6736774e-38
0.97975624 -0.61733973 2.2970729 1.6736774e-38
1.0185103 -0.61119568 2.2947612 1.6736774e-38
1.04494 -0.60446417 2.2965388 1.6736774e-38
1.0336868 -0.56779563 2.3090003 1.6736774e-38
1.0463395 -0.58048642 2.2969325 1.6736774e-38
1.0332415 -0.53801233 2.3021359 1.6736774e-38
1.0428755 -0.54440552 2.2838233 1.6736774e-38
1.0265555 -0.49887699 2.3003659 1.6736774e-38
1.0424325 -0.50492346 2.2810001 1.6736774e-38
0.99383783 -0.44308412 2.3070002 1.6736774e-38
1.0139903 -0.46121269 2.2906322 1.6736774e-38
1.0405706 -0.47140667 2.2810001 1.6736774e-38
0.9954592 -0.41276392 2.3031673 1.6736774e-38
1.0091019 -0.42255193 2.2892442 1.6736774e-38
0.99216306 -0.37772381 2.2997987 1.6736774e-38
1.0096591 -0.3789686 2.282475 1.6736774e-38
0.98833966 -0.34094122 2.2902777 1.6736774e-38
1.0099158 -0.35313264 2.2809999 1.6736774e-38
0.97774529 -0.2995041 2.2907846 1.6736774e-38
1.0014676 -0.31933999 2.2810001 1.6736774e-38
0.95457351 -0.25762281 2.312 1.6736774e-38
0.97093171 -0.25760669 2.2900736 1.6736774e-38
0.95204806 -0.21686396 2.3009608 1.6736774e-38
0.96991348 -0.2264626 2.2852991 1.6736774e-38
0.9488014 -0.18028282 2.2971678 1.6736774e-38
0.9645372 -0.1846524 2.2810001 1.6736774e-38
0.93486786 -0.14061999 2.2935669 1.6736774e-38
0.91317332 -0.091956444 2.3076127 1.6736774e-38
0.92726809 -0.10106947 2.2895184 1.6736774e-38
0.90926272 -0.057718121 2.2975137 1.6736774e-38
0.92425537 -0.065706491 2.2842002 1.6736774e-38
0.15345608 -0.0071544042 2.3101251 1.6736774e-38
0.16569334 -0.0049542859 2.312 1.6736774e-38
0.87856001 -0.0022019048 2.312 1.6736774e-38
0.89824301 -0.019172449 2.2902002 1.6736774e-38
0.92326194 -0.028240953 2.2810001 1.6736774e-38
0.15147053 0.02136505 2.2917497 1.6736774e-38
0.1754958 0.021969955 2.304842 1.6736774e-38
0.20037334 0.035230476 2.312 1.6736774e-38
0.87241971 0.025549443 2.3081138 1.6736774e-38
0.89143771 0.015993236 2.2896514 1.6736774e-38
0.14892879 0.049964767 2.2809994 1.6736774e-38
0.181143 0.058438648 2.2874656 1.6736774e-38
0.21500686 0.063676149 2.3029349 1.6736774e-38
0.87409151 0.058490191 2.2991238 1.6736774e-38
0.88555723 0.053783059 2.2831335 1.6736774e-38
0.18719931 0.088767983 2.2809992 1.6736774e-38
0.21814896 0.10027021 2.2911191 1.6736774e-38
0.24812396 0.10695759 2.309273 1.6736774e-38
0.86210465 0.10108479 2.2910745 1.6736774e-38
0.22640762 0.13875587 2.2860515 1.6736774e-38
0.25969613 0.14312771 2.3025324 1.6736774e-38
0.28536686 0.14312382 2.312 1.6736774e-38
0.85395604 0.13684718 2.2913036 1.6736774e-38
0.23306547 0.17658354 2.2809997 1.6736774e-38
0.26047879 0.17932521 2.2872818 1.6736774e-38
0.29146984 0.18485712 2.3083634 1.6736774e-38
0.83174831 0.18328625 2.3048925 1.6736774e-38
0.84700263 0.17817482 2.289151 1.6736774e-38
0.26959997 0.21506578 2.2809992 1.6736774e-38
0.29960972 0.21955492 2.2964752 1.6736774e-38
0.33292982 0.22849101 2.3090966 1.6736774e-38
0.82566261 0.22083421 2.2958803 1.6736774e-38
0.84271681 0.21406311 2.2810001 1.6736774e-38
0.27516827 0.24837556 2.2810001 1.6736774e-38
0.3016862 0.25605872 2.2834449 1.6736774e-38
0.34002176 0.26027113 2.2994986 1.6736774e-38
0.36404824 0.26936635 2.3120003 1.6736774e-38
0.79929143 0.25321904 2.312 1.6736774e-38
0.81908703 0.25933224 2.2945242 1.6736774e-38
0.84071147 0.24692731 2.2810001 1.6736774e-38
0.31760213 0.28371298 2.2810001 1.6736774e-38
0.34313032 0.29729751 2.2850306 1.6736774e-38
0.37272021 0.3060123 2.2984083 1.6736774e-38
0.79680312 0.3153922 2.2998002 1.6736774e-38
0.80921412 0.2968536 2.2914617 1.6736774e-38
0.35409814 0.32585716 2.2810001 1.6736774e-38
0.3821812 0.33753222 2.2875555 1.6736774e-38
0.41743013 0.34391049 2.300317 1.6736774e-38
0.44870526 0.3563205 2.3095002 1.6736774e-38
0.78589815 0.34099948 2.2936316 1.6736774e-38
0.80559129 0.33889148 2.2810001 1.6736774e-38
0.39065403 0.37537247 2.2809992 1.6736774e-38
0.4213419 0.37923124 2.2851486 1.6736774e-38
0.45591494 0.38635772 2.3009989 1.6736774e-38
0.48221713 0.39854476 2.312 1.6736774e-38
0.77692276 0.36873361 2.2955332 1.6736774e-38
0.42687285 0.41288826 2.2809992 1.6736774e-38
0.45548373 0.41268137 2.2825789 1.6736774e-38
0.48976654 0.4092398 2.312 1.6736774e-38
-0.34439605 -0.68435967 2.3269999 1.6736774e-38
-0.29131195 -0.70165664 2.335 1.6736774e-38
-0.26101381 -0.69126886 2.3356161 1.6736774e-38
-0.22201845 -0.69570458 2.3299479 1.6736774e-38
-0.1957635 -0.70991969 2.3270001 1.6736774e-38
-0.050239552 -0.69537282 2.3359416 1.6736774e-38
-0.020235607 -0.69192588 2.337985 1.6736774e-38
0.020864984 -0.69076735 2.3305569 1.6736774e-38
0.057066903 -0.68480295 2.3269999 1.6736774e-38
0.081999056 -0.68037051 2.3270001 1.6736774e-38
0.15734953 -0.68258667 2.3270001 1.6736774e-38
0.1639981 -0.68037051 2.3270001 1.6736774e-38
-0.34350955 -0.67593813 2.3270001 1.6736774e-38
-0.26256478 -0.66942859 2.3430004 1.6736774e-38
-0.047180004 -0.67624676 2.3590002 1.6736774e-38
-0.022486262 -0.6703673 2.3546371 1.6736774e-38
0.022619842 -0.666188 2.3462551 1.6736774e-38
0.059398491 -0.66510719 2.3408825 1.6736774e-38
0.10047486 -0.66721284 2.339139 1.6736774e-38
0.14053698 -0.66460001 2.3351524 1.6736774e-38
0.18036097 -0.66350198 2.3380008 1.6736774e-38
0.2226817 -0.65901196 2.3398581 1.6736774e-38
0.25928509 -0.65629685 2.3408334 1.6736774e-38
0.30014533 -0.65199292 2.3366008 1.6736774e-38
0.33971712 -0.65230215 2.3377404 1.6736774e-38
0.37926582 -0.65120649 2.3292506 1.6736774e-38
0.42001662 -0.64678168 2.3307459 1.6736774e-38
0.4574863 -0.6470595 2.3339031 1.6736774e-38
0.5004639 -0.64437634 2.3312356 1.6736774e-38
0.54276383 -0.64490902 2.3276398 1.6736774e-38
0.57547694 -0.64781779 2.3316321 1.6736774e-38
0.62463927 -0.64406163 2.3285239 1.6736774e-38
0.64434314 -0.64266956 2.3350003 1.6736774e-38
0.69893116 -0.64352638 2.3269999 1.6736774e-38
0.77275074 -0.6451447 2.3269999 1.6736774e-38
0.82663912 -0.64047909 2.3270001 1.6736774e-38
0.84436858 -0.64047909 2.3270001 1.6736774e-38
0.27409333 -0.63580668 2.3590002 1.6736774e-38
0.30054834 -0.6353969 2.352263 1.6736774e-38
0.34127402 -0.6335147 2.3545203 1.6736774e-38
0.38051632 -0.63393915 2.3474801 1.6736774e-38
0.41707042 -0.63269353 2.3507423 1.6736774e-38
0.4645462 -0.63064826 2.3514454 1.6736774e-38
0.50244993 -0.62849718 2.3482258 1.6736774e-38
0.53956795 -0.62637573 2.3443339 1.6736774e-38
0.57939994 -0.62561589 2.3451824 1.6736774e-38
0.61814851 -0.62711036 2.3408051 1.6736774e-38
0.65971017 -0.62304151 2.3423145 1.6736774e-38
0.69814575 -0.62102687 2.3422556 1.6736774e-38
0.73738933 -0.62201715 2.3410904 1.6736774e-38
0.77888048 -0.6191808 2.337791 1.6736774e-38
0.82048404 -0.61801714 2.3349078 1.6736774e-38
0.86156124 -0.61782038 2.3400364 1.6736774e-38
0.90241694 -0.61522782 2.3386374 1.6736774e-38
0.93832105 -0.61285299 2.3357279 1.6736774e-38
0.9768616 -0.60397035 2.3336205 1.6736774e-38
1.0242686 -0.60303169 2.3278887 1.6736774e-38
1.0438257 -0.60280383 2.3270001 1.6736774e-38
0.80430675 -0.59986001 2.3590002 1.6736774e-38
0.86464578 -0.59793437 2.3590007 1.6736774e-38
0.88294005 -0.59761333 2.3590002 1.6736774e-38
0.93753213 -0.5935266 2.3548267 1.6736774e-38
0.98671293 -0.58818573 2.3449519 1.6736774e-38
1.0201124 -0.58023095 2.3411851 1.6736774e-38
1.0438257 -0.58729047 2.3270001 1.6736774e-38
0.99976677 -0.55942005 2.3590002 1.6736774e-38
1.0171248 -0.54022557 2.3370574 1.6736774e-38
0.99578589 -0.49375343 2.33916 1.6736774e-38
1.0094242 -0.50356358 2.3318007 1.6736774e-38
1.0438257 -0.51194006 2.3270001 1.6736774e-38
0.99434537 -0.4598994 2.3465209 1.6736774e-38
1.0073913 -0.46255204 2.3303332 1.6736774e-38
0.98850495 -0.42017862 2.3407848 1.6736774e-38
1.0083667 -0.42994097 2.3270001 1.6736774e-38
0.97888833 -0.3814086 2.3420455 1.6736774e-38
0.95341057 -0.3306641 2.3500001 1.6736774e-38
0.97663611 -0.33930591 2.3388925 1.6736774e-38
0.95252335 -0.29922909 2.3430011 1.6736774e-38
0.97226858 -0.30853477 2.3324862 1.6736774e-38
0.91888672 -0.24488668 2.3590002 1.6736774e-38
0.93948591 -0.25889328 2.3385129 1.6736774e-38
0.91888672 -0.20444669 2.3590002 1.6736774e-38
0.93253279 -0.22100124 2.3367221 1.6736774e-38
0.91277921 -0.17735024 2.3404412 1.6736774e-38
0.93243349 -0.18183875 2.3283348 1.6736774e-38
0.90806425 -0.1397804 2.3417845 1.6736774e-38
0.92551529 -0.14234763 2.3269999 1.6736774e-38
0.18537445 -0.094653845 2.3567939 1.6736774e-38
0.20444669 -0.083126672 2.3590002 1.6736774e-38
0.87844676 -0.083126672 2.3590002 1.6736774e-38
0.89798027 -0.10170113 2.3392789 1.6736774e-38
0.92415148 -0.11745811 2.3270001 1.6736774e-38
0.1824203 -0.059811581 2.3462002 1.6736774e-38
0.20937641 -0.058564067 2.352067 1.6736774e-38
0.87461805 -0.053995784 2.3460968 1.6736774e-38
0.89083642 -0.062332086 2.3326962 1.6736774e-38
0.15734953 -0.019945715 2.3270001 1.6736774e-38
0.18121769 -0.021636864 2.3309453 1.6736774e-38
0.21890371 -0.018466171 2.3434517 1.6736774e-38
0.24925174 -0.0099028014 2.3552358 1.6736774e-38
0.86699516 -0.019173911 2.3402002 1.6736774e-38
0.88775939 -0.024378093 2.3269999 1.6736774e-38
0.19280861 0.014458003 2.3269999 1.6736774e-38
0.22079729 0.019624345 2.3367219 1.6736774e-38
0.25684959 0.022034075 2.3497798 1.6736774e-38
0.2819567 0.034823336 2.3590002 1.6736774e-38
0.83379364 0.029880052 2.3564742 1.6736774e-38
0.85716337 0.018635657 2.3395569 1.6736774e-38
0.22707373 0.050857618 2.3292856 1.6736774e-38
0.26004407 0.060491454 2.3375328 1.6736774e-38
0.29277778 0.064842604 2.3522639 1.6736774e-38
0.83521163 0.048113778 2.3540776 1.6736774e-38
0.855021 0.061149769 2.3373418 1.6736774e-38
0.2371324 0.086431436 2.3270001 1.6736774e-38
0.26414567 0.096291937 2.3326151 1.6736774e-38
0.29941648 0.10109179 2.3489435 1.6736774e-38
0.32576668 0.101314 2.3590009 1.6736774e-38
0.82828248 0.10524984 2.348038 1.6736774e-38
0.84875983 0.095207639 2.3348231 1.6736774e-38
0.26784247 0.12568969 2.3270001 1.6736774e-38
0.30361697 0.13967453 2.3342009 1.6736774e-38
0.34025964 0.14593628 2.3492377 1.6736774e-38
0.3675923 0.14582074 2.3518894 1.6736774e-38
0.79678959 0.15293975 2.3567147 1.6736774e-38
0.82110435 0.14150059 2.3418453 1.6736774e-38
0.84510332 0.13877875 2.3308094 1.6736774e-38
0.30686131 0.17507908 2.3270009 1.6736774e-38
0.34065664 0.18032156 2.3376675 1.6736774e-38
0.37573719 0.18301427 2.3495889 1.6736774e-38
0.7974484 0.18015598 2.3570004 1.6736774e-38
0.81271231 0.17960826 2.3367999 1.6736774e-38
0.84880096 0.16178192 2.3270001 1.6736774e-38
0.34443569 0.21328397 2.3318708 1.6736774e-38
0.37886927 0.22165383 2.3405216 1.6736774e-38
0.40682027 0.22405432 2.3574007 1.6736774e-38
0.78835654 0.22367801 2.3501844 1.6736774e-38
0.80914205 0.21873814 2.3342466 1.6736774e-38
0.35569859 0.24599716 2.3270001 1.6736774e-38
0.38135791 0.25815216 2.328578 1.6736774e-38
0.41969126 0.26203623 2.3463337 1.6736774e-38
0.45217544 0.27480152 2.3574004 1.6736774e-38
0.7814064 0.26055947 2.3403649 1.6736774e-38
0.80600554 0.25898862 2.3270001 1.6736774e-38
0.38699478 0.29331586 2.3270009 1.6736774e-38
0.42022058 0.29974374 2.3332002 1.6736774e-38
0.46152806 0.30005211 2.3450949 1.6736774e-38
0.49356207 0.30695248 2.3526974 1.6736774e-38
0.75588304 0.30921078 2.3540771 1.6736774e-38
0.77808344 0.30009347 2.3381162 1.6736774e-38
0.80198395 0.29724658 2.3269999 1.6736774e-38
0.42119288 0.32414702 2.3269999 1.6736774e-38
0.46083868 0.33887222 2.3333161 1.6736774e-38
0.5011006 0.34179989 2.3482635 1.6736774e-38
0.53268063 0.35548338 2.3550003 1.6736774e-38
0.75380009 0.34434521 2.3510003 1.6736774e-38
0.77169573 0.33826724 2.3341119 1.6736774e-38
0.46938917 0.37169945 2.3269997 1.6736774e-38
0.49965301 0.37932095 2.3306003 1.6736774e-38
0.53929484 0.38087925 2.343226 1.6736774e-38
0.57584071 0.38868129 2.3475714 1.6736774e-38
0.7486425 0.37096778 2.3520439 1.6736774e-38
0.76682699 0.3724452 2.3376667 1.6736774e-38
0.50656044 0.40456486 2.3280666 1.6736774e-38
0.53188574 0.40556285 2.3269999 1.6736774e-38
0.58188671 0.40215337 2.3590002 1.6736774e-38
-0.29630095 -0.70043814 2.3840003 1.6736774e-38
-0.042994291 -0.68112004 2.3760002 1.6736774e-38
-0.042994291 -0.6720686 2.3760002 1.6736774e-38
-0.014762598 -0.6605671 2.3854539 1.6736774e-38
0.018183313 -0.65239125 2.3875191 1.6736774e-38
0.062507771 -0.64938736 2.3877542 1.6736774e-38
0.098582849 -0.65492284 2.3885705 1.6736774e-38
0.13998078 -0.65275329 2.3878391 1.6736774e-38
0.17885712 -0.65043807 2.3873324 1.6736774e-38
0.21700516 -0.64734888 2.3838043 1.6736774e-38
0.25400573 -0.64095426 2.3760002 1.6736774e-38
0.44422859 -0.64014477 2.3920002 1.6736774e-38
0.02961524 -0.63558859 2.3920002 1.6736774e-38
0.04556191 -0.63558859 2.3920002 1.6736774e-38
0.19454935 -0.63376611 2.3920002 1.6736774e-38
0.22287084 -0.63087952 2.391428 1.6736774e-38
0.26051289 -0.62963104 2.3838041 1.6736774e-38
0.30060133 -0.63074118 2.3865137 1.6736774e-38
0.34100413 -0.62678087 2.3883069 1.6736774e-38
0.38199824 -0.62547219 2.3874774 1.6736774e-38
0.42101523 -0.62005645 2.3877134 1.6736774e-38
0.45853093 -0.61747432 2.3868465 1.6736774e-38
0.4990792 -0.61432666 2.3873444 1.6736774e-38
0.54086864 -0.61157542 2.3854351 1.6736774e-38
0.58157486 -0.61032355 2.3867993 1.6736774e-38
0.61925614 -0.61307657 2.3855228 1.6736774e-38
0.65654284 -0.60971004 2.3834138 1.6736774e-38
0.69848645 -0.60595173 2.3799999 1.6736774e-38
0.74334663 -0.60997289 2.3864822 1.6736774e-38
0.77769738 -0.60657346 2.3833845 1.6736774e-38
0.81893623 -0.60478967 2.3832729 1.6736774e-38
0.84886861 -0.60519242 2.3800001 1.6736774e-38
0.90672427 -0.60660994 2.3774545 1.6736774e-38
0.92560923 -0.60389036 2.3856003 1.6736774e-38
0.96850288 -0.6041829 2.3760002 1.6736774e-38
0.45789719 -0.59913909 2.3920002 1.6736774e-38
0.51257151 -0.59913909 2.3920002 1.6736774e-38
0.55585527 -0.59913909 2.3920002 1.6736774e-38
0.58205336 -0.59913909 2.3920002 1.6736774e-38
0.60825145 -0.596861 2.3920002 1.6736774e-38
0.66930443 -0.59640545 2.3920002 1.6736774e-38
0.69835311 -0.59520221 2.3881073 1.6736774e-38
0.74220341 -0.59640545 2.3920002 1.6736774e-38
0.78464121 -0.59913915 2.3920002 1.6736774e-38
0.82220143 -0.59591037 2.3862853 1.6736774e-38
0.85979319 -0.59186381 2.3879061 1.6736774e-38
0.90001023 -0.58598208 2.3858058 1.6736774e-38
0.93756837 -0.58682889 2.3859992 1.6736774e-38
0.98064762 -0.58256668 2.383111 1.6736774e-38
1.0067332 -0.57287145 2.3861821 1.6736774e-38
0.98818642 -0.5412038 2.3903992 1.6736774e-38
1.0076877 -0.54190874 2.3866658 1.6736774e-38
0.99245042 -0.49773321 2.3869467 1.6736774e-38
1.0032439 -0.51299053 2.3860002 1.6736774e-38
0.98071158 -0.45978808 2.3844204 1.6736774e-38
0.95907819 -0.40322289 2.3920002 1.6736774e-38
0.97739202 -0.41972139 2.3859041 1.6736774e-38
0.95390064 -0.38002777 2.3919997 1.6736774e-38
0.96934783 -0.38102996 2.3862557 1.6736774e-38
0.94888514 -0.33780691 2.3887172 1.6736774e-38
0.96531379 -0.35061878 2.3817146 1.6736774e-38
0.9400093 -0.29887548 2.3883071 1.6736774e-38
0.90935957 -0.25394729 2.3890901 1.6736774e-38
0.92725819 -0.26320681 2.383111 1.6736774e-38
0.87706679 -0.20730668 2.3920002 1.6736774e-38
0.90439969 -0.2181866 2.3912246 1.6736774e-38
0.9228611 -0.22132443 2.3808694 1.6736774e-38
0.18908191 -0.16630095 2.3920002 1.6736774e-38
0.87706673 -0.17769144 2.3920002 1.6736774e-38
0.89772826 -0.18094476 2.3884671 1.6736774e-38
0.19238666 -0.13640477 2.3870001 1.6736774e-38
0.20578796 -0.12225779 2.3920002 1.6736774e-38
0.87251067 -0.13440761 2.3919997 1.6736774e-38
0.89220285 -0.14194173 2.3887336 1.6736774e-38
0.19266613 -0.10700081 2.3760002 1.6736774e-38
0.21773247 -0.097859353 2.3870761 1.6736774e-38
0.24740115 -0.087023243 2.3920002 1.6736774e-38
0.86691737 -0.10006394 2.3869796 1.6736774e-38
0.88398182 -0.10242042 2.3772795 1.6736774e-38
0.22939143 -0.062578522 2.3790472 1.6736774e-38
0.25699592 -0.058464449 2.3917184 1.6736774e-38
0.28248385 -0.043283813 2.3920002 1.6736774e-38
0.8650772 -0.061669886 2.3893325 1.6736774e-38
0.88025147 -0.072411433 2.3760002 1.6736774e-38
0.23578973 -0.034848001 2.3760002 1.6736774e-38
0.26249906 -0.024831675 2.3860385 1.6736774e-38
0.28858322 -0.013889033 2.3919992 1.6736774e-38
0.83082145 -0.017085714 2.392 1.6736774e-38
0.85052788 -0.021548644 2.385777 1.6736774e-38
0.27479619 0.012961386 2.3774548 1.6736774e-38
0.29972532 0.019566165 2.3856466 1.6736774e-38
0.32369661 0.030029442 2.3920002 1.6736774e-38
0.82632208 0.022617312 2.3853905 1.6736774e-38
0.84599072 0.0063896105 2.3803639 1.6736774e-38
0.30929521 0.056253884 2.3816772 1.6736774e-38
0.33837417 0.062819302 2.3898175 1.6736774e-38
0.37057018 0.077455245 2.3920002 1.6736774e-38
0.79961145 0.075177148 2.3920002 1.6736774e-38
0.82490522 0.062963404 2.3876567 1.6736774e-38
0.8430661 0.068981782 2.3805718 1.6736774e-38
0.31680003 0.085988574 2.3760002 1.6736774e-38
0.34476036 0.10160061 2.3814392 1.6736774e-38
0.36841357 0.10087405 2.3919995 1.6736774e-38
0.79619431 0.10365333 2.3920002 1.6736774e-38
0.81502849 0.098523565 2.3838539 1.6736774e-38
0.34526151 0.12845606 2.3782854 1.6736774e-38
0.3838217 0.13665858 2.386879 1.6736774e-38
0.41178855 0.14844073 2.3919995 1.6736774e-38
0.79305923 0.1424855 2.3875549 1.6736774e-38
0.80659378 0.12837443 2.3828573 1.6736774e-38
0.3921316 0.17016231 2.3781335 1.6736774e-38
0.41805375 0.18158413 2.3857388 1.6736774e-38
0.4487848 0.1919813 2.3920002 1.6736774e-38
0.78852671 0.18073224 2.3886888 1.6736774e-38
0.80382633 0.17765944 2.3856003 1.6736774e-38
0.39600003 0.2013943 2.3760002 1.6736774e-38
0.42146057 0.21796203 2.3764861 1.6736774e-38
0.45792535 0.22249022 2.3909664 1.6736774e-38
0.48820579 0.22949339 2.3919997 1.6736774e-38
0.77783537 0.21721692 2.3856595 1.6736774e-38
0.43220577 0.24438861 2.3760004 1.6736774e-38
0.46063536 0.25785711 2.378983 1.6736774e-38
0.49803635 0.26064995 2.3906274 1.6736774e-38
0.52754188 0.27304602 2.3920002 1.6736774e-38
0.75189143 0.2662974 2.392 1.6736774e-38
0.76856607 0.25922647 2.3863523 1.6736774e-38
0.50639963 0.29250953 2.3820536 1.6736774e-38
0.535905 0.30456749 2.3894725 1.6736774e-38
0.57028317 0.31589592 2.3920002 1.6736774e-38
0.74810791 0.29838192 2.3873892 1.6736774e-38
0.76418805 0.2854324 2.3786669 1.6736774e-38
0.5429731 0.33887416 2.3853791 1.6736774e-38
0.57431245 0.33980817 2.3919988 1.6736774e-38
0.74333918 0.34274638 2.3859665 1.6736774e-38
0.55892575 0.36884573 2.3760002 1.6736774e-38
0.58277249 0.37517622 2.3830762 1.6736774e-38
0.61345851 0.38282859 2.3919997 1.6736774e-38
0.71760005 0.37588573 2.3920002 1.6736774e-38
0.73149145 0.37456983 2.3821533 1.6736774e-38
0.55892575 0.41184002 2.3760002 1.6736774e-38
0.57513207 0.40889499 2.3883078 1.6736774e-38
-0.015762314 -0.65191555 2.4114289 1.6736774e-38
0.019501429 -0.64125288 2.4090002 1.6736774e-38
0.064240009 -0.64010572 2.4090004 1.6736774e-38
0.10301343 -0.6437766 2.4090002 1.6736774e-38
0.1385175 -0.64268684 2.4090002 1.6736774e-38
0.17207143 -0.64163524 2.4090002 1.6736774e-38
0.037993334 -0.63429385 2.4175 1.6736774e-38
0.059607219 -0.630018 2.4156966 1.6736774e-38
0.09804558 -0.62965584 2.4172823 1.6736774e-38
0.14086927 -0.62946409 2.4166496 1.6736774e-38
0.18087099 -0.62723655 2.4141388 1.6736774e-38
0.21935543 -0.62121755 2.4167268 1.6736774e-38
0.26247525 -0.61963248 2.4175003 1.6736774e-38
0.30086955 -0.61450922 2.4154482 1.6736774e-38
0.33896035 -0.61036134 2.4123995 1.6736774e-38
0.37722892 -0.61124593 2.4089992 1.6736774e-38
0.4183248 -0.60667479 2.4090002 1.6736774e-38
0.45911211 -0.60441685 2.4090002 1.6736774e-38
0.49958074 -0.60397077 2.4090002 1.6736774e-38
0.53686291 -0.60492676 2.4090004 1.6736774e-38
0.58412522 -0.60339713 2.4090002 1.6736774e-38
0.62461931 -0.60454434 2.4090002 1.6736774e-38
0.6485182 -0.60416192 2.4090004 1.6736774e-38
0.74819213 -0.60594636 2.4090002 1.6736774e-38
0.77546859 -0.60339713 2.4090002 1.6736774e-38
0.30729339 -0.59841341 2.4260004 1.6736774e-38
0.34110105 -0.59760916 2.4244549 1.6736774e-38
0.38013577 -0.59773493 2.4190452 1.6736774e-38
0.41980886 -0.59812927 2.4150002 1.6736774e-38
0.46362025 -0.59542286 2.4177933 1.6736774e-38
0.50148237 -0.59436011 2.4198179 1.6736774e-38
0.53855234 -0.59117568 2.4195776 1.6736774e-38
0.58218002 -0.58989561 2.4133396 1.6736774e-38
0.62117153 -0.5887478 2.415283 1.6736774e-38
0.65780789 -0.58859515 2.4155917 1.6736774e-38
0.70059699 -0.58299583 2.4187138 1.6736774e-38
0.7422716 -0.58164626 2.4125068 1.6736774e-38
0.77960443 -0.58250904 2.415159 1.6736774e-38
0.81521577 -0.58347869 2.4147797 1.6736774e-38
0.86022276 -0.57734579 2.4135327 1.6736774e-38
0.89748102 -0.56891668 2.4144995 1.6736774e-38
0.94540989 -0.57510644 2.4165559 1.6736774e-38
0.97372544 -0.57107323 2.4148278 1.6736774e-38
0.97845531 -0.54101735 2.4125955 1.6736774e-38
1.0026029 -0.53456861 2.4090002 1.6736774e-38
0.97986823 -0.50107908 2.4179997 1.6736774e-38
0.95356661 -0.44460168 2.4260004 1.6736774e-38
0.96816701 -0.45903257 2.4123993 1.6736774e-38
0.94841069 -0.41748175 2.4211957 1.6736774e-38
0.9678027 -0.42513058 2.4111931 1.6736774e-38
0.93931973 -0.37810254 2.4123986 1.6736774e-38
0.96360004 -0.3739686 2.4090002 1.6736774e-38
0.91689128 -0.33363831 2.4226003 1.6736774e-38
0.93308741 -0.34212974 2.4143674 1.6736774e-38
0.16496801 -0.28973374 2.4260004 1.6736774e-38
0.91103613 -0.29604733 2.4194193 1.6736774e-38
0.92544669 -0.30259079 2.4090002 1.6736774e-38
0.17404994 -0.269894 2.4222226 1.6736774e-38
0.8965131 -0.2613354 2.4136353 1.6736774e-38
0.9200086 -0.2753143 2.4090002 1.6736774e-38
0.18883681 -0.2173271 2.4190743 1.6736774e-38
0.2076128 -0.20695265 2.4260004 1.6736774e-38
0.87294459 -0.20947145 2.4170001 1.6736774e-38
0.88970679 -0.22796823 2.4126432 1.6736774e-38
0.19413824 -0.18196087 2.4135771 1.6736774e-38
0.21901122 -0.17699409 2.419462 1.6736774e-38
0.24260001 -0.17097524 2.4260001 1.6736774e-38
0.87337154 -0.18003298 2.41641 1.6736774e-38
0.88330007 -0.18583715 2.4090002 1.6736774e-38
0.19788215 -0.1508493 2.4090002 1.6736774e-38
0.22084087 -0.14069913 2.4092445 1.6736774e-38
0.25354066 -0.13567005 2.4195783 1.6736774e-38
0.83726329 -0.12395392 2.4192002 1.6736774e-38
0.86024356 -0.14014474 2.4146655 1.6736774e-38
0.23047145 -0.11283716 2.4090004 1.6736774e-38
0.25980315 -0.099902973 2.4139345 1.6736774e-38
0.29215077 -0.086029828 2.4249377 1.6736774e-38
0.83408946 -0.09924645 2.4161289 1.6736774e-38
0.85003299 -0.099801429 2.4089992 1.6736774e-38
0.27347887 -0.070205152 2.4090002 1.6736774e-38
0.29779777 -0.060144015 2.4150708 1.6736774e-38
0.33039811 -0.043899048 2.4260001 1.6736774e-38
0.83483791 -0.058592703 2.4178147 1.6736774e-38
0.84903878 -0.061486863 2.4089999 1.6736774e-38
0.3060154 -0.024174249 2.4097223 1.6736774e-38
0.33613208 -0.016803736 2.4183667 1.6736774e-38
0.36967623 -0.0023104763 2.4260001 1.6736774e-38
0.82261825 -0.019441251 2.4136038 1.6736774e-38
0.84353244 -0.032884762 2.4090002 1.6736774e-38
0.31890571 0.0045885714 2.4090002 1.6736774e-38
0.34208131 0.018920578 2.4095554 1.6736774e-38
0.37601715 0.023454811 2.4177737 1.6736774e-38
0.40779907 0.03696762 2.4260001 1.6736774e-38
0.81593126 0.017521136 2.4146657 1.6736774e-38
0.34905922 0.046868987 2.4090002 1.6736774e-38
0.38024217 0.05860306 2.4110909 1.6736774e-38
0.41244039 0.064005315 2.4254518 1.6736774e-38
0.79195124 0.066232152 2.4200869 1.6736774e-38
0.8066085 0.056367967 2.4129667 1.6736774e-38
0.38700429 0.098237135 2.408999 1.6736774e-38
0.41791552 0.099284075 2.4136131 1.6736774e-38
0.44622999 0.10982465 2.4260004 1.6736774e-38
0.78465778 0.099763505 2.4125953 1.6736774e-38
0.8025412 0.085806288 2.4090002 1.6736774e-38
0.39461714 0.12159715 2.4090002 1.6736774e-38
0.42434925 0.13461374 2.4089985 1.6736774e-38
0.454023 0.14408559 2.4237633 1.6736774e-38
0.49444193 0.15942287 2.4260001 1.6736774e-38
0.77940667 0.13940361 2.4146659 1.6736774e-38
0.4353407 0.16863 2.4090002 1.6736774e-38
0.46363932 0.17912205 2.4103694 1.6736774e-38
0.49910897 0.18330634 2.4172158 1.6736774e-38
0.529468 0.18921112 2.4248672 1.6736774e-38
0.77185798 0.17940478 2.4143898 1.6736774e-38
0.47629377 0.21245089 2.4090002 1.6736774e-38
0.5048961 0.216811 2.4127388 1.6736774e-38
0.53631413 0.22031124 2.4182453 1.6736774e-38
0.56144571 0.23566858 2.4260001 1.6736774e-38
0.7528581 0.22655374 2.4175 1.6736774e-38
0.76570714 0.21677379 2.413048 1.6736774e-38
0.51468486 0.24242955 2.4090002 1.6736774e-38
0.54029542 0.25758824 2.410095 1.6736774e-38
0.57461345 0.26606056 2.4244194 1.6736774e-38
0.60303432 0.27956763 2.4260001 1.6736774e-38
0.74207705 0.25962204 2.4131744 1.6736774e-38
0.76514435 0.24434146 2.4090002 1.6736774e-38
0.54916859 0.29033139 2.4090004 1.6736774e-38
0.581047 0.29891783 2.4092445 1.6736774e-38
0.61105037 0.3076452 2.4211433 1.6736774e-38
0.6415422 0.31499493 2.4260001 1.6736774e-38
0.71681595 0.30626258 2.418067 1.6736774e-38
0.73007768 0.29983345 2.4117036 1.6736774e-38
0.59203494 0.33922654 2.4090002 1.6736774e-38
0.6195659 0.33895051 2.4168024 1.6736774e-38
0.64958203 0.33957884 2.425586 1.6736774e-38
0.71052939 0.33923319 2.418488 1.6736774e-38
0.73031479 0.33647513 2.4095309 1.6736774e-38
0.59422004 0.36173242 2.4090002 1.6736774e-38
0.62380952 0.37363759 2.4098489 1.6736774e-38
0.65826046 0.37877706 2.4210172 1.6736774e-38
0.70168078 0.37999293 2.4219725 1.6736774e-38
0.72384715 0.36938003 2.4090002 1.6736774e-38
0.61971641 0.40561506 2.4226003 1.6736774e-38
0.060151555 -0.61449796 2.4568036 1.6736774e-38
0.10289142 -0.61533141 2.4594312 1.6736774e-38
0.14017533 -0.61372656 2.4637575 1.6736774e-38
0.18083794 -0.61249751 2.4593446 1.6736774e-38
0.21891274 -0.60925901 2.4556737 1.6736774e-38
0.25806877 -0.60991162 2.4520667 1.6736774e-38
0.28917962 -0.60683566 2.4585829 1.6736774e-38
0.35132667 -0.60260665 2.4430001 1.6736774e-38
0.067942858 -0.59742856 2.46 1.6736774e-38
0.11210001 -0.59354001 2.4780002 1.6736774e-38
0.14584801 -0.58952802 2.4780004 1.6736774e-38
0.17960647 -0.58746892 2.4764669 1.6736774e-38
0.22000636 -0.58814007 2.4765587 1.6736774e-38
0.2601079 -0.58859575 2.4686394 1.6736774e-38
0.30079681 -0.58716887 2.4627671 1.6736774e-38
0.33929518 -0.58533317 2.4646251 1.6736774e-38
0.38115552 -0.58356434 2.4659846 1.6736774e-38
0.42086723 -0.58541268 2.466013 1.6736774e-38
0.45836213 -0.57954586 2.4636407 1.6736774e-38
0.50040096 -0.57743281 2.4603875 1.6736774e-38
0.54031277 -0.57206082 2.455981 1.6736774e-38
0.57892781 -0.57562566 2.4592059 1.6736774e-38
0.61955285 -0.5726912 2.45451 1.6736774e-38
0.66268563 -0.57239032 2.4583826 1.6736774e-38
0.69950724 -0.57026887 2.4601774 1.6736774e-38
0.73927808 -0.57031459 2.4601574 1.6736774e-38
0.78229791 -0.56674093 2.4621921 1.6736774e-38
0.82370281 -0.5702073 2.4601872 1.6736774e-38
0.85615426 -0.57088196 2.4592493 1.6736774e-38
0.89509583 -0.5644905 2.4465792 1.6736774e-38
0.9436959 -0.57142669 2.4477816 1.6736774e-38
0.96337813 -0.56934583 2.4481003 1.6736774e-38
0.46131063 -0.55709881 2.4780004 1.6736774e-38
0.49748808 -0.55837601 2.4780004 1.6736774e-38
0.53258532 -0.55949801 2.4728575 1.6736774e-38
0.58292007 -0.55696005 2.4780004 1.6736774e-38
0.62607551 -0.55400491 2.4731345 1.6736774e-38
0.65798265 -0.55131274 2.4762578 1.6736774e-38
0.7062645 -0.55205595 2.4753525 1.6736774e-38
0.742203 -0.5497663 2.4774995 1.6736774e-38
0.77591735 -0.55134356 2.4758818 1.6736774e-38
0.82009727 -0.55131924 2.4754276 1.6736774e-38
0.85873914 -0.54682595 2.4740331 1.6736774e-38
0.89798611 -0.54846495 2.4723902 1.6736774e-38
0.94082731 -0.54207718 2.4655399 1.6736774e-38
0.96958333 -0.53933591 2.4493752 1.6736774e-38
0.91646671 -0.49009335 2.4780002 1.6736774e-38
0.94272393 -0.49837416 2.4626248 1.6736774e-38
0.96737212 -0.49921781 2.4455004 1.6736774e-38
0.91586161 -0.45402771 2.4780004 1.6736774e-38
0.93662542 -0.45999897 2.460279 1.6736774e-38
0.96683186 -0.46579954 2.4490001 1.6736774e-38
0.90822804 -0.41681227 2.4766819 1.6736774e-38
0.93187797 -0.42174438 2.4565303 1.6736774e-38
0.15188192 -0.36245525 2.4660001 1.6736774e-38
0.176705 -0.36580005 2.4780004 1.6736774e-38
0.22180048 -0.36384407 2.4647501 1.6736774e-38
0.87398672 -0.36894673 2.4780002 1.6736774e-38
0.90162486 -0.37970969 2.4663672 1.6736774e-38
0.92902792 -0.38524923 2.4514999 1.6736774e-38
0.1532861 -0.3466078 2.4717062 1.6736774e-38
0.17855854 -0.3383511 2.4669161 1.6736774e-38
0.2066686 -0.3345581 2.4780004 1.6736774e-38
0.87346226 -0.33643115 2.4780004 1.6736774e-38
0.90044665 -0.34009954 2.4639311 1.6736774e-38
0.92353237 -0.34903356 2.4472501 1.6736774e-38
0.15588666 -0.31875333 2.4430001 1.6736774e-38
0.18269297 -0.30158022 2.4540355 1.6736774e-38
0.21918812 -0.29793879 2.4762843 1.6736774e-38
0.24685602 -0.28791997 2.4780004 1.6736774e-38
0.87077814 -0.29824466 2.4773335 1.6736774e-38
0.89698052 -0.30299717 2.4618981 1.6736774e-38
0.19084759 -0.26152968 2.451257 1.6736774e-38
0.22062264 -0.25877637 2.4669232 1.6736774e-38
0.25674266 -0.25692773 2.4776459 1.6736774e-38
0.28084001 -0.25016001 2.4780002 1.6736774e-38
0.86959845 -0.26013175 2.4697189 1.6736774e-38
0.88646442 -0.26044735 2.4543941 1.6736774e-38
0.19660334 -0.23266667 2.4430001 1.6736774e-38
0.22362611 -0.22127774 2.4491816 1.6736774e-38
0.25869101 -0.22082756 2.4662175 1.6736774e-38
0.2916286 -0.20498291 2.4780004 1.6736774e-38
0.83780003 -0.20060001 2.4780002 1.6736774e-38
0.86048746 -0.21887976 2.4620135 1.6736774e-38
0.88452309 -0.23260708 2.4505556 1.6736774e-38
0.23305444 -0.19350111 2.4430003 1.6736774e-38
0.26256159 -0.18025467 2.4520159 1.6736774e-38
0.30071613 -0.17844801 2.4732776 1.6736774e-38
0.32908893 -0.17175557 2.4780004 1.6736774e-38
0.83080131 -0.17634898 2.4779999 1.6736774e-38
0.85592532 -0.18043922 2.4580746 1.6736774e-38
0.27031711 -0.14668848 2.4447005 1.6736774e-38
0.30029282 -0.1407748 2.4631565 1.6736774e-38
0.3387711 -0.13885842 2.475095 1.6736774e-38
0.36580005 -0.12440574 2.4780004 1.6736774e-38
0.82718444 -0.13908467 2.4723482 1.6736774e-38
0.84674811 -0.1473916 2.4535 1.6736774e-38
0.27687335 -0.11400667 2.4430003 1.6736774e-38
0.3019596 -0.10405614 2.4469466 1.6736774e-38
0.33868754 -0.10056659 2.466203 1.6736774e-38
