# .PCD v0.7 - Point Cloud Data file format
VERSION 0.7
FIELDS x y z rgb
SIZE 4 4 4 4
TYPE F F F F
COUNT 1 1 1 1
WIDTH 284
HEIGHT 1
VIEWPOINT 0 0 0 1 0 0 0
POINTS 284
DATA ascii
-0.081073157 -0.080696777 0.49320003 1.0337131e-38
-0.057785377 -0.086774692 0.50357282 1.0065242e-38
-0.039017718 -0.086629532 0.51860005 1.2005681e-38
-0.088442639 -0.063896023 0.49287295 9.1346191e-39
-0.065685958 -0.07205002 0.49882552 8.4964734e-39
-0.25366396 0.19862804 0.50268424 8.2943697e-39
-0.25916764 0.20774749 0.50510961 8.8464673e-39
-0.042219784 -0.094361424 0.54674 8.1273251e-39
-0.021740075 -0.089243352 0.54370373 6.4649255e-39
0.0044064736 -0.084044486 0.54311597 9.5030485e-39
-0.054193977 -0.057146214 0.54561323 6.0950205e-39
-0.023166461 -0.064731978 0.54345721 6.7414984e-39
0.003830784 -0.07360597 0.54184365 9.3103573e-39
-0.080101915 -0.034480955 0.55700004 9.7525048e-39
-0.068664953 -0.02873705 0.55568939 9.7813239e-39
-0.3024953 0.14004466 0.5462563 1.3087103e-38
-0.32294482 0.18643093 0.53723842 8.8475379e-39
-0.29878113 0.18602954 0.54243755 1.0136842e-38
-0.27275184 0.19429658 0.55313808 1.0505263e-38
-0.32642987 0.20705201 0.54312706 8.7578576e-39
-0.29757994 0.2190429 0.53624165 9.4918311e-39
-0.2733689 0.20547719 0.53869992 8.8475463e-39
-0.28902599 0.24178633 0.53760207 1.0135764e-38
-0.25863841 0.2469314 0.55020583 1.1887836e-38
-0.23380812 0.2508283 0.55842108 1.2441374e-38
-0.045544263 -0.10871856 0.56310797 1.0871919e-38
-0.029366227 -0.1056291 0.56458306 1.1162933e-38
0.021835197 -0.086094871 0.59057462 7.6573366e-39
-0.12181247 -0.046301682 0.57233346 1.7409858e-38
-0.10073119 -0.051308781 0.58402508 1.0127114e-38
-0.060714953 -0.046389155 0.56080395 4.5255354e-39
-0.013247089 -0.050217215 0.57924724 1.0520809e-38
0.016682463 -0.06922131 0.59313202 9.6867083e-39
-0.12235344 -0.0216686 0.5813787 1.5102423e-38
-0.11174382 -0.020803178 0.58562464 1.0310774e-38
-0.055278622 -0.021887416 0.57514679 5.354552e-39
-0.026187785 -0.0211164 0.57604247 1.2066106e-38
-0.1217341 0.003338912 0.58852386 1.8981101e-38
-0.10025157 0.020430921 0.58730423 1.3535456e-38
-0.055869903 0.02548348 0.58896303 1.1601506e-38
-0.027376197 0.019644728 0.58738112 1.6672634e-38
-0.091956489 0.05725807 0.57929683 1.224652e-38
-0.060564205 0.059635878 0.58362585 1.4640726e-38
-0.031275805 0.053362034 0.59024477 1.639713e-38
-0.087748185 0.095553704 0.59314829 9.7590377e-39
-0.067547947 0.092781842 0.59342593 1.3076282e-38
-0.25614813 0.19528751 0.56448174 1.2072227e-38
-0.23718609 0.19892538 0.57600009 1.2440653e-38
-0.28230667 0.21222356 0.56546515 9.4007144e-39
-0.25450546 0.21843027 0.57292932 9.3074426e-39
-0.22848882 0.22178595 0.58353901 9.7680634e-39
-0.24448618 0.24225177 0.57984221 1.1427205e-38
-0.22535923 0.2421819 0.58695477 7.2773437e-39
-0.018452555 -0.12108668 0.61045456 1.8262662e-38
-0.014155546 -0.11034344 0.60715252 9.2235805e-39
-0.088930532 -0.041773964 0.60802865 9.9459471e-39
-0.0033829899 -0.043700237 0.63513881 1.5951286e-38
0.0073453914 -0.051479176 0.63017738 1.089031e-38
-0.095806174 -0.01873792 0.60639191 8.5612162e-39
-0.076675691 -0.0059495885 0.61460811 7.8236483e-39
-0.0063518845 -0.03726377 0.63156521 2.0467068e-38
-0.084680289 0.0091478163 0.60493463 9.573559e-39
-0.069347456 0.013803433 0.60927606 9.2058569e-39
-0.041927621 0.079091743 0.60033333 1.5011312e-38
-0.034254421 0.074421227 0.60243148 1.7962294e-38
-0.094772562 0.11087206 0.60361844 1.0588084e-38
-0.054043781 0.10559412 0.60812223 1.4826196e-38
-0.036918957 0.09557198 0.61411333 1.6670113e-38
-0.0935831 0.14070329 0.6147539 8.6530573e-39
-0.061413527 0.13902774 0.61963999 1.4181187e-38
-0.038451016 0.12849221 0.63768756 1.5748526e-38
-0.094455019 0.17887366 0.62833589 8.1009625e-39
-0.06509646 0.17893539 0.62897593 1.2522391e-38
-0.21885715 0.23542857 0.60000002 9.4010788e-39
-0.088988051 0.20845106 0.63557106 7.8243756e-39
-0.07036525 0.2090455 0.63592541 9.7590447e-39
0.19681521 0.27418241 0.63857383 8.7448885e-39
0.21891291 0.26906896 0.63587016 1.0403329e-38
0.24647468 0.27314568 0.63660014 1.473616e-38
0.19567618 0.2831862 0.63808346 8.1920721e-39
0.21887419 0.28238928 0.6339376 9.3913313e-39
0.24918874 0.28281543 0.63606679 1.3721649e-38
-0.00060952385 -0.043276191 0.64000005 2.2214066e-38
0.025634829 -0.060609583 0.65217775 1.2918607e-38
-0.043071907 0.15183124 0.64301419 1.6943451e-38
-0.038464583 0.14686078 0.64528579 1.5471945e-38
-0.12145132 0.19181727 0.65467858 1.4922018e-38
-0.1132727 0.18894537 0.64520442 8.7456116e-39
-0.045619305 0.18182191 0.64714944 1.6944535e-38
-0.036487963 0.18630268 0.66268742 1.5930018e-38
-0.12108029 0.2095876 0.65873921 1.1040108e-38
-0.10142472 0.2230975 0.64814204 7.9165726e-39
-0.056436084 0.22276098 0.64893192 1.2706784e-38
-0.034770083 0.21982242 0.67138165 1.6114773e-38
0.19559176 0.23753409 0.673904 1.1692612e-38
0.22059092 0.23514079 0.67063212 1.3167024e-38
0.25561529 0.23560248 0.67318392 1.6669734e-38
0.28065336 0.23991334 0.67900002 1.9346283e-38
-0.096293457 0.25839838 0.66358119 7.1800894e-39
-0.059784718 0.25890273 0.66292506 9.0218398e-39
-0.035566006 0.25169215 0.67530739 1.3259235e-38
0.15446819 0.27173188 0.67348212 1.0126731e-38
0.18120582 0.26033002 0.65874046 1.0310765e-38
0.21988107 0.24960023 0.64942104 1.2245077e-38
0.26072243 0.25683063 0.65228719 1.7685337e-38
0.29343519 0.26430395 0.66674519 2.0729237e-38
-0.087055959 0.28352076 0.67588633 6.3510462e-39
-0.065465733 0.28588465 0.67629325 6.8102265e-39
0.14943485 0.2900458 0.67057264 8.8363611e-39
0.17415656 0.28589326 0.65173084 8.4686576e-39
0.26891208 0.28458798 0.64333332 1.6394598e-38
0.30215046 0.28897396 0.6629914 1.8791683e-38
0.32453391 0.29568285 0.67683131 1.7684615e-38
-0.028131776 0.22668436 0.68252856 1.5194246e-38
0.15327981 0.23090124 0.71427631 1.1323833e-38
0.18139644 0.22451741 0.70426595 1.1968479e-38
0.21934193 0.21753146 0.70044905 1.3350696e-38
0.25958744 0.21996287 0.7002067 1.6669016e-38
0.29383668 0.22971034 0.70538414 1.9804393e-38
0.32139048 0.23933239 0.71800005 2.035902e-38
-0.10961016 0.27164382 0.68099999 7.1808153e-39
-0.041714132 0.27752206 0.68083334 9.6664861e-39
-0.018136963 0.26453552 0.70486027 9.9412695e-39
0.013986154 0.26792386 0.7163952 1.0034183e-38
0.11932428 0.27830952 0.71800005 9.2955442e-39
0.14275837 0.26068181 0.70091367 1.0494792e-38
0.16881248 0.24571715 0.68800002 1.1231634e-38
0.30788633 0.25225988 0.69176966 2.082035e-38
0.33491573 0.26601544 0.70657688 2.0176059e-38
-0.094984733 0.30035555 0.69511163 6.720193e-39
-0.055980138 0.29877016 0.68691707 6.9024207e-39
-0.0193724 0.29802498 0.70529789 8.0066046e-39
0.011219418 0.29356417 0.71519566 7.9144076e-39
0.11359659 0.30237439 0.71143472 8.37502e-39
0.12988952 0.29320538 0.69415629 9.1118648e-39
0.31927618 0.28041905 0.68000001 2.1188413e-38
0.33946314 0.29128495 0.69174707 1.8607294e-38
-0.099960007 0.32028005 0.71400005 6.8094796e-39
-0.0027342858 0.32070667 0.71800005 4.6922437e-39
0.10457303 0.3205578 0.71766675 7.2704675e-39
0.18625143 0.15954095 0.75800002 1.5468677e-38
-0.0018765714 0.19928458 0.75760001 1.2058163e-38
0.024847677 0.19356322 0.7507416 1.279573e-38
0.059866849 0.19078276 0.74956727 1.3718045e-38
0.098974936 0.19140793 0.75392252 1.334962e-38
0.14303635 0.18451831 0.74903697 1.1967769e-38
0.18010822 0.18121101 0.74144924 1.3902075e-38
0.21921231 0.18325552 0.74018699 1.5283927e-38
0.25689024 0.18936551 0.74248433 1.7680651e-38
0.29114258 0.19612885 0.75264007 1.887919e-38
-0.014301157 0.22133736 0.73931891 1.0860341e-38
0.019767737 0.22004406 0.73381913 1.1414595e-38
0.059938308 0.21993384 0.7347998 1.2336913e-38
0.099524349 0.21971531 0.7429952 1.0955417e-38
0.13738316 0.21827908 0.73538458 1.0310404e-38
0.1747078 0.20508946 0.72290605 1.2613135e-38
0.2196684 0.20157324 0.72148329 1.4178657e-38
0.26411632 0.20375419 0.72575295 1.7589534e-38
0.30307865 0.21303591 0.7362451 1.9526363e-38
0.33685082 0.22600949 0.74409032 2.0080622e-38
0.36857361 0.23308276 0.75315273 1.8790961e-38
-0.013225768 0.24580027 0.72343463 1.0123856e-38
0.024109965 0.25303638 0.72239333 1.0310407e-38
0.059502646 0.25952968 0.72860694 8.8359982e-39
0.10194828 0.26044029 0.74065131 6.8091376e-39
0.12680453 0.25371704 0.7273984 8.7441655e-39
0.34761378 0.25177786 0.72893602 1.9068275e-38
0.36540926 0.2522276 0.73793566 1.7225436e-38
-0.11225107 0.31541291 0.72407699 7.6374718e-39
0.027237516 0.30370054 0.72639543 5.7953515e-39
0.057649009 0.29659873 0.73915613 5.0592228e-39
0.098285198 0.29873034 0.73796678 6.4410754e-39
-0.10966878 0.32358885 0.72713536 1.2158994e-38
-0.0006857143 0.3209143 0.72000003 4.8744826e-39
0.018010119 0.32261503 0.73115283 2.6671881e-39
0.056964647 0.32276249 0.74812508 3.1288865e-39
0.088484272 0.32584637 0.74223888 5.7967864e-39
0.3855336 -0.0091013573 0.79236495 6.6319631e-39
0.35874107 0.036272503 0.79762501 1.0772111e-38
0.38202077 0.027517928 0.79258883 1.1233094e-38
0.35368595 0.064548098 0.79357636 9.7590419e-39
0.37570044 0.059258342 0.78648555 1.0404776e-38
0.35319081 0.097837813 0.79437178 6.6287149e-39
0.37579221 0.10028917 0.78552979 6.5386856e-39
0.071819626 0.15555342 0.79243439 1.399319e-38
0.10303254 0.14836097 0.78569037 1.3533651e-38
0.14060901 0.14252506 0.78094339 1.4362691e-38
0.17878985 0.14366648 0.7774775 1.6021847e-38
0.21755904 0.15065788 0.78111506 1.6574302e-38
0.25304207 0.15588768 0.79076684 1.6298432e-38
0.35751212 0.12346058 0.79656529 6.1680955e-39
0.37929854 0.1316963 0.79105222 6.3535713e-39
-0.0057276483 0.19551188 0.76875758 1.2612781e-38
0.021034578 0.18153569 0.77381104 1.3441458e-38
0.060025811 0.17111214 0.77387303 1.4270136e-38
0.099879935 0.17146574 0.76716882 1.3441095e-38
0.13306998 0.16737293 0.7628507 1.2612778e-38
0.17948259 0.16099718 0.76033342 1.5007342e-38
0.22523117 0.16363557 0.76388609 1.6389555e-38
0.26250759 0.17045814 0.77329332 1.7219675e-38
0.29975119 0.18139467 0.77882415 1.7958677e-38
0.33495185 0.19149387 0.78826213 1.9803311e-38
0.36880001 0.19864389 0.79733342 1.8605487e-38
-0.022127973 0.20584412 0.7658335 1.2060687e-38
0.31846401 0.20083503 0.76240009 1.9340531e-38
0.34593093 0.20877197 0.77112269 1.970932e-38
0.37605846 0.21478724 0.77963543 1.906611e-38
0.40052003 0.21356 0.79800004 1.8235635e-38
0.078238353 0.31434318 0.76904339 2.4824367e-39
0.086342797 0.30508086 0.76256788 3.218557e-39
0.073338516 0.33366963 0.77703071 3.8635662e-39
0.080425084 0.3301436 0.76077783 4.8766336e-39
0.39273509 -0.082602993 0.83620006 4.3317569e-39
0.40845275 -0.084637791 0.83477277 4.792019e-39
0.35830891 -0.042494286 0.83833343 3.4069223e-39
0.38477045 -0.055777252 0.82807696 4.2363186e-39
0.40606886 -0.062411405 0.82245553 4.0522889e-39
0.35403708 -0.013093295 0.83164299 5.0660779e-39
0.37783825 -0.022459647 0.81606656 7.0911336e-39
0.40175635 -0.032090846 0.80600005 1.0405127e-38
0.34597528 0.021909319 0.82044131 9.5750122e-39
0.37338114 0.011907101 0.80392039 1.0126744e-38
0.31898686 0.067247428 0.8386001 1.0218931e-38
0.3358072 0.059318859 0.81652224 9.4831725e-39
0.11662784 0.11768709 0.82811111 1.4178669e-38
0.14238136 0.11482506 0.81848609 1.4824387e-38
0.17418243 0.11409502 0.81866974 1.5653429e-38
0.31808266 0.10854945 0.83765137 1.0771381e-38
0.33369118 0.10019486 0.81779742 8.1013156e-39
0.064701557 0.14966397 0.81132358 1.3994269e-38
0.099097051 0.13231514 0.81345087 1.4179017e-38
0.13584347 0.12273572 0.80500972 1.4916221e-38
0.18364805 0.12399302 0.80695587 1.6575018e-38
0.22069386 0.13702129 0.81250781 1.5745254e-38
0.26125512 0.14727278 0.81696087 1.4363403e-38
0.30373865 0.14487542 0.8288812 1.2522013e-38
0.33944407 0.13893227 0.82332033 1.040296e-38
0.37009251 0.14584135 0.81429058 9.6668364e-39
0.036255006 0.16641058 0.80558336 1.4087185e-38
0.04488904 0.16192387 0.80674297 1.417902e-38
0.30493501 0.16458444 0.80673146 1.6300592e-38
0.34323436 0.17436972 0.81568003 1.8421095e-38
0.37695742 0.18489893 0.82123095 1.8882435e-38
0.40830997 0.19482137 0.82792789 1.8052317e-38
0.39307731 0.20437989 0.8027907 1.8881718e-38
0.40434158 0.20513234 0.81030947 1.8328187e-38
0.39111498 -0.084881812 0.84154546 4.4239525e-39
0.40688381 -0.085701905 0.84100002 4.606906e-39
0.34603179 -0.050186042 0.85918689 2.9473847e-39
0.37379387 -0.063715674 0.84455144 2.9484609e-39
0.3157019 -0.010581633 0.87408733 1.0493722e-38
0.33770224 -0.020518215 0.85656101 6.0766229e-39
0.31367236 0.021467447 0.8658731 1.1506795e-38
0.32912055 0.016744906 0.8548376 1.0770669e-38
0.31357053 0.063225284 0.86367482 1.1601144e-38
0.32262287 0.052617852 0.84892124 1.0680627e-38
0.13461238 0.1137381 0.84300011 1.417795e-38
0.27737597 0.11947309 0.87725002 1.2522729e-38
0.30473348 0.10157245 0.85729951 1.1784811e-38
0.32050842 0.08297696 0.84259999 1.021929e-38
0.23192823 0.13214189 0.86793464 1.3443252e-38
0.26264632 0.13204916 0.85941041 1.3074829e-38
0.29266265 0.12925975 0.85009789 1.2061396e-38
0.38076845 0.1558989 0.84112877 1.5750641e-38
0.38793612 0.17131886 0.84805804 1.9803308e-38
0.41577166 0.18543838 0.85951632 1.7591336e-38
0.44150859 0.18981524 0.87800002 1.6578618e-38
0.33743432 -0.056018099 0.89168268 3.5923926e-39
0.31069392 -0.0023945579 0.88000011 9.2995015e-39
0.32572791 -0.031662997 0.8898254 3.8675389e-39
0.3093603 0.021560054 0.89909315 6.9067437e-39
0.30597192 0.059611302 0.89123476 1.0406568e-38
0.22383446 0.11798619 0.89590764 1.3997165e-38
0.26750112 0.1149997 0.89857483 1.2891164e-38
0.29076329 0.098267905 0.89069116 1.1969927e-38
0.22187388 0.12416036 0.88578337 1.3351418e-38
0.25193015 0.12293404 0.88597494 1.3259581e-38
0.42933893 0.18150763 0.88661009 1.6760852e-38
0.44586042 0.18585071 0.89258975 1.5839982e-38
0.26899049 0.11127619 0.92000002 1.6596636e-38
-0.028455565 0.17615052 0.68649 1.3625862e-38
0.07628192 0.1622384 0.65178502 1.1512547e-38
-0.13187742 0.12174584 0.74509233 1.3821426e-38
0.063741468 0.09653426 0.74581301 1.1973898e-38
