# .PCD v0.7 - Point Cloud Data file format
VERSION 0.7
FIELDS x y z rgb
SIZE 4 4 4 4
TYPE F F F F
COUNT 1 1 1 1
WIDTH 1015
HEIGHT 1
VIEWPOINT 0 0 0 1 0 0 0
POINTS 1015
DATA ascii
-0.76315433 0.37456286 1.473 5.6255729e-39
-0.75624621 0.36352694 1.459286 5.6255729e-39
-0.65085965 0.63142729 1.4718 5.6255729e-39
-0.65343565 0.65248138 1.4653331 5.6255729e-39
-0.61166573 0.65900433 1.471105 5.6255729e-39
-0.90594721 0.15100977 1.5190002 5.6255729e-39
-0.89531696 0.18043876 1.5150591 5.6255729e-39
-0.87569851 0.18905397 1.5174694 5.6255729e-39
-0.89108467 0.21869962 1.5065479 5.6255729e-39
-0.86751121 0.22347946 1.5148771 5.6255729e-39
-0.83472669 0.2387 1.5190001 5.6255729e-39
-0.887097 0.25637269 1.4910488 5.6255729e-39
-0.85870469 0.25992447 1.5034865 5.6255729e-39
-0.83061498 0.26464823 1.5184991 5.6255729e-39
-0.84915388 0.28369737 1.5070002 5.6255729e-39
-0.81825399 0.29894081 1.5171289 5.6255729e-39
-0.79581577 0.30859351 1.5160841 5.6255729e-39
-0.80986255 0.34120926 1.5030006 5.6255729e-39
-0.78089583 0.34361726 1.5159993 5.6255729e-39
-0.80972487 0.36878842 1.49814 5.6255729e-39
-0.7727049 0.37588453 1.5034056 5.6255729e-39
-0.74608314 0.38452169 1.5129266 5.6255729e-39
-0.76654708 0.41032496 1.507172 5.6255729e-39
-0.73854864 0.41812164 1.5090883 5.6255729e-39
-0.71284944 0.42888665 1.5136815 5.6255729e-39
-0.72666818 0.4466753 1.5076367 5.6255729e-39
-0.70081997 0.45860776 1.5122966 5.6255729e-39
-0.676364 0.47651869 1.5162001 5.6255729e-39
-0.68327999 0.48312002 1.5120001 5.6255729e-39
-0.66583467 0.49698368 1.5144885 5.6255729e-39
-0.64694768 0.63010275 1.4806151 5.6255729e-39
-0.62463516 0.63289386 1.4924408 5.6255729e-39
-0.58799124 0.63146061 1.5087063 5.6255729e-39
-0.54354733 0.61852384 1.4967002 5.6255729e-39
-0.6519556 0.65214735 1.4838878 5.6255729e-39
-0.61894584 0.65505558 1.4946934 5.6255729e-39
-0.58333731 0.65899807 1.5065916 5.6255729e-39
-0.55660188 0.67441958 1.5185337 5.6255729e-39
-0.64223999 0.68256003 1.5120001 5.6255729e-39
-0.56736004 0.68112004 1.5120001 5.6255729e-39
-0.55453146 0.68258291 1.5180001 5.6255729e-39
-0.92666894 0.069727555 1.551688 5.6255729e-39
-0.91291291 0.07101398 1.5512503 5.6255729e-39
-0.92388916 0.095149167 1.5433757 5.6255729e-39
-0.90257442 0.10309758 1.5442913 5.6255729e-39
-0.87437695 0.11564492 1.5479444 5.6255729e-39
-0.92065907 0.12110095 1.5320001 5.6255729e-39
-0.89699215 0.13921194 1.534024 5.6255729e-39
-0.86931723 0.14514916 1.548528 5.6255729e-39
-0.88580191 0.16674617 1.5291567 5.6255729e-39
-0.85957307 0.17993556 1.5394669 5.6255729e-39
-0.82956046 0.19201152 1.5509006 5.6255729e-39
-0.85295087 0.2157999 1.5343148 5.6255729e-39
-0.82333761 0.22286631 1.5454539 5.6255729e-39
-0.79668969 0.23205715 1.5520003 5.6255729e-39
-0.81449687 0.25727588 1.533976 5.6255729e-39
-0.79002601 0.26624089 1.544495 5.6255729e-39
-0.81169951 0.28620979 1.5250005 5.6255729e-39
-0.78022659 0.30044281 1.5380237 5.6255729e-39
-0.75464487 0.31062707 1.5501182 5.6255729e-39
-0.80639428 0.329045 1.5250001 5.6255729e-39
-0.77137613 0.3353624 1.5307113 5.6255729e-39
-0.74445832 0.34167236 1.5424999 5.6255729e-39
-0.76268959 0.36122355 1.5273335 5.6255729e-39
-0.73451471 0.3751421 1.5373505 5.6255729e-39
-0.71103334 0.38891888 1.5453001 5.6255729e-39
-0.72360617 0.40325025 1.5270002 5.6255729e-39
-0.70161885 0.41948938 1.5371516 5.6255729e-39
-0.67563605 0.43215758 1.5436667 5.6255729e-39
-0.68810177 0.45374072 1.532443 5.6255729e-39
-0.66557866 0.46401006 1.5418007 5.6255729e-39
-0.68116671 0.49090481 1.5250001 5.6255729e-39
-0.65471524 0.49700075 1.5339258 5.6255729e-39
-0.62055218 0.50760698 1.5482471 5.6255729e-39
-0.64448518 0.52505696 1.5466366 5.6255729e-39
-0.61743492 0.52377141 1.5408068 5.6255729e-39
-0.59270245 0.52784461 1.5482709 5.6255729e-39
-0.60220385 0.57422858 1.5460001 5.6255729e-39
-0.58861077 0.5768888 1.5324999 5.6255729e-39
-0.54428953 0.57239145 1.5530001 5.6255729e-39
-0.5094263 0.57365924 1.5530002 5.6255729e-39
-0.57068193 0.63759816 1.5273335 5.6255729e-39
-0.54604799 0.63570398 1.5305998 5.6255729e-39
-0.49690524 0.61380488 1.5530003 5.6255729e-39
-0.56998563 0.65421504 1.5275561 5.6255729e-39
-0.53954393 0.65994203 1.5350382 5.6255729e-39
-0.51157784 0.66939139 1.549787 5.6255729e-39
-0.60273814 0.68842864 1.5250001 5.6255729e-39
-0.59170002 0.68581444 1.525 5.6255729e-39
-0.53377259 0.68472064 1.5295659 5.6255729e-39
-0.50561982 0.69033182 1.5485206 5.6255729e-39
-0.94445008 -0.052539997 1.5931551 5.6255729e-39
-0.91960001 -0.042560004 1.5960001 5.6255729e-39
-0.93510664 -0.019666765 1.586283 5.6255729e-39
-0.91286165 -0.016264003 1.5960007 5.6255729e-39
-0.93068582 0.017657416 1.5718461 5.6255729e-39
-0.9015485 0.022056855 1.5858523 5.6255729e-39
-0.87777561 0.03389556 1.5936668 5.6255729e-39
-0.92961007 0.049235526 1.5633752 5.6255729e-39
-0.89826185 0.058279768 1.5721337 5.6255729e-39
-0.86612493 0.066202626 1.5886503 5.6255729e-39
-0.83676004 0.073720008 1.5960001 5.6255729e-39
-0.89009249 0.091965064 1.5650445 5.6255729e-39
-0.86021131 0.10000305 1.5787145 5.6255729e-39
-0.83130038 0.1034923 1.592225 5.6255729e-39
-0.85453165 0.13689923 1.5684912 5.6255729e-39
-0.81973529 0.14112784 1.5835133 5.6255729e-39
-0.79457998 0.1577 1.596 5.6255729e-39
-0.84460688 0.16796425 1.5649261 5.6255729e-39
-0.81642818 0.17755741 1.5710138 5.6255729e-39
-0.78790975 0.18450519 1.5900211 5.6255729e-39
-0.75848001 0.19912 1.5960001 5.6255729e-39
-0.80755991 0.21175458 1.5629816 5.6255729e-39
-0.77898568 0.21997662 1.5772823 5.6255729e-39
-0.75407207 0.22101247 1.5958163 5.6255729e-39
-0.80179048 0.24563813 1.5600002 5.6255729e-39
-0.77358156 0.25676978 1.5642241 5.6255729e-39
-0.74558043 0.26262391 1.5860094 5.6255729e-39
-0.71895999 0.27131999 1.5960001 5.6255729e-39
-0.76794523 0.2864311 1.5604671 5.6255729e-39
-0.73820233 0.29875207 1.5738159 5.6255729e-39
-0.71000648 0.30660269 1.5901419 5.6255729e-39
-0.72825688 0.3362312 1.5639054 5.6255729e-39
-0.70234621 0.34128225 1.5835619 5.6255729e-39
-0.67630917 0.3515541 1.5934079 5.6255729e-39
-0.72106671 0.36895239 1.5600002 5.6255729e-39
-0.69630945 0.37691694 1.5678639 5.6255729e-39
-0.66513628 0.3839213 1.5882937 5.6255729e-39
-0.63519657 0.39328918 1.5937898 5.6255729e-39
-0.68662411 0.41321522 1.5636404 5.6255729e-39
-0.65991098 0.41912109 1.5759677 5.6255729e-39
-0.6244629 0.42393771 1.5882815 5.6255729e-39
-0.65222913 0.45570719 1.564 5.6255729e-39
-0.61845666 0.46037951 1.577576 5.6255729e-39
-0.59369707 0.46713862 1.5925603 5.6255729e-39
-0.6414696 0.49187419 1.561077 5.6255729e-39
-0.61473274 0.49541456 1.5645578 5.6255729e-39
-0.58286291 0.50318164 1.5820084 5.6255729e-39
-0.55365974 0.51346457 1.589955 5.6255729e-39
-0.64034289 0.53188574 1.5600001 5.6255729e-39
-0.6309334 0.52742863 1.5600002 5.6255729e-39
-0.57292342 0.532781 1.5720648 5.6255729e-39
-0.54633617 0.54235083 1.589664 5.6255729e-39
-0.56530666 0.56227112 1.5913334 5.6255729e-39
-0.53649777 0.56864101 1.5873784 5.6255729e-39
-0.51416385 0.5742355 1.5897446 5.6255729e-39
-0.52084094 0.62530762 1.567 5.6255729e-39
-0.49998045 0.61783242 1.573539 5.6255729e-39
-0.47454405 0.63627201 1.5960001 5.6255729e-39
-0.52148569 0.65074289 1.5600001 5.6255729e-39
-0.49633208 0.6617915 1.5669992 5.6255729e-39
-0.46327263 0.66559726 1.5877315 5.6255729e-39
-0.43563071 0.67211753 1.5878465 5.6255729e-39
-0.48830307 0.68975759 1.5606005 5.6255729e-39
-0.46171948 0.69566399 1.5792521 5.6255729e-39
-0.42727512 0.70175391 1.5903295 5.6255729e-39
-0.98195624 -0.20074858 1.6340001 5.6255729e-39
-0.97306335 -0.17688696 1.6340013 5.6255729e-39
-0.95705718 -0.16184381 1.6340001 5.6255729e-39
-0.9694466 -0.14100926 1.6280255 5.6255729e-39
-0.94793797 -0.1345875 1.6278765 5.6255729e-39
-0.96531039 -0.10183846 1.6126999 5.6255729e-39
-0.9395414 -0.099583119 1.617678 5.6255729e-39
-0.91392529 -0.094852135 1.6327147 5.6255729e-39
-0.96237719 -0.075953975 1.6056666 5.6255729e-39
-0.93201822 -0.066005461 1.607707 5.6255729e-39
-0.90461212 -0.057903878 1.6261095 5.6255729e-39
-0.87924761 -0.04824191 1.6340001 5.6255729e-39
-0.92057997 -0.03664 1.603 5.6255729e-39
-0.89483047 -0.021732215 1.614292 5.6255729e-39
-0.86892843 -0.013115542 1.6303303 5.6255729e-39
-0.88733667 0.010627922 1.6074147 5.6255729e-39
-0.86009264 0.020550303 1.6184534 5.6255729e-39
-0.83457989 0.024654966 1.6330855 5.6255729e-39
-0.88088667 0.044273332 1.603 5.6255729e-39
-0.85607654 0.052427992 1.6061541 5.6255729e-39
-0.82743853 0.06300839 1.6205206 5.6255729e-39
-0.85218537 0.082745336 1.603 5.6255729e-39
-0.81519616 0.097669207 1.6145014 5.6255729e-39
-0.78964978 0.10616246 1.6266537 5.6255729e-39
-0.80469745 0.13178881 1.6078607 5.6255729e-39
-0.78096998 0.14176889 1.6214319 5.6255729e-39
-0.75427204 0.15665504 1.6322222 5.6255729e-39
-0.77156252 0.17546996 1.6129078 5.6255729e-39
-0.75023627 0.18421543 1.6257976 5.6255729e-39
-0.7375108 0.21986355 1.6173899 5.6255729e-39
-0.70796746 0.2319871 1.6299996 5.6255729e-39
-0.72989303 0.25147048 1.6124995 5.6255729e-39
-0.7027061 0.26111549 1.6211468 5.6255729e-39
-0.67551565 0.27517781 1.6293334 5.6255729e-39
-0.69647443 0.2967954 1.6136568 5.6255729e-39
-0.66588539 0.30465871 1.6278991 5.6255729e-39
-0.68491709 0.32683817 1.6067649 5.6255729e-39
-0.66081297 0.33869371 1.6170933 5.6255729e-39
-0.63119328 0.35116452 1.6255935 5.6255729e-39
-0.65402132 0.36978012 1.6089399 5.6255729e-39
-0.62160248 0.3808386 1.620708 5.6255729e-39
-0.59864199 0.39494607 1.6326666 5.6255729e-39
-0.6122303 0.41255113 1.609552 5.6255729e-39
-0.58920258 0.42302638 1.6227207 5.6255729e-39
-0.57842857 0.45850617 1.6155839 5.6255729e-39
-0.55223745 0.47083911 1.6274996 5.6255729e-39
-0.56801182 0.4902592 1.6054122 5.6255729e-39
-0.54131663 0.50067002 1.6213089 5.6255729e-39
-0.51821142 0.51043046 1.6340001 5.6255729e-39
-0.53057241 0.53595978 1.6124824 5.6255729e-39
-0.50545317 0.54522258 1.6232048 5.6255729e-39
-0.57287776 0.58186287 1.6213636 5.6255729e-39
-0.54487532 0.58210301 1.6097001 5.6255729e-39
-0.4972553 0.57909638 1.616226 5.6255729e-39
-0.46095717 0.58924937 1.630585 5.6255729e-39
-0.43728954 0.59913337 1.6340001 5.6255729e-39
-0.49116907 0.61490947 1.610769 5.6255729e-39
-0.45969921 0.6217891 1.6204858 5.6255729e-39
-0.42990172 0.63049883 1.6296563 5.6255729e-39
-0.48379761 0.64352477 1.6050001 5.6255729e-39
-0.45467234 0.65165222 1.6067398 5.6255729e-39
-0.42081541 0.65998411 1.6202018 5.6255729e-39
-0.39652553 0.66494751 1.6337036 5.6255729e-39
-0.4121258 0.69512904 1.6122717 5.6255729e-39
-0.3891072 0.70349866 1.6252409 5.6255729e-39
-0.37357175 0.72535753 1.6281246 5.6255729e-39
-0.35325524 0.72207242 1.6340001 5.6255729e-39
-1.0035366 -0.298664 1.6686926 5.6255729e-39
-0.99329644 -0.28816032 1.667824 5.6255729e-39
-0.98355228 -0.25815791 1.6623503 5.6255729e-39
-0.95323801 -0.24471974 1.6718003 5.6255729e-39
-0.97559547 -0.22051698 1.6532991 5.6255729e-39
-0.949664 -0.21830338 1.6639222 5.6255729e-39
-0.96484333 -0.18639623 1.6474311 5.6255729e-39
-0.94077408 -0.17953892 1.6599067 5.6255729e-39
-0.91561151 -0.17366529 1.6693434 5.6255729e-39
-0.93470782 -0.14354014 1.6500674 5.6255729e-39
-0.90265864 -0.13641159 1.6618707 5.6255729e-39
-0.87496418 -0.13271426 1.6707603 5.6255729e-39
-0.92427367 -0.11658915 1.641 5.6255729e-39
-0.8972674 -0.10164517 1.6528053 5.6255729e-39
-0.8651517 -0.096621372 1.6632279 5.6255729e-39
-0.88833213 -0.070341513 1.6463329 5.6255729e-39
-0.86062104 -0.059175812 1.6552399 5.6255729e-39
-0.83360416 -0.048884023 1.6670005 5.6255729e-39
-0.85433972 -0.024328902 1.6466824 5.6255729e-39
-0.82730454 -0.019028705 1.6601616 5.6255729e-39
-0.84511501 0.0050792857 1.6409999 5.6255729e-39
-0.81791776 0.020089092 1.6529173 5.6255729e-39
-0.79173297 0.030287985 1.6666001 5.6255729e-39
-0.81117684 0.056697119 1.6440592 5.6255729e-39
-0.78277791 0.062503628 1.658128 5.6255729e-39
-0.7577439 0.074594103 1.6666001 5.6255729e-39
-0.77561635 0.096042648 1.6496767 5.6255729e-39
-0.75037628 0.1048191 1.6621298 5.6255729e-39
-0.76587772 0.12998402 1.6445289 5.6255729e-39
-0.74102539 0.14074051 1.6562849 5.6255729e-39
-0.71859342 0.15774001 1.6730001 5.6255729e-39
-0.73163438 0.17796046 1.64666 5.6255729e-39
-0.70725614 0.18247382 1.6634917 5.6255729e-39
-0.67079341 0.19453152 1.6730002 5.6255729e-39
-0.72137028 0.20741349 1.641 5.6255729e-39
-0.69741344 0.21755007 1.6537133 5.6255729e-39
-0.66311806 0.225105 1.66795 5.6255729e-39
-0.68551648 0.25082201 1.6485198 5.6255729e-39
-0.65839881 0.25994068 1.6548855 5.6255729e-39
-0.62872988 0.26875016 1.6698565 5.6255729e-39
-0.6533733 0.29383212 1.6440349 5.6255729e-39
-0.6204688 0.30033073 1.658352 5.6255729e-39
-0.59622544 0.31452402 1.6730002 5.6255729e-39
-0.64233428 0.32819998 1.641 5.6255729e-39
-0.6170488 0.33716089 1.6487874 5.6255729e-39
-0.58747435 0.34629393 1.6675981 5.6255729e-39
-0.60401893 0.37179059 1.6420001 5.6255729e-39
-0.57908398 0.37932649 1.6511258 5.6255729e-39
-0.54838437 0.38846371 1.669185 5.6255729e-39
-0.57161409 0.41557994 1.6419609 5.6255729e-39
-0.54167092 0.42137015 1.65887 5.6255729e-39
-0.51110595 0.43444887 1.6730002 5.6255729e-39
-0.56419146 0.44757831 1.6410003 5.6255729e-39
-0.53635007 0.45704937 1.6455722 5.6255729e-39
-0.50665802 0.46266347 1.6652669 5.6255729e-39
-0.46183908 0.47117147 1.6730002 5.6255729e-39
-0.52572894 0.49372685 1.6414703 5.6255729e-39
-0.49894357 0.5000065 1.6529409 5.6255729e-39
-0.46298987 0.50471568 1.6714541 5.6255729e-39
-0.43816668 0.51783335 1.6730001 5.6255729e-39
-0.5204314 0.5204314 1.641 5.6255729e-39
-0.49555522 0.53262049 1.6431285 5.6255729e-39
-0.46183813 0.53987169 1.6587533 5.6255729e-39
-0.43224993 0.54449767 1.6709708 5.6255729e-39
-0.39291605 0.53950268 1.6730002 5.6255729e-39
-0.48292285 0.56106573 1.641 5.6255729e-39
-0.45986611 0.57326984 1.6442854 5.6255729e-39
-0.42333043 0.58120668 1.6610855 5.6255729e-39
-0.39992669 0.58156669 1.6730001 5.6255729e-39
-0.46041775 0.606076 1.641 5.6255729e-39
-0.41565317 0.61824369 1.6526779 5.6255729e-39
-0.38384196 0.62454665 1.6699734 5.6255729e-39
-0.35584447 0.63388109 1.6730002 5.6255729e-39
-0.4101384 0.64278078 1.641 5.6255729e-39
-0.3786771 0.65888596 1.6534261 5.6255729e-39
-0.34930554 0.66282171 1.6702778 5.6255729e-39
-0.3711088 0.69805145 1.6422178 5.6255729e-39
-0.34080595 0.69915426 1.6606674 5.6255729e-39
-0.3110677 0.71148473 1.6730002 5.6255729e-39
-0.36297357 0.72633785 1.6409999 5.6255729e-39
-0.33603054 0.72998029 1.6529645 5.6255729e-39
-0.30376533 0.73808855 1.6716379 5.6255729e-39
-0.27883336 0.74727333 1.6730001 5.6255729e-39
-1.0195824 -0.41590539 1.7117661 5.6255729e-39
-1.0129715 -0.37996534 1.7023916 5.6255729e-39
-0.99198306 -0.37102306 1.7061113 5.6255729e-39
-1.0109144 -0.34045887 1.6931381 5.6255729e-39
-0.9833765 -0.33670041 1.7009076 5.6255729e-39
-0.9575789 -0.32665882 1.7137144 5.6255729e-39
-1.0062498 -0.31179988 1.6857142 5.6255729e-39
-0.97886038 -0.30116096 1.6945308 5.6255729e-39
-0.94998294 -0.29439411 1.7068543 5.6255729e-39
-0.97302675 -0.27012005 1.6854039 5.6255729e-39
-0.94066811 -0.26050583 1.6988199 5.6255729e-39
-0.90262645 -0.25359276 1.7146729 5.6255729e-39
-0.93190533 -0.22174813 1.687667 5.6255729e-39
-0.89913142 -0.21818832 1.7028427 5.6255729e-39
-0.87056667 -0.20253335 1.715 5.6255729e-39
-0.92374957 -0.1953162 1.6810001 5.6255729e-39
-0.89798355 -0.18146855 1.6893204 5.6255729e-39
-0.86857158 -0.17733158 1.7060701 5.6255729e-39
-0.89426464 -0.15274011 1.6822498 5.6255729e-39
-0.85950625 -0.14001387 1.6985041 5.6255729e-39
-0.83517569 -0.13565977 1.7146788 5.6255729e-39
-0.84932536 -0.10443735 1.687724 5.6255729e-39
-0.82507038 -0.095476992 1.7083108 5.6255729e-39
-0.7954334 -0.086566672 1.715 5.6255729e-39
-0.84423566 -0.07133133 1.6809999 5.6255729e-39
-0.81940502 -0.060936924 1.6954806 5.6255729e-39
-0.78994691 -0.049218934 1.7094669 5.6255729e-39
-0.81116658 -0.021524936 1.6841139 5.6255729e-39
-0.78228605 -0.018695446 1.7024617 5.6255729e-39
-0.75372046 -0.0054025645 1.715 5.6255729e-39
-0.80586129 0.0048028571 1.681 5.6255729e-39
-0.77779102 0.017257273 1.6918362 5.6255729e-39
-0.74868166 0.023656264 1.7103379 5.6255729e-39
-0.76984614 0.051102489 1.6856455 5.6255729e-39
-0.73939085 0.059914839 1.6971841 5.6255729e-39
-0.71144408 0.07072226 1.712912 5.6255729e-39
-0.76045239 0.083249524 1.6810001 5.6255729e-39
-0.73498124 0.096471421 1.686233 5.6255729e-39
-0.70170742 0.099939317 1.7065221 5.6255729e-39
-0.67254835 0.10435521 1.7136407 5.6255729e-39
-0.72526759 0.13317323 1.6826577 5.6255729e-39
-0.70058334 0.13969672 1.6916773 5.6255729e-39
-0.66423804 0.14286979 1.7076147 5.6255729e-39
-0.63754445 0.15516667 1.715 5.6255729e-39
-0.69057751 0.176296 1.6822857 5.6255729e-39
-0.65803152 0.1783369 1.6936728 5.6255729e-39
-0.62561291 0.18467207 1.7096677 5.6255729e-39
-0.59682006 0.19567333 1.715 5.6255729e-39
-0.68280619 0.20332095 1.681 5.6255729e-39
-0.64986473 0.21215573 1.6848922 5.6255729e-39
-0.62051439 0.22100912 1.6997738 5.6255729e-39
-0.59452438 0.22281939 1.7132344 5.6255729e-39
-0.64198196 0.24654669 1.6810001 5.6255729e-39
-0.61413157 0.25529769 1.6865575 5.6255729e-39
-0.58257669 0.26189914 1.7049159 5.6255729e-39
-0.55369997 0.27799332 1.715 5.6255729e-39
-0.60279667 0.2909922 1.681 5.6255729e-39
-0.57793105 0.29932535 1.6921428 5.6255729e-39
-0.5424729 0.30264321 1.7125299 5.6255729e-39
-0.51646006 0.31588671 1.715 5.6255729e-39
-0.5714401 0.33412394 1.6870282 5.6255729e-39
-0.53936476 0.34014776 1.7012393 5.6255729e-39
-0.5093863 0.34809184 1.7134025 5.6255729e-39
-0.56193435 0.36021432 1.6810001 5.6255729e-39
-0.53591305 0.37466437 1.686723 5.6255729e-39
-0.50118077 0.38074934 1.7043556 5.6255729e-39
-0.47140357 0.3849006 1.7114 5.6255729e-39
-0.52363944 0.41208512 1.6809999 5.6255729e-39
-0.49849123 0.41854915 1.6951036 5.6255729e-39
-0.46190664 0.42167202 1.7071146 5.6255729e-39
-0.43254927 0.42289138 1.715 5.6255729e-39
-0.48798683 0.45422009 1.6846985 5.6255729e-39
-0.45809111 0.45906192 1.6923056 5.6255729e-39
-0.4317311 0.46195954 1.7077273 5.6255729e-39
-0.48348764 0.48668951 1.681 5.6255729e-39
-0.45258394 0.49353173 1.6836325 5.6255729e-39
-0.4265624 0.50167567 1.6966939 5.6255729e-39
-0.41599783 0.53853595 1.6902778 5.6255729e-39
-0.39456052 0.55126786 1.6832501 5.6255729e-39
-0.4039754 0.57700753 1.6847497 5.6255729e-39
-0.38989484 0.58298481 1.688549 5.6255729e-39
-0.40183908 0.60035717 1.6810001 5.6255729e-39
-0.38177425 0.60839379 1.6879334 5.6255729e-39
-0.34900767 0.63878006 1.6810001 5.6255729e-39
-0.3343873 0.66337764 1.683903 5.6255729e-39
-0.31783289 0.67579669 1.6855001 5.6255729e-39
-0.32211348 0.68436372 1.6855001 5.6255729e-39
-0.2999064 0.70157057 1.6958039 5.6255729e-39
-0.26135334 0.7078684 1.7028203 5.6255729e-39
-0.23570001 0.71064115 1.7068334 5.6255729e-39
-0.28891763 0.73295856 1.687 5.6255729e-39
-0.26026058 0.74117351 1.6996837 5.6255729e-39
-0.23297626 0.74787456 1.7071285 5.6255729e-39
-0.26143813 0.76167434 1.6980002 5.6255729e-39
-0.22356702 0.7647571 1.7100717 5.6255729e-39
-1.0594207 -0.65200269 1.7590001 5.6255729e-39
-1.0567958 -0.61138898 1.754737 5.6255729e-39
-1.0511585 -0.5774039 1.7571725 5.6255729e-39
-1.0368176 -0.57814741 1.7545 5.6255729e-39
-1.0477484 -0.54025549 1.7551434 5.6255729e-39
-1.0333173 -0.53074586 1.7590002 5.6255729e-39
-1.0429947 -0.50007945 1.7382495 5.6255729e-39
-1.0267283 -0.4969365 1.7487704 5.6255729e-39
-1.0420594 -0.46902794 1.7290001 5.6255729e-39
-1.022239 -0.45951062 1.7389508 5.6255729e-39
-0.99091077 -0.45130149 1.7516669 5.6255729e-39
-1.0096731 -0.42362455 1.7269837 5.6255729e-39
-0.98364115 -0.41797301 1.7435864 5.6255729e-39
-0.95651001 -0.40968695 1.7570435 5.6255729e-39
-1.004591 -0.39678228 1.7229999 5.6255729e-39
-0.97754186 -0.38213313 1.7332432 5.6255729e-39
-0.94402599 -0.37619954 1.7541496 5.6255729e-39
-0.91709977 -0.37022766 1.7590004 5.6255729e-39
-0.97044575 -0.34976804 1.7247999 5.6255729e-39
-0.94073659 -0.33959359 1.7397505 5.6255729e-39
-0.90735281 -0.33688295 1.7543132 5.6255729e-39
-0.93560952 -0.30343875 1.7261016 5.6255729e-39
-0.89961261 -0.29903758 1.7404033 5.6255729e-39
-0.87220901 -0.28828424 1.7552757 5.6255729e-39
-0.92440307 -0.26820454 1.7229997 5.6255729e-39
-0.89090019 -0.26501393 1.7283404 5.6255729e-39
-0.86263067 -0.258672 1.7481438 5.6255729e-39
-0.8386243 -0.24693012 1.7590001 5.6255729e-39
-0.88332474 -0.22612324 1.7229998 5.6255729e-39
-0.85831511 -0.22099204 1.7368084 5.6255729e-39
-0.8309108 -0.2165962 1.756089 5.6255729e-39
-0.84965897 -0.18150926 1.7295376 5.6255729e-39
-0.82168573 -0.1793451 1.7498907 5.6255729e-39
-0.79531914 -0.17221533 1.7576362 5.6255729e-39
-0.84509051 -0.15917239 1.723 5.6255729e-39
-0.81672674 -0.14031011 1.7348027 5.6255729e-39
-0.79067135 -0.13953213 1.7564148 5.6255729e-39
-0.80959117 -0.10932647 1.7282174 5.6255729e-39
-0.78124678 -0.097955652 1.7452382 5.6255729e-39
-0.75553244 -0.087591037 1.7590003 5.6255729e-39
-0.80308211 -0.072530098 1.7229999 5.6255729e-39
-0.7748574 -0.062939003 1.7326087 5.6255729e-39
-0.74639791 -0.055478249 1.7524008 5.6255729e-39
-0.71006167 -0.044752795 1.7590001 5.6255729e-39
-0.76542979 -0.028194547 1.7229998 5.6255729e-39
-0.73967451 -0.020718269 1.7391247 5.6255729e-39
-0.70617408 -0.017870892 1.7560643 5.6255729e-39
-0.73063433 0.015732631 1.7290301 5.6255729e-39
-0.6998266 0.020339083 1.7463447 5.6255729e-39
-0.67139351 0.030095994 1.7558498 5.6255729e-39
-0.72201908 0.049228571 1.7229998 5.6255729e-39
-0.69677919 0.056787424 1.7292746 5.6255729e-39
-0.66097736 0.061428986 1.7451534 5.6255729e-39
-0.62460828 0.072544381 1.7543956 5.6255729e-39
-0.69412291 0.081227139 1.723 5.6255729e-39
-0.65596646 0.099365763 1.7336587 5.6255729e-39
-0.62225181 0.10095782 1.7510629 5.6255729e-39
-0.59806001 0.11894191 1.7590001 5.6255729e-39
-0.64737797 0.13295114 1.7271246 5.6255729e-39
-0.62006241 0.13974345 1.7378038 5.6255729e-39
-0.59082288 0.1454213 1.752409 5.6255729e-39
-0.61154044 0.17237447 1.7277921 5.6255729e-39
-0.58153737 0.18017931 1.7425168 5.6255729e-39
-0.54834038 0.19100602 1.7539811 5.6255729e-39
-0.576419 0.21890458 1.7324526 5.6255729e-39
-0.54105276 0.22070044 1.7460173 5.6255729e-39
-0.51315457 0.23342319 1.757286 5.6255729e-39
-0.56744802 0.25000238 1.7244511 5.6255729e-39
-0.5399276 0.25940976 1.7345699 5.6255729e-39
-0.50518155 0.26353249 1.753355 5.6255729e-39
-0.47744289 0.27808952 1.7590001 5.6255729e-39
-0.52909446 0.29065365 1.7291132 5.6255729e-39
-0.50191396 0.29936433 1.7420484 5.6255729e-39
-0.46230912 0.30430558 1.7507861 5.6255729e-39
-0.43440372 0.31087521 1.7527696 5.6255729e-39
-0.49523494 0.33694226 1.7310455 5.6255729e-39
-0.46014598 0.34000778 1.7405674 5.6255729e-39
-0.43743214 0.34169358 1.7474799 5.6255729e-39
-0.48267445 0.36687008 1.7229999 5.6255729e-39
-0.45648476 0.3790091 1.732976 5.6255729e-39
-0.43565732 0.38419288 1.736909 5.6255729e-39
-0.44667998 0.40964335 1.725189 5.6255729e-39
-0.43419597 0.42028061 1.7229997 5.6255729e-39
-0.43813428 0.4446981 1.723 5.6255729e-39
-0.28060284 0.70068669 1.723 5.6255729e-39
-0.27732095 0.70068669 1.723 5.6255729e-39
-0.21879953 0.71731961 1.7275002 5.6255729e-39
-0.24356425 0.73772538 1.7229999 5.6255729e-39
-0.21807314 0.74064469 1.7256187 5.6255729e-39
-0.18550105 0.74339485 1.7459768 5.6255729e-39
-0.20886983 0.76773137 1.7229998 5.6255729e-39
-0.18138397 0.76756722 1.7357831 5.6255729e-39
-0.91185671 -0.51259482 1.682956 5.6255729e-39
-1.0564084 -0.66126394 1.7855836 5.6255729e-39
-1.0380813 -0.66501307 1.7927501 5.6255729e-39
-1.0523989 -0.62046969 1.7834266 5.6255729e-39
-1.0344756 -0.6117959 1.7950001 5.6255729e-39
-1.045639 -0.58583373 1.7803491 5.6255729e-39
-1.0282091 -0.57440728 1.7896936 5.6255729e-39
-1.0422782 -0.55228961 1.7680001 5.6255729e-39
-1.0195768 -0.54096341 1.7834691 5.6255729e-39
-0.98846889 -0.52591747 1.7938747 5.6255729e-39
-1.0078921 -0.50386137 1.7720562 5.6255729e-39
-0.98304129 -0.49860102 1.7882149 5.6255729e-39
-0.95102125 -0.48852926 1.7949997 5.6255729e-39
-1.008602 -0.47651812 1.7679999 5.6255729e-39
-0.97496688 -0.46214801 1.775457 5.6255729e-39
-0.94106621 -0.45729199 1.7910241 5.6255729e-39
-0.91545004 -0.44875002 1.7950001 5.6255729e-39
-0.97330427 -0.43523359 1.7680002 5.6255729e-39
-0.93947399 -0.42114553 1.7792341 5.6255729e-39
-0.90597981 -0.416556 1.7899427 5.6255729e-39
-0.87698573 -0.40344763 1.7950001 5.6255729e-39
-0.93605232 -0.39414892 1.770323 5.6255729e-39
-0.89946836 -0.38048518 1.7821739 5.6255729e-39
-0.87373704 -0.37317613 1.7933838 5.6255729e-39
-0.89093679 -0.34275758 1.7759995 5.6255729e-39
-0.86426395 -0.3380872 1.7904984 5.6255729e-39
-0.88518041 -0.31342307 1.7717896 5.6255729e-39
-0.85804552 -0.30205646 1.7809854 5.6255729e-39
-0.82856309 -0.29390368 1.7940125 5.6255729e-39
-0.84626621 -0.26711795 1.7779001 5.6255729e-39
-0.82117188 -0.25922155 1.7884066 5.6255729e-39
-0.79766387 -0.24651332 1.7950001 5.6255729e-39
-0.81503475 -0.22360671 1.7787533 5.6255729e-39
-0.78967363 -0.21409328 1.7896708 5.6255729e-39
-0.80570287 -0.19616382 1.7680001 5.6255729e-39
-0.77976799 -0.18069251 1.7852398 5.6255729e-39
-0.75643128 -0.17259406 1.79425 5.6255729e-39
-0.77070922 -0.14164014 1.7774608 5.6255729e-39
-0.7450338 -0.13398342 1.792033 5.6255729e-39
-0.71797931 -0.126102 1.7941 5.6255729e-39
-0.76611608 -0.11214478 1.7706999 5.6255729e-39
-0.74185658 -0.10064865 1.7831264 5.6255729e-39
-0.70749813 -0.098103262 1.7881995 5.6255729e-39
-0.73273611 -0.066942453 1.771945 5.6255729e-39
-0.70062208 -0.060188916 1.7805632 5.6255729e-39
-0.67066598 -0.053518254 1.7924035 5.6255729e-39
-0.69028372 -0.023648741 1.7724998 5.6255729e-39
-0.66264421 -0.018140486 1.7841101 5.6255729e-39
-0.6344378 -0.010176107 1.792652 5.6255729e-39
-0.6827848 0.004209524 1.7680001 5.6255729e-39
-0.65723455 0.017487505 1.7758251 5.6255729e-39
-0.62194008 0.024601854 1.7874618 5.6255729e-39
-0.5966239 0.030771432 1.7950001 5.6255729e-39
-0.64677739 0.049038012 1.770348 5.6255729e-39
-0.61613256 0.056610405 1.7756631 5.6255729e-39
-0.58763152 0.067305237 1.7883682 5.6255729e-39
-0.60480607 0.09699674 1.7750719 5.6255729e-39
-0.57917714 0.099582143 1.7800847 5.6255729e-39
-0.55037212 0.10124788 1.7909088 5.6255729e-39
-0.57476157 0.13722333 1.7740221 5.6255729e-39
-0.53990018 0.13959619 1.7835603 5.6255729e-39
-0.50381267 0.15168169 1.7918843 5.6255729e-39
-0.56303823 0.16488914 1.7692858 5.6255729e-39
-0.53772837 0.17609583 1.7727512 5.6255729e-39
-0.50163782 0.18184491 1.7851741 5.6255729e-39
-0.47514775 0.18684854 1.7937143 5.6255729e-39
-0.43421906 0.19659524 1.7950001 5.6255729e-39
-0.5223552 0.21253419 1.7679998 5.6255729e-39
-0.4993695 0.21794826 1.7752123 5.6255729e-39
-0.46295547 0.22419834 1.7867069 5.6255729e-39
-0.43664828 0.21641202 1.7925 5.6255729e-39
-0.49286237 0.25478971 1.7689307 5.6255729e-39
-0.46064681 0.2597743 1.7740378 5.6255729e-39
-0.4345189 0.26040655 1.7770003 5.6255729e-39
-0.45565343 0.28775346 1.7694694 5.6255729e-39
-0.43621776 0.29284292 1.7698947 5.6255729e-39
-0.43722925 0.32609779 1.7680001 5.6255729e-39
-0.17275886 0.74053949 1.768 5.6255729e-39
-0.75449908 -0.018606756 1.505276 5.6255729e-39
-0.78713226 -0.13416691 1.5723362 5.6255729e-39
-1.0125208 -0.64975041 1.7995229 5.6255729e-39
-1.0351392 -0.69664299 1.8281667 5.6255729e-39
-1.046295 -0.66089028 1.8072965 5.6255729e-39
-1.0336949 -0.65852118 1.8207707 5.6255729e-39
-1.0442063 -0.62738127 1.8063078 5.6255729e-39
-1.0217957 -0.62065715 1.8234417 5.6255729e-39
-0.98400098 -0.6092543 1.8330001 5.6255729e-39
-1.0131142 -0.58624119 1.8116267 5.6255729e-39
-0.9810158 -0.57827365 1.824321 5.6255729e-39
-0.95074427 -0.57140458 1.8322653 5.6255729e-39
-1.0033678 -0.55082136 1.8040001 5.6255729e-39
-0.97774279 -0.54219735 1.809558 5.6255729e-39
-0.94247174 -0.53621274 1.8232929 5.6255729e-39
-0.91433865 -0.52878529 1.8330001 5.6255729e-39
-0.96628076 -0.50641066 1.8047414 5.6255729e-39
-0.9388938 -0.50273174 1.8187481 5.6255729e-39
-0.90410048 -0.49513456 1.8315643 5.6255729e-39
-0.8775124 -0.49345526 1.8330001 5.6255729e-39
-0.92756045 -0.47363991 1.8059236 5.6255729e-39
-0.90019262 -0.45957139 1.8208016 5.6255729e-39
-0.87098843 -0.45411289 1.8325715 5.6255729e-39
-0.8396886 -0.44690287 1.8330001 5.6255729e-39
-0.89163017 -0.42495036 1.8078362 5.6255729e-39
-0.86352158 -0.41929904 1.8247102 5.6255729e-39
-0.85852945 -0.38157687 1.8171433 5.6255729e-39
-0.83241588 -0.3772127 1.8311999 5.6255729e-39
-0.84689564 -0.34424344 1.8070916 5.6255729e-39
-0.82148606 -0.33943123 1.822678 5.6255729e-39
-0.79456228 -0.32578236 1.8312 5.6255729e-39
-0.81340677 -0.30354849 1.8145356 5.6255729e-39
-0.78935158 -0.29796344 1.8310119 5.6255729e-39
-0.80435222 -0.27158952 1.8122612 5.6255729e-39
-0.78177428 -0.25826165 1.8211329 5.6255729e-39
-0.74957657 -0.24880585 1.8330001 5.6255729e-39
-0.7730065 -0.22226714 1.8109336 5.6255729e-39
-0.74301219 -0.21869822 1.8262841 5.6255729e-39
-0.70979673 -0.20490992 1.8306001 5.6255729e-39
-0.76283437 -0.19586289 1.8040001 5.6255729e-39
-0.73975503 -0.18040207 1.8132199 5.6255729e-39
-0.70509565 -0.18040481 1.8250618 5.6255729e-39
-0.67559147 -0.19028287 1.8330001 5.6255729e-39
-0.7345534 -0.14870885 1.8076215 5.6255729e-39
-0.70139712 -0.13914439 1.8179928 5.6255729e-39
-0.67186612 -0.12782331 1.83048 5.6255729e-39
-0.69193417 -0.1030432 1.8104709 5.6255729e-39
-0.66088116 -0.098963432 1.8222589 5.6255729e-39
-0.63515013 -0.091823347 1.8305001 5.6255729e-39
-0.69091976 -0.076332532 1.8040001 5.6255729e-39
-0.65546066 -0.063434236 1.8127396 5.6255729e-39
-0.62256318 -0.056208324 1.826467 5.6255729e-39
-0.59655821 -0.047769092 1.8330001 5.6255729e-39
-0.65032816 -0.03366198 1.8057863 5.6255729e-39
-0.61906052 -0.022048974 1.8149577 5.6255729e-39
-0.58341104 -0.013976687 1.8278991 5.6255729e-39
-0.55688298 -0.0064009521 1.8330001 5.6255729e-39
-0.61282772 0.0085180486 1.8076588 5.6255729e-39
-0.57937425 0.020082103 1.8162793 5.6255729e-39
-0.54654598 0.028618859 1.8275939 5.6255729e-39
-0.50160193 0.016875239 1.8330001 5.6255729e-39
-0.57375681 0.056230061 1.8080912 5.6255729e-39
-0.53976369 0.060782138 1.8189629 5.6255729e-39
-0.50052482 0.06573537 1.8299336 5.6255729e-39
-0.53226209 0.098500647 1.8095446 5.6255729e-39
-0.49974674 0.10025007 1.8205323 5.6255729e-39
-0.46980768 0.10854239 1.8240554 5.6255729e-39
-0.52539915 0.12594976 1.8078464 5.6255729e-39
-0.49850705 0.1354626 1.8082268 5.6255729e-39
-0.46258011 0.14125155 1.8143028 5.6255729e-39
-0.49019974 0.17009145 1.8040005 5.6255729e-39
-0.45811284 0.17805001 1.8071201 5.6255729e-39
-0.4374271 0.18417983 1.8040001 5.6255729e-39
-0.45911333 0.21109666 1.8040007 5.6255729e-39
-0.43754166 0.21590732 1.8040001 5.6255729e-39
-0.82047695 -0.2831181 1.7057481 5.6255729e-39
-0.87813663 -0.4750905 1.7950416 5.6255729e-39
-1.0443667 -0.70404559 1.8430002 5.6255729e-39
-1.0195525 -0.70000374 1.8582031 5.6255729e-39
-0.99119157 -0.69981521 1.8723625 5.6255729e-39
-1.0157124 -0.6627906 1.8503959 5.6255729e-39
-0.9787991 -0.65708208 1.8622133 5.6255729e-39
-0.95137095 -0.65237463 1.8707784 5.6255729e-39
-1.0036453 -0.63434309 1.8430001 5.6255729e-39
-0.97747594 -0.62335515 1.8487006 5.6255729e-39
-0.94028974 -0.61771941 1.8664343 5.6255729e-39
-0.91289884 -0.61825007 1.873001 5.6255729e-39
-0.96462882 -0.59703177 1.8430002 5.6255729e-39
-0.93712276 -0.58294231 1.8552862 5.6255729e-39
-0.90595007 -0.57538998 1.8660381 5.6255729e-39
-0.86068815 -0.56457579 1.8730001 5.6255729e-39
-0.92961586 -0.55239338 1.8503335 5.6255729e-39
-0.89969009 -0.54060626 1.8587905 5.6255729e-39
-0.86604249 -0.53729135 1.8726439 5.6255729e-39
-0.89266634 -0.51111758 1.8502496 5.6255729e-39
-0.85975271 -0.49834281 1.8612131 5.6255729e-39
-0.83273894 -0.49084494 1.8723339 5.6255729e-39
-0.88464004 -0.47742477 1.8430001 5.6255729e-39
-0.85602868 -0.46212745 1.8539745 5.6255729e-39
-0.8311041 -0.45912889 1.8706008 5.6255729e-39
-0.8446905 -0.42478523 1.84875 5.6255729e-39
-0.82187402 -0.41737077 1.8633977 5.6255729e-39
-0.79334939 -0.4078235 1.8730006 5.6255729e-39
-0.81445628 -0.3819845 1.8546674 5.6255729e-39
-0.78416157 -0.37585229 1.868156 5.6255729e-39
-0.75426251 -0.36783642 1.8722862 5.6255729e-39
-0.80520564 -0.35164157 1.8509308 5.6255729e-39
-0.77907598 -0.33931866 1.8623196 5.6255729e-39
-0.74244356 -0.33504829 1.8675576 5.6255729e-39
-0.7708413 -0.30234012 1.8513174 5.6255729e-39
-0.73835635 -0.29925895 1.8633947 5.6255729e-39
-0.71816176 -0.28933391 1.8730001 5.6255729e-39
-0.76378077 -0.27110261 1.8444287 5.6255729e-39
-0.73727936 -0.26105803 1.8489486 5.6255729e-39
-0.70607066 -0.25346947 1.8634603 5.6255729e-39
-0.67606384 -0.24438192 1.8730001 5.6255729e-39
-0.72796124 -0.22867335 1.8455802 5.6255729e-39
-0.69996059 -0.22222209 1.857497 5.6255729e-39
-0.67301261 -0.21474333 1.867348 5.6255729e-39
-0.68883365 -0.17751275 1.8454999 5.6255729e-39
-0.66175097 -0.17851301 1.8580005 5.6255729e-39
-0.6303845 -0.17014256 1.8688827 5.6255729e-39
-0.68754745 -0.15378693 1.8435885 5.6255729e-39
-0.65787005 -0.14142706 1.8516711 5.6255729e-39
-0.61859584 -0.13899094 1.8609554 5.6255729e-39
-0.59512341 -0.13423167 1.8730006 5.6255729e-39
-0.6431694 -0.11459199 1.8430002 5.6255729e-39
-0.61879182 -0.10128386 1.8509835 5.6255729e-39
-0.58549678 -0.095366322 1.8642949 5.6255729e-39
-0.55833238 -0.08027143 1.8730001 5.6255729e-39
-0.61318976 -0.072357096 1.8446281 5.6255729e-39
-0.57877117 -0.060425967 1.8547761 5.6255729e-39
-0.54364449 -0.054089878 1.8658582 5.6255729e-39
-0.51986569 -0.042582855 1.863 5.6255729e-39
-0.57553357 -0.029914839 1.8471669 5.6255729e-39
-0.54110056 -0.019247593 1.855001 5.6255729e-39
-0.51627702 -0.013829905 1.8590002 5.6255729e-39
-0.53474635 0.014992723 1.848604 5.6255729e-39
-0.50755733 0.021186108 1.8462074 5.6255729e-39
-0.52379507 0.044539135 1.8439094 5.6255729e-39
-0.50530553 0.047618028 1.8436055 5.6255729e-39
-0.9272089 -0.17090504 1.6607662 5.6255729e-39
-0.82882482 -0.33198693 1.7592312 5.6255729e-39
-0.9376753 -0.64766955 1.8790822 5.6255729e-39
-0.95100498 -0.73192096 1.911146 5.6255729e-39
-1.010159 -0.70375526 1.8830004 5.6255729e-39
-0.97487026 -0.70322341 1.8907535 5.6255729e-39
-0.9428302 -0.70014685 1.9090002 5.6255729e-39
-0.90958291 -0.69159907 1.9122504 5.6255729e-39
-0.9666068 -0.67967337 1.8830001 5.6255729e-39
-0.94006836 -0.664895 1.8982848 5.6255729e-39
-0.90244931 -0.65768933 1.9090862 5.6255729e-39
-0.86967552 -0.64714795 1.9128004 5.6255729e-39
-0.89916754 -0.61784589 1.8988384 5.6255729e-39
-0.86471468 -0.61692613 1.9101113 5.6255729e-39
-0.83712858 -0.60550475 1.9150001 5.6255729e-39
-0.89236176 -0.58350301 1.8900301 5.6255729e-39
-0.85894114 -0.58003992 1.9028797 5.6255729e-39
-0.82762581 -0.57310367 1.9128777 5.6255729e-39
-0.88770008 -0.55593336 1.8830001 5.6255729e-39
-0.84952182 -0.54107201 1.8946054 5.6255729e-39
-0.82203168 -0.54123265 1.9120065 5.6255729e-39
-0.79776919 -0.52830327 1.9118572 5.6255729e-39
-0.84395313 -0.51082879 1.8880002 5.6255729e-39
-0.81897223 -0.50058722 1.9006026 5.6255729e-39
-0.79315239 -0.4966231 1.9109594 5.6255729e-39
-0.81399214 -0.46264106 1.8909882 5.6255729e-39
-0.78164196 -0.45994416 1.9066331 5.6255729e-39
-0.75587124 -0.45289442 1.9103465 5.6255729e-39
-0.80879337 -0.43434533 1.8829998 5.6255729e-39
-0.78051984 -0.42107695 1.8919457 5.6255729e-39
-0.74944341 -0.41614041 1.9059876 5.6255729e-39
-0.7732318 -0.38979414 1.8869048 5.6255729e-39
-0.73910975 -0.38064745 1.9014001 5.6255729e-39
-0.71074176 -0.37062815 1.9121798 5.6255729e-39
-0.76575345 -0.35328668 1.8830001 5.6255729e-39
-0.73202741 -0.34544364 1.8916841 5.6255729e-39
-0.70378298 -0.33888334 1.9040641 5.6255729e-39
-0.72414809 -0.30630136 1.8830003 5.6255729e-39
-0.70114422 -0.30097729 1.8947031 5.6255729e-39
-0.67129821 -0.29313263 1.9074891 5.6255729e-39
-0.69441426 -0.26832977 1.8871909 5.6255729e-39
-0.6614669 -0.25870684 1.8983464 5.6255729e-39
-0.63247222 -0.24734442 1.9103687 5.6255729e-39
-0.65588897 -0.22243716 1.8911223 5.6255729e-39
-0.61867958 -0.2178604 1.9036417 5.6255729e-39
-0.59143537 -0.20843539 1.9150004 5.6255729e-39
-0.64944297 -0.19701047 1.883 5.6255729e-39
-0.61547452 -0.18211991 1.8951912 5.6255729e-39
-0.58319527 -0.17704771 1.9078174 5.6255729e-39
-0.60433388 -0.15462847 1.8854446 5.6255729e-39
-0.57763416 -0.13919325 1.8953027 5.6255729e-39
-0.54839593 -0.13363506 1.9042891 5.6255729e-39
-0.57305568 -0.10742825 1.8890464 5.6255729e-39
-0.54713815 -0.098784275 1.8895996 5.6255729e-39
-0.5467276 -0.071613774 1.883 5.6255729e-39
-0.9434607 -0.39769596 1.7623628 5.6255729e-39
-0.88342786 -0.47933322 1.8464087 5.6255729e-39
-0.85134941 -0.5308159 1.8893609 5.6255729e-39
-0.97056669 -0.75643337 1.9250001 5.6255729e-39
-0.93553525 -0.74194711 1.9354453 5.6255729e-39
-0.90148461 -0.73762459 1.9541882 5.6255729e-39
-0.86860621 -0.7281276 1.9580002 5.6255729e-39
-0.92950004 -0.71610004 1.9250001 5.6255729e-39
-0.89558983 -0.70200205 1.9410856 5.6255729e-39
-0.8580566 -0.69889051 1.9570909 5.6255729e-39
-0.83230543 -0.68561089 1.9580001 5.6255729e-39
-0.88509262 -0.66957408 1.9250001 5.6255729e-39
-0.858706 -0.66265923 1.9413198 5.6255729e-39
-0.82757378 -0.65638626 1.9534601 5.6255729e-39
-0.85129344 -0.63005978 1.9321628 5.6255729e-39
-0.82156521 -0.62072957 1.9467033 5.6255729e-39
-0.78823113 -0.62048918 1.9549837 5.6255729e-39
-0.847 -0.59399998 1.9250001 5.6255729e-39
-0.81412983 -0.58508044 1.9424791 5.6255729e-39
-0.77952009 -0.57983786 1.947695 5.6255729e-39
-0.75775069 -0.56668597 1.9525002 5.6255729e-39
-0.80332536 -0.54654288 1.9302105 5.6255729e-39
-0.77899539 -0.54088205 1.9390522 5.6255729e-39
-0.74423432 -0.53149915 1.9546287 5.6255729e-39
-0.71793336 -0.53891617 1.9580001 5.6255729e-39
-0.80116671 -0.51883334 1.9250001 5.6255729e-39
-0.77664638 -0.50268531 1.9293103 5.6255729e-39
-0.73957008 -0.49854261 1.9454066 5.6255729e-39
-0.71569562 -0.49975625 1.9580001 5.6255729e-39
-0.7626667 -0.47850001 1.9250001 5.6255729e-39
-0.73770905 -0.46004272 1.9347496 5.6255729e-39
-0.71257389 -0.45698786 1.9509783 5.6255729e-39
-0.73350704 -0.42505559 1.9301951 5.6255729e-39
-0.69958907 -0.41862586 1.9458925 5.6255729e-39
-0.67597622 -0.42330095 1.9580001 5.6255729e-39
-0.72049999 -0.39416668 1.9250001 5.6255729e-39
-0.69470811 -0.38312602 1.9363284 5.6255729e-39
-0.66271025 -0.37420902 1.9524264 5.6255729e-39
-0.63961333 -0.36362857 1.9580001 5.6255729e-39
-0.68499053 -0.34234673 1.9271523 5.6255729e-39
-0.66037285 -0.34010956 1.9436431 5.6255729e-39
-0.6311388 -0.33427066 1.9565957 5.6255729e-39
-0.68016672 -0.31350002 1.9250001 5.6255729e-39
-0.65667039 -0.3019405 1.9324163 5.6255729e-39
-0.62227106 -0.30054241 1.9502554 5.6255729e-39
-0.5950532 -0.29357928 1.9574761 5.6255729e-39
-0.64583141 -0.2734524 1.9269999 5.6255729e-39
-0.61872059 -0.2622852 1.9345793 5.6255729e-39
-0.58255619 -0.25794405 1.9476002 5.6255729e-39
-0.54558158 -0.24821204 1.956 5.6255729e-39
-0.5165391 -0.24428383 1.9580001 5.6255729e-39
-0.60390007 -0.23210001 1.9250001 5.6255729e-39
-0.57815874 -0.2218889 1.9343239 5.6255729e-39
-0.54078186 -0.21965212 1.9441279 5.6255729e-39
-0.51692498 -0.22631894 1.939667 5.6255729e-39
-0.56943917 -0.18688475 1.9293998 5.6255729e-39
-0.5402711 -0.17943004 1.9336909 5.6255729e-39
-0.51658338 -0.18257342 1.9334618 5.6255729e-39
-0.53854424 -0.14954326 1.9286125 5.6255729e-39
-0.51333332 -0.15216669 1.9250001 5.6255729e-39
-0.13364129 0.25112128 1.9580001 5.6255729e-39
-0.12120952 0.37108764 1.9580001 5.6255729e-39
-0.10846698 0.38724893 1.9580001 5.6255729e-39
-0.099280581 0.41460198 1.9576564 5.6255729e-39
-0.07485687 0.40944847 1.9580002 5.6255729e-39
-0.70725614 0.18247382 1.6634917 5.6255729e-39
-0.82632625 -0.49969649 1.8961891 5.6255729e-39
-0.82857734 -0.64699048 1.9527886 5.6255729e-39
-0.81279022 -0.76996905 1.9920003 5.6255729e-39
-0.43254927 0.42289138 1.715 5.6255729e-39
-0.66838229 0.19877751 1.678679 5.6255729e-39
-0.68934286 0.25190938 1.6351999 5.6255729e-39
0.48337096 -0.48448199 1.8822428 5.6255729e-39
0.53246987 -0.5765717 1.8947501 5.6255729e-39
-0.89411366 -0.75553352 1.9690002 5.6255729e-39
-0.85877723 -0.74424601 1.978537 5.6255729e-39
-0.81966805 -0.73223954 1.9917206 5.6255729e-39
-0.79283333 -0.72660577 1.9920005 5.6255729e-39
0.78162289 -0.75696003 1.9920001 5.6255729e-39
0.94878221 -0.75569516 1.9920003 5.6255729e-39
-0.86013782 -0.705755 1.9713341 5.6255729e-39
-0.82083517 -0.69958502 1.9831165 5.6255729e-39
-0.78663099 -0.69872433 1.9882413 5.6255729e-39
-0.81251788 -0.66585624 1.9755725 5.6255729e-39
-0.78070712 -0.66118926 1.9851332 5.6255729e-39
-0.75308961 -0.65179431 1.9908575 5.6255729e-39
-0.77229464 -0.62312531 1.9773206 5.6255729e-39
-0.74902463 -0.62086695 1.9889995 5.6255729e-39
-0.76447213 -0.59069997 1.9690001 5.6255729e-39
-0.74420863 -0.57660854 1.9803772 5.6255729e-39
-0.71266884 -0.5708763 1.991429 5.6255729e-39
-0.73980093 -0.54624826 1.9716107 5.6255729e-39
-0.70772988 -0.53699392 1.9859867 5.6255729e-39
-0.72196674 -0.50293887 1.9690001 5.6255729e-39
-0.69934362 -0.49953157 1.9797496 5.6255729e-39
-0.67443436 -0.4904114 1.9920005 5.6255729e-39
-0.69468123 -0.46090481 1.9752244 5.6255729e-39
-0.66326886 -0.45710996 1.9859558 5.6255729e-39
-0.68383688 -0.42317876 1.9690001 5.6255729e-39
-0.6594196 -0.42074603 1.9774414 5.6255729e-39
-0.62972456 -0.41210735 1.9895508 5.6255729e-39
-0.65442872 -0.39093736 1.9708734 5.6255729e-39
-0.62271303 -0.37846228 1.9850436 5.6255729e-39
-0.61618787 -0.34309757 1.9761181 5.6255729e-39
-0.58203787 -0.33415124 1.9875256 5.6255729e-39
-0.55031824 -0.32600176 1.9907371 5.6255729e-39
-0.60195142 -0.31691524 1.9690001 5.6255729e-39
-0.57814825 -0.3010602 1.9785691 5.6255729e-39
-0.53835505 -0.29930606 1.9831966 5.6255729e-39
-0.51737803 -0.29080492 1.9920003 5.6255729e-39
-0.56986403 -0.27399313 1.9690001 5.6255729e-39
-0.53714359 -0.26556543 1.9727924 5.6255729e-39
-0.51399815 -0.26415509 1.9857005 5.6255729e-39
-0.12923333 0.25763595 1.9771819 5.6255729e-39
-0.11952001 0.25990859 1.9920001 5.6255729e-39
-0.1281615 0.30586684 1.9904352 5.6255729e-39
-0.11952001 0.29785144 1.9920001 5.6255729e-39
-0.12647159 0.33941096 1.983686 5.6255729e-39
-0.10971989 0.34326944 1.9894732 5.6255729e-39
-0.12314065 0.36317116 1.9690002 5.6255729e-39
-0.099368222 0.37981954 1.9769816 5.6255729e-39
-0.061346211 0.3886641 1.9873269 5.6255729e-39
-0.037828572 0.38677713 1.9860003 5.6255729e-39
-0.096172936 0.40505144 1.9690001 5.6255729e-39
-0.063978091 0.40418684 1.9793528 5.6255729e-39
-0.55005658 0.18897463 1.7600989 5.6255729e-39
-0.5398528 0.12853925 1.7911803 5.6255729e-39
-0.67310435 -0.23690102 1.8581707 5.6255729e-39
-0.36900672 -0.35006988 1.8868345 5.6255729e-39
-0.76285982 -0.75591964 1.9837296 5.6255729e-39
-0.44567007 -0.33149987 1.7943656 5.6255729e-39
-0.20934106 -0.73870111 1.979768 5.6255729e-39
-0.53562444 -0.67980707 2.0018072 5.6255729e-39
-0.52246308 -0.55339003 1.9955256 5.6255729e-39
-0.56648415 -0.15444879 1.7984554 5.6255729e-39
-0.50549662 -0.16778469 1.8000356 5.6255729e-39
-0.40822864 0.54233027 1.6926215 5.6255729e-39
-0.48677641 -0.39226779 1.687129 5.6255729e-39
-0.48219514 -0.25151941 1.6522139 5.6255729e-39
-0.55670559 -0.22363453 1.733454 5.6255729e-39
-0.47782463 -0.15960483 1.7354486 5.6255729e-39
-0.66583467 0.49698368 1.5144885 5.6255729e-39
-0.76959819 -0.49729687 1.9309154 5.6255729e-39
-0.80749333 -0.74447662 2.0090053 5.6255729e-39
-0.78231686 -0.7784729 2.0342002 5.6255729e-39
-0.75014645 -0.76773781 2.0389998 5.6255729e-39
-0.56925714 -0.79770476 2.033 5.6255729e-39
-0.24662191 -0.79812282 2.039 5.6255729e-39
-0.13593334 -0.79812282 2.039 5.6255729e-39
-0.054074571 -0.7934922 2.0390005 5.6255729e-39
0.01901266 -0.70663226 2.0324998 5.6255729e-39
0.054414034 -0.66289282 2.0302565 5.6255729e-39
0.038345255 -0.77337009 2.0204208 5.6255729e-39
0.10069841 -0.79421133 2.0386007 5.6255729e-39
0.14379343 -0.79534858 2.0390003 5.6255729e-39
0.146111 -0.72111535 2.0127544 5.6255729e-39
0.1653534 -0.66913998 1.9977335 5.6255729e-39
0.23849002 -0.7350809 2.0186641 5.6255729e-39
0.29792511 -0.79185557 2.0336437 5.6255729e-39
0.30430475 -0.74467117 2.0111654 5.6255729e-39
0.34990063 -0.76433009 2.0182292 5.6255729e-39
0.34286731 -0.72311181 2.0027347 5.6255729e-39
0.26231056 -0.6010828 1.952844 5.6255729e-39
0.41795993 -0.71977305 1.997445 5.6255729e-39
0.34836867 -0.6222856 1.9653558 5.6255729e-39
0.49450767 -0.69124955 1.9983044 5.6255729e-39
0.50168437 -0.64250183 1.9792475 5.6255729e-39
0.65970314 -0.78070754 2.019737 5.6255729e-39
0.69954997 -0.77626109 2.0130315 5.6255729e-39
0.73908335 -0.77111322 2.0128624 5.6255729e-39
0.78030449 -0.76626968 2.0061758 5.6255729e-39
0.81926715 -0.76653218 2.0092218 5.6255729e-39
0.85957336 -0.76921487 2.0043323 5.6255729e-39
0.90080953 -0.76618725 2.0071852 5.6255729e-39
0.93058944 -0.7692225 2.0123746 5.6255729e-39
0.98463839 -0.76442379 2.0039227 5.6255729e-39
0.94303274 -0.75494081 1.9986136 5.6255729e-39
1.0511109 -0.77395129 2.0270004 5.6255729e-39
-0.84680939 -0.7542032 2.0030003 5.6255729e-39
-0.81932491 -0.74855638 2.0062716 5.6255729e-39
-0.77849901 -0.74030375 2.0226116 5.6255729e-39
-0.74673516 -0.73882675 2.0350461 5.6255729e-39
0.70664644 -0.75793785 2.0318003 5.6255729e-39
0.74298489 -0.7552911 2.0291603 5.6255729e-39
0.77829129 -0.75460213 2.02508 5.6255729e-39
0.82245004 -0.75659341 2.0286002 5.6255729e-39
0.85945344 -0.75131166 2.0219851 5.6255729e-39
0.89781851 -0.75128734 2.0217741 5.6255729e-39
0.94517148 -0.75281584 2.0212145 5.6255729e-39
0.9802528 -0.74882203 2.0244584 5.6255729e-39
1.0197169 -0.74912524 2.0359099 5.6255729e-39
1.0499879 -0.75326484 2.0390003 5.6255729e-39
-0.82409143 -0.71535712 2.003 5.6255729e-39
-0.77001762 -0.70248365 2.0134759 5.6255729e-39
-0.74279678 -0.69628811 2.0284629 5.6255729e-39
-0.71346289 -0.6841619 2.0363333 5.6255729e-39
-0.76431936 -0.67338943 2.0030003 5.6255729e-39
-0.73679364 -0.66275632 2.0199399 5.6255729e-39
-0.70309603 -0.65469742 2.0368035 5.6255729e-39
-0.67694801 -0.64743108 2.039 5.6255729e-39
-0.73129129 -0.61975163 2.0095453 5.6255729e-39
-0.70053256 -0.61883259 2.0282562 5.6255729e-39
-0.67198151 -0.61595076 2.0384552 5.6255729e-39
-0.73129135 -0.59035194 2.003 5.6255729e-39
-0.69741607 -0.58003342 2.0193834 5.6255729e-39
-0.66220683 -0.57706016 2.03563 5.6255729e-39
-0.63888663 -0.56121045 2.039 5.6255729e-39
-0.69150144 -0.54512334 2.0127234 5.6255729e-39
-0.66047096 -0.53956687 2.0272124 5.6255729e-39
-0.63233715 -0.53289902 2.0377591 5.6255729e-39
-0.68101996 -0.5131495 2.003 5.6255729e-39
-0.6576485 -0.50035554 2.0137663 5.6255729e-39
-0.62631881 -0.49887988 2.034091 5.6255729e-39
-0.59616476 -0.48353428 2.039 5.6255729e-39
-0.64873242 -0.46664694 2.0051422 5.6255729e-39
-0.6190629 -0.45930633 2.0223272 5.6255729e-39
-0.58467191 -0.45293942 2.0390007 5.6255729e-39
-0.55538481 -0.44663811 2.0389998 5.6255729e-39
-0.61407739 -0.4241499 2.0134642 5.6255729e-39
-0.5798803 -0.41955209 2.0296242 5.6255729e-39
-0.54465443 -0.41495341 2.0348189 5.6255729e-39
-0.60405177 -0.38160673 2.0029995 5.6255729e-39
-0.581047 -0.38000265 2.0142558 5.6255729e-39
-0.54038095 -0.38046861 2.0243433 5.6255729e-39
-0.51152945 -0.37252179 2.0338578 5.6255729e-39
-0.60280764 -0.35672477 2.003 5.6255729e-39
-0.57364523 -0.35140821 2.0068567 5.6255729e-39
-0.53818649 -0.34275267 2.0137622 5.6255729e-39
-0.50400573 -0.33801866 2.0287724 5.6255729e-39
-0.47457165 -0.32489565 2.0389998 5.6255729e-39
-0.52129626 -0.31443554 2.0050001 5.6255729e-39
-0.4995847 -0.30033615 2.0169811 5.6255729e-39
-0.46958604 -0.29858226 2.025213 5.6255729e-39
-0.49446404 -0.27396989 2.0104995 5.6255729e-39
-0.47084823 -0.27339485 2.0127499 5.6255729e-39
-0.12622383 0.18836477 2.039 5.6255729e-39
-0.12400641 0.2320542 2.0210001 5.6255729e-39
-0.10897373 0.23167409 2.0341115 5.6255729e-39
-0.12415577 0.25993341 2.0080764 5.6255729e-39
-0.10250562 0.2630854 2.0271297 5.6255729e-39
-0.072743334 0.27385795 2.0369999 5.6255729e-39
-0.12532096 0.30077988 2.0048945 5.6255729e-39
-0.10002737 0.30001661 2.0114903 5.6255729e-39
-0.058766689 0.30197033 2.0352108 5.6255729e-39
-0.034506161 0.30637285 2.0389998 5.6255729e-39
-0.13802655 0.32855269 2.0096667 5.6255729e-39
-0.092879757 0.33595461 2.0055838 5.6255729e-39
-0.059343949 0.33895385 2.0153835 5.6255729e-39
