# .PCD v0.7 - Point Cloud Data file format
VERSION 0.7
FIELDS x y z rgb
SIZE 4 4 4 4
TYPE F F F F
COUNT 1 1 1 1
WIDTH 284
HEIGHT 1
VIEWPOINT 0 0 0 1 0 0 0
POINTS 284
DATA ascii
-0.021993501 -0.063517079 0.51818502 3.594587e-39
-0.31551906 0.22918384 0.51900005 1.0322664e-38
-0.12183464 -0.081752583 0.55792868 1.3743659e-38
-0.096468925 -0.088549808 0.54330122 8.3070192e-39
-0.063347727 -0.089715108 0.54186219 1.0337851e-38
-0.018332118 -0.094095804 0.55319536 8.6703969e-39
0.0011658574 -0.097604908 0.55634993 2.055963e-38
-0.12127477 -0.079253808 0.55850005 6.3727355e-39
-0.099280521 -0.075790994 0.55036181 8.2090404e-39
-0.054640464 -0.066823795 0.54667783 5.6322571e-39
-0.020322846 -0.057522334 0.53626955 5.8141275e-39
0.020024883 -0.05390488 0.5398469 5.8123268e-39
0.044770315 -0.053770326 0.53250951 1.0791977e-38
-0.016819917 -0.029197209 0.55691957 9.8555773e-39
0.018312749 -0.036306098 0.55356604 5.7240884e-39
-0.30251142 0.14016804 0.54665607 1.2901995e-38
-0.32282904 0.18510155 0.53691632 8.9397349e-39
-0.29877365 0.18596262 0.54220498 1.0136842e-38
-0.2730594 0.19365071 0.55538803 1.0505263e-38
-0.32473177 0.20981717 0.54442871 9.4014291e-39
-0.29792649 0.21836723 0.53734928 9.3074412e-39
-0.26913333 0.20387663 0.55293667 8.4766015e-39
-0.29303825 0.24114332 0.53491229 9.9520848e-39
-0.040330999 -0.097539492 0.5619092 1.6401115e-38
-0.032164283 -0.10936163 0.56238192 1.7030657e-38
0.027385691 -0.090332195 0.56458324 8.1154197e-39
0.043838825 -0.090702377 0.56631309 1.5213389e-38
-0.12337155 -0.07481885 0.56306112 9.4976367e-39
-0.11538189 -0.069946371 0.56208324 1.4656591e-38
-0.06192705 -0.048553437 0.57892245 8.2093417e-39
-0.003903952 -0.074915089 0.56295007 1.1809738e-38
0.020482352 -0.074415751 0.56564629 7.5727122e-39
0.062612712 -0.047364332 0.57323301 7.6652666e-39
0.087885298 -0.045084696 0.57428664 1.3750523e-38
-0.056459144 -0.029961012 0.5877524 6.3661578e-39
-0.018987902 -0.018991573 0.56968558 8.4773274e-39
0.017314643 -0.024841992 0.57639694 7.7498531e-39
0.059457038 -0.030601246 0.57420266 6.0914332e-39
0.08762265 -0.031592391 0.57168847 1.218068e-38
-0.085597582 0.025382165 0.59365749 1.3812408e-38
-0.063783407 0.030077713 0.59120995 1.2337989e-38
-0.018351212 0.021273617 0.57886225 1.4274461e-38
0.0022116727 0.020097578 0.58547211 1.9628669e-38
-0.084852323 0.058466293 0.59120488 1.3445421e-38
-0.05981411 0.05948567 0.58437288 1.2061047e-38
-0.023265054 0.057333659 0.58360356 1.3631257e-38
-0.082088299 0.088040158 0.59722662 1.0680632e-38
-0.06111908 0.089912847 0.5951454 1.0496604e-38
-0.032191902 0.084978655 0.59665173 1.2615663e-38
-0.25623494 0.19510946 0.56434256 1.2164064e-38
-0.23653613 0.19889489 0.57680011 1.262505e-38
-0.25471303 0.22188747 0.57370746 8.7546304e-39
-0.22799547 0.22063553 0.58407634 9.7684236e-39
-0.24257463 0.24309677 0.58786666 7.0936699e-39
-0.2295817 0.24200784 0.58870369 7.3713358e-39
-0.088744283 -0.054261759 0.60763448 1.2061064e-38
-0.078762338 -0.048351068 0.61161125 1.8257968e-38
-0.08912988 -0.020759344 0.61082667 1.2524186e-38
-0.061947159 -0.012078648 0.61239535 9.8559066e-39
-0.035493352 -0.0063192607 0.61003774 8.0206176e-39
0.019866854 -0.013137545 0.60352057 1.3279729e-38
-0.09060508 0.0080859307 0.60321647 1.5752474e-38
-0.057494164 0.011909961 0.60900623 1.0680268e-38
-0.035122201 0.0054573291 0.62008053 1.0772468e-38
-0.087853342 0.076856896 0.60133338 1.2885454e-38
-0.017578572 0.078461662 0.60024995 1.8526644e-38
-0.087890178 0.10406173 0.60690492 1.0864671e-38
-0.058912713 0.10969596 0.60444075 1.0680275e-38
-0.029632527 0.10137667 0.6091314 1.4182273e-38
-0.09112817 0.14128391 0.62044477 8.8378044e-39
-0.05996998 0.14000656 0.61743575 1.1969573e-38
-0.034043595 0.13508947 0.62946159 1.5193539e-38
-0.091404043 0.1793973 0.63048524 8.3771878e-39
-0.062119037 0.17868307 0.62874407 1.1601154e-38
-0.039557151 0.16248861 0.63900006 1.5654873e-38
-0.25740439 0.23570614 0.60218179 8.938314e-39
-0.22097486 0.23245218 0.60073924 1.152158e-38
-0.08737506 0.20771995 0.63642049 7.9162125e-39
-0.068326637 0.20882563 0.63568193 9.2980651e-39
-0.21571557 0.24163853 0.60044444 1.2347766e-38
0.19588366 0.27390817 0.63838112 8.8360066e-39
0.21908076 0.26783231 0.63553119 1.0495166e-38
0.24726154 0.27176449 0.63677388 1.4920551e-38
0.19477807 0.28302541 0.63737267 8.1917148e-39
0.21904613 0.28221944 0.6333791 9.2987784e-39
0.25030679 0.28269857 0.6360001 1.372165e-38
-0.10712922 0.15876222 0.64033341 7.8175751e-39
-0.032060463 0.15591569 0.64382774 1.4365938e-38
-0.10872599 0.18361686 0.64513171 8.9300029e-39
-0.043873761 0.18847583 0.64278179 1.6115853e-38
-0.034444865 0.18126506 0.65163952 1.6022931e-38
-0.12023904 0.20900446 0.66100007 1.770082e-38
-0.10017539 0.22153594 0.64968091 8.1009653e-39
-0.056385055 0.22383156 0.64738381 1.1693352e-38
-0.032243989 0.21971384 0.66745549 1.5562318e-38
0.19433576 0.237293 0.67388886 1.1508584e-38
0.21977025 0.23418328 0.669424 1.2982991e-38
0.25646836 0.23481956 0.67225921 1.6761574e-38
0.28187764 0.23899224 0.67883337 1.9529245e-38
-0.094019443 0.25706023 0.66407102 7.2719235e-39
-0.059765402 0.25918484 0.6627419 8.4690275e-39
-0.034841549 0.25277567 0.67335457 1.2614585e-38
0.15422967 0.27217957 0.67314041 9.9427003e-39
0.18083112 0.25977311 0.65843016 1.0310764e-38
0.21977223 0.24843706 0.64880955 1.2245077e-38
0.26112863 0.25623718 0.65142435 1.7685697e-38
0.29459628 0.26395592 0.6665833 2.0729237e-38
0.32094535 0.2746726 0.67860001 2.0543764e-38
-0.084960625 0.28375614 0.67729032 6.4428859e-39
-0.064685956 0.28502983 0.67640626 6.7180322e-39
0.14930999 0.28981292 0.67011988 8.836001e-39
0.17372724 0.28580025 0.65130544 8.5597756e-39
0.27025354 0.28447998 0.64327598 1.6486433e-38
0.30208331 0.28897941 0.66191489 1.8699127e-38
0.32600099 0.29645556 0.67705858 1.722328e-38
0.22460191 0.19892338 0.71899998 1.4178296e-38
0.24446002 0.19926575 0.71900004 1.5654143e-38
-0.024352008 0.22582933 0.68467867 1.3994259e-38
0.15277606 0.23055434 0.71375948 1.1231636e-38
0.18112342 0.22358528 0.70356715 1.196812e-38
0.21976456 0.21540162 0.70056111 1.3350695e-38
0.25937271 0.21783057 0.69989508 1.6669017e-38
0.29508275 0.22905217 0.70421147 1.9988784e-38
0.32249057 0.237938 0.71709996 2.0544123e-38
-0.10535206 0.27468437 0.68267244 7.6421507e-39
-0.04212524 0.27868047 0.68050003 9.2980609e-39
-0.016120208 0.26287627 0.70565307 9.7568769e-39
0.014569981 0.26452509 0.71612835 9.9423457e-39
0.11888463 0.27811348 0.71800005 9.2040576e-39
0.142507 0.26042652 0.7004109 1.0402597e-38
0.16735514 0.24592197 0.68732107 1.1139439e-38
0.30868739 0.25112802 0.69147807 2.0912548e-38
0.33571842 0.26533139 0.70685822 2.0268256e-38
-0.093769416 0.29946598 0.69629329 6.6280002e-39
-0.056913871 0.29878846 0.68725961 6.7183896e-39
-0.019552123 0.29801524 0.70489001 7.8222148e-39
0.011229412 0.29304796 0.71483529 7.6381809e-39
0.11316742 0.30248371 0.71107101 8.2824671e-39
0.12973525 0.29317108 0.69354886 8.9278337e-39
0.33906996 0.28999105 0.69045562 1.8883881e-38
-0.095804088 0.32046944 0.71485722 6.1666479e-39
-0.0034238098 0.32115334 0.71900004 4.3234696e-39
0.10257047 0.32070667 0.71800005 7.1786278e-39
0.17669058 0.15880147 0.75799978 1.4822951e-38
-0.0037543869 0.19804643 0.75589484 1.2150002e-38
0.023254631 0.19243258 0.74999976 1.2703533e-38
0.060300428 0.18947117 0.74839836 1.3809522e-38
0.099204741 0.19017552 0.75313598 1.3257424e-38
0.1424325 0.18338126 0.74885023 1.1783737e-38
0.17997599 0.18060769 0.74020857 1.3809519e-38
0.21943255 0.18158142 0.73904943 1.5191732e-38
0.25767872 0.18787056 0.74109995 1.7680652e-38
0.29255778 0.19494642 0.75118017 1.8879551e-38
-0.013457419 0.21990113 0.73753065 1.0768146e-38
0.019873263 0.21982601 0.73148948 1.1414235e-38
0.059770074 0.22011147 0.73327816 1.2244717e-38
0.09948381 0.21974291 0.74236739 1.0679189e-38
0.13707899 0.21799923 0.73451108 1.0217851e-38
0.17431061 0.20440476 0.72239226 1.2520939e-38
0.20395812 0.20075618 0.72066677 1.3441094e-38
0.26904646 0.20344518 0.72576928 1.7958317e-38
0.30342609 0.2116752 0.73465854 1.961856e-38
0.33752474 0.22495905 0.74324352 2.0172818e-38
0.36826947 0.23267385 0.75200784 1.8882799e-38
-0.015230511 0.2439305 0.72158831 9.2940981e-39
0.026953401 0.25217736 0.7215392 1.0217495e-38
0.059509438 0.2594772 0.72838277 8.5594127e-39
0.10224801 0.26051849 0.7405799 6.6251065e-39
0.12643573 0.25345325 0.7271297 8.7438053e-39
0.34839594 0.25209877 0.72805965 1.9160468e-38
0.36516646 0.25201809 0.73699313 1.740947e-38
-0.10314287 0.31974289 0.72200006 5.5191331e-39
-0.0006857143 0.31885716 0.72000003 4.6908116e-39
0.027014421 0.30332452 0.72717828 5.3354537e-39
0.057208031 0.29605761 0.74006969 4.8748343e-39
0.098082148 0.29884419 0.73754764 6.5329095e-39
-0.10282001 0.32363504 0.72455555 1.0128875e-38
-0.0013728573 0.32158288 0.72150004 4.2309152e-39
0.013219371 0.3227945 0.73077947 2.2069344e-39
0.08815334 0.32572857 0.74126977 5.9800972e-39
0.3871623 -0.00857017 0.79059988 6.7237958e-39
0.35752106 0.037377622 0.79769993 1.0496603e-38
0.38162422 0.024517834 0.79267359 1.0680641e-38
0.35357553 0.062501155 0.79420906 9.7590405e-39
0.37603775 0.059386358 0.78629392 1.0128547e-38
0.35261965 0.097923644 0.79430741 6.536878e-39
0.37611309 0.10011504 0.78603756 6.6308813e-39
0.069055185 0.15561493 0.79089206 1.390171e-38
0.10233679 0.14733109 0.78484333 1.3533291e-38
0.14060086 0.14191385 0.77953315 1.4270497e-38
0.17893586 0.14184637 0.77727509 1.6021488e-38
0.21771966 0.14980537 0.7792629 1.6573943e-38
0.25537702 0.15520343 0.78959155 1.6390268e-38
0.28119999 0.15884002 0.79800004 1.5837454e-38
0.35667178 0.12431317 0.7961669 6.1680983e-39
0.37920666 0.13238737 0.79139215 6.2617386e-39
-0.0077220807 0.19460036 0.76677787 1.2520228e-38
0.022063646 0.17895736 0.77388054 1.3532933e-38
0.059263255 0.1696018 0.77343285 1.4269777e-38
0.099907465 0.17031884 0.76617616 1.3348542e-38
0.13157056 0.16628291 0.76248199 1.2520223e-38
0.22654727 0.16193098 0.76313734 1.6388837e-38
0.26300761 0.16894615 0.77148467 1.7403348e-38
0.30001247 0.17969646 0.77805626 1.7958678e-38
0.33526021 0.19110197 0.78691751 1.9895147e-38
0.36727926 0.19810115 0.7969631 1.8697321e-38
-0.019090965 0.20208398 0.76248389 1.2243638e-38
0.31920004 0.20049526 0.76000005 1.9340179e-38
0.34727871 0.20825094 0.76956844 1.9801516e-38
0.37665212 0.21399245 0.77891529 1.906611e-38
0.40035272 0.21195081 0.79766673 1.842182e-38
0.07737112 0.31394285 0.77115381 2.5749896e-39
0.086430885 0.30314195 0.76286566 3.2189171e-39
0.072392434 0.33574334 0.77991378 4.0479561e-39
0.080456711 0.33046478 0.76107705 4.7844379e-39
0.39149845 -0.083658732 0.83477789 4.4236022e-39
0.40868244 -0.082204759 0.83041185 4.4232392e-39
0.35815859 -0.042525005 0.83850008 3.3161532e-39
0.38425922 -0.056537393 0.82678151 4.1444803e-39
0.4043476 -0.062479369 0.8173551 4.0522875e-39
0.35249403 -0.014481213 0.83080393 4.8816852e-39
0.37734282 -0.022652248 0.81438732 7.1833278e-39
0.40155926 -0.033837784 0.80500001 1.0773544e-38
0.3450554 0.021697747 0.81954259 9.6672064e-39
0.37082058 0.011536628 0.80409575 1.0587e-38
0.31895906 0.067892067 0.8386668 9.9444981e-39
0.33439612 0.059508543 0.81743413 9.483171e-39
0.11500902 0.118431 0.82907701 1.427014e-38
0.1424485 0.11449029 0.81587541 1.491658e-38
0.17462035 0.11408432 0.815117 1.5838176e-38
0.31721073 0.10843439 0.83735949 1.0862854e-38
0.33300334 0.10012914 0.81693482 8.1009555e-39
0.06401936 0.14853843 0.81009638 1.3994269e-38
0.09912473 0.13063785 0.81299627 1.4179017e-38
0.13303037 0.12234911 0.80458111 1.4732549e-38
0.18697788 0.12364619 0.80636096 1.6759046e-38
0.22102839 0.13494918 0.81191427 1.5469388e-38
0.26145563 0.14572428 0.81703842 1.4271208e-38
0.30356631 0.14456102 0.82792264 1.2522013e-38
0.33932334 0.13895027 0.82299036 1.0218928e-38
0.36946815 0.14731364 0.81482095 1.0128171e-38
0.033111814 0.16531838 0.80296308 1.4179379e-38
0.042262148 0.16102882 0.80325007 1.4179022e-38
0.30666777 0.16432126 0.80502468 1.6484983e-38
0.34352708 0.17385186 0.81526083 1.8420735e-38
0.37721595 0.18411738 0.82087445 1.8882075e-38
0.40880945 0.19441634 0.82677668 1.796012e-38
0.39214215 0.20295466 0.8031112 1.9065746e-38
0.40396512 0.20383336 0.80909395 1.8419661e-38
0.063589148 0.35424778 0.80060005 2.7611844e-39
0.38976729 -0.086485729 0.84231246 4.6076291e-39
0.3464132 -0.053533506 0.85957271 3.0399363e-39
0.36600775 -0.063141227 0.84758407 2.948821e-39
0.31479439 -0.009154005 0.87401068 1.085999e-38
0.3362864 -0.020622229 0.85699886 6.1681011e-39
0.31226492 0.02092134 0.86537576 1.1323122e-38
0.3283996 0.016356761 0.85459489 1.0770669e-38
0.31298101 0.062735565 0.86214823 1.1601144e-38
0.32169008 0.051648837 0.84784013 1.0863939e-38
0.10973047 0.11774001 0.84100002 1.5641609e-38
0.27781478 0.11888476 0.87600005 1.27064e-38
0.30369005 0.10129128 0.85741824 1.1784451e-38
0.32076097 0.085803807 0.84200001 9.7590293e-39
0.22852856 0.1301927 0.8694855 1.3443253e-38
0.262429 0.13125516 0.85835135 1.3074829e-38
0.29204887 0.12881342 0.84924716 1.2061393e-38
0.38459697 0.15806185 0.84447062 1.7595275e-38
0.38964301 0.16973247 0.84838039 1.9527084e-38
0.41465583 0.18410021 0.85819697 1.7590977e-38
0.3314833 -0.04670136 0.89442194 3.5927457e-39
0.30825621 -0.0030733335 0.88033342 8.5637497e-39
0.32618156 -0.032463145 0.8887344 3.4998382e-39
0.30803218 0.023913877 0.89988536 6.3542916e-39
0.3052597 0.058032781 0.89180833 9.94631e-39
0.22436668 0.11745417 0.89271998 1.3813849e-38
0.26770055 0.11507528 0.8956278 1.2706051e-38
0.29006287 0.098480597 0.89025193 1.2062121e-38
0.22656928 0.12320171 0.8831352 1.3258859e-38
0.25255892 0.12241664 0.88520563 1.3259582e-38
0.43248472 0.18269826 0.89247626 1.6761573e-38
0.44393948 0.18551286 0.88994747 1.6024371e-38
0.033740088 0.23473123 0.65385216 1.4186231e-38
0.020223334 -0.016248159 0.61246145 1.0327366e-38
-0.0055600083 0.27713248 0.72397399 8.0984401e-39
