# .PCD v0.7 - Point Cloud Data file format
VERSION 0.7
FIELDS x y z rgb
SIZE 4 4 4 4
TYPE F F F F
COUNT 1 1 1 1
WIDTH 1021
HEIGHT 1
VIEWPOINT 0 0 0 1 0 0 0
POINTS 1021
DATA ascii
0.90608299 -0.59459114 2.2593334 1.5988032e-38
0.93808001 -0.59108484 2.260536 1.5988032e-38
0.97688401 -0.58217049 2.2559993 1.5988032e-38
-0.3283065 -0.54745889 2.2558181 1.5988032e-38
-0.3091791 -0.53350955 2.2625847 1.5988032e-38
0.99351513 -0.53903574 2.2541001 1.5988032e-38
1.001604 -0.54476953 2.2520001 1.5988032e-38
-0.32385904 -0.51259816 2.2520003 1.5988032e-38
-0.29815879 -0.50215471 2.2598591 1.5988032e-38
-0.26667887 -0.49050424 2.266 1.5988032e-38
-0.23739047 -0.48125523 2.266 1.5988032e-38
0.98532331 -0.4974722 2.2548819 1.5988032e-38
-0.284181 -0.47720957 2.2520001 1.5988032e-38
-0.26195639 -0.46019945 2.2623274 1.5988032e-38
-0.2288107 -0.45356855 2.2659993 1.5988032e-38
0.98423225 -0.46209204 2.2579997 1.5988032e-38
-0.25004888 -0.4236823 2.254333 1.5988032e-38
-0.22151659 -0.42007077 2.2641456 1.5988032e-38
0.97709805 -0.42230338 2.2567654 1.5988032e-38
-0.25093713 -0.39678097 2.2520001 1.5988032e-38
-0.21472785 -0.38571781 2.2594819 1.5988032e-38
-0.18621264 -0.37135121 2.2656496 1.5988032e-38
0.95045853 -0.36879599 2.259913 1.5988032e-38
0.96961099 -0.37813985 2.2555809 1.5988032e-38
-0.20375238 -0.35603049 2.2520001 1.5988032e-38
-0.18214937 -0.34305468 2.2613332 1.5988032e-38
-0.15754095 -0.35176951 2.266 1.5988032e-38
0.9535988 -0.34044144 2.2587996 1.5988032e-38
0.96986121 -0.3489528 2.2520001 1.5988032e-38
-0.18945399 -0.31813967 2.2520003 1.5988032e-38
-0.12768731 -0.29457998 2.2660003 1.5988032e-38
-0.11653715 -0.28486857 2.266 1.5988032e-38
0.94593418 -0.29992968 2.2553329 1.5988032e-38
0.96299815 -0.30241144 2.2520003 1.5988032e-38
-0.11581779 -0.27695554 2.2660003 1.5988032e-38
-0.051729076 -0.26717737 2.2569413 1.5988032e-38
0.93223244 -0.25966898 2.2603121 1.5988032e-38
0.90142906 -0.21166509 2.2606151 1.5988032e-38
0.92967409 -0.22675931 2.2602065 1.5988032e-38
-0.015106667 -0.16185714 2.266 1.5988032e-38
0.90079999 -0.19946286 2.2520001 1.5988032e-38
-0.017353075 -0.13570493 2.2520001 1.5988032e-38
-0.011558256 -0.1002262 2.2523885 1.5988032e-38
0.018244015 -0.095829792 2.2652357 1.5988032e-38
0.044703402 -0.087248713 2.266 1.5988032e-38
-0.0038605717 -0.068632372 2.2520003 1.5988032e-38
0.020075865 -0.062118553 2.2544193 1.5988032e-38
0.050258227 -0.055792466 2.2641733 1.5988032e-38
0.034622587 -0.030333063 2.2520001 1.5988032e-38
0.058975622 -0.019853791 2.2594931 1.5988032e-38
0.096035242 -0.0032371429 2.266 1.5988032e-38
0.070319869 0.017122578 2.2554216 1.5988032e-38
0.097237594 0.020527652 2.2639339 1.5988032e-38
0.077926353 0.042180322 2.2520003 1.5988032e-38
0.09997277 0.05840965 2.2525995 1.5988032e-38
0.12850866 0.066395991 2.2594998 1.5988032e-38
0.11109867 0.087077335 2.2520001 1.5988032e-38
0.14138237 0.099411458 2.2574782 1.5988032e-38
0.16294749 0.1081083 2.2639999 1.5988032e-38
0.14837857 0.13024554 2.2520001 1.5988032e-38
0.1737926 0.14393312 2.2604644 1.5988032e-38
0.18379539 0.17936997 2.2531824 1.5988032e-38
0.20767282 0.1865 2.2628181 1.5988032e-38
0.19544142 0.21313572 2.2520003 1.5988032e-38
0.21890546 0.22238606 2.2594373 1.5988032e-38
0.22502148 0.25818911 2.2535553 1.5988032e-38
0.25074831 0.26456276 2.2639408 1.5988032e-38
0.23152141 0.28909135 2.2520001 1.5988032e-38
0.2560606 0.29339835 2.2563071 1.5988032e-38
-0.412469 -0.70337909 2.2809997 1.5988032e-38
-0.38149419 -0.69516194 2.2809992 1.5988032e-38
-0.33847609 -0.688492 2.2904725 1.5988032e-38
-0.29995188 -0.6927284 2.2936451 1.5988032e-38
-0.26419464 -0.69154847 2.2912493 1.5988032e-38
-0.21907631 -0.68864483 2.2809994 1.5988032e-38
-0.18160219 -0.68547434 2.285965 1.5988032e-38
-0.14979438 -0.68401259 2.2853639 1.5988032e-38
-0.095510215 -0.68385547 2.2916172 1.5988032e-38
-0.076166674 -0.686571 2.2850001 1.5988032e-38
-0.37339887 -0.66115582 2.2809989 1.5988032e-38
-0.34087017 -0.65864617 2.2925115 1.5988032e-38
-0.31394583 -0.65854186 2.3114233 1.5988032e-38
-0.2481589 -0.67451257 2.2938826 1.5988032e-38
-0.22007626 -0.67245889 2.292999 1.5988032e-38
-0.17882861 -0.67449504 2.2971714 1.5988032e-38
-0.13982995 -0.67604351 2.2950499 1.5988032e-38
-0.10449657 -0.67792726 2.291389 1.5988032e-38
-0.058085252 -0.6645202 2.2999454 1.5988032e-38
-0.020573456 -0.66248399 2.3023429 1.5988032e-38
0.018521113 -0.65374666 2.2975514 1.5988032e-38
0.058050528 -0.65505654 2.3002799 1.5988032e-38
0.098927937 -0.65130544 2.2973251 1.5988032e-38
0.14043048 -0.64685041 2.2961285 1.5988032e-38
0.17773807 -0.64549822 2.2946754 1.5988032e-38
0.2205514 -0.64616054 2.2992549 1.5988032e-38
0.25814062 -0.6491642 2.2948587 1.5988032e-38
0.29892761 -0.64549184 2.2825475 1.5988032e-38
0.34196907 -0.64456517 2.2843933 1.5988032e-38
0.37775716 -0.64383239 2.2831821 1.5988032e-38
0.42361429 -0.64252341 2.2810001 1.5988032e-38
0.44968286 -0.64302486 2.2810001 1.5988032e-38
-0.36539453 -0.62390786 2.2810001 1.5988032e-38
-0.33821493 -0.61845416 2.2855716 1.5988032e-38
-0.30604538 -0.61581355 2.3062541 1.5988032e-38
-0.27611884 -0.60288155 2.312 1.5988032e-38
0.11229714 -0.63635051 2.312 1.5988032e-38
0.14286476 -0.63376004 2.312 1.5988032e-38
0.17774144 -0.63283867 2.3095803 1.5988032e-38
0.21321777 -0.63488269 2.3120003 1.5988032e-38
0.26506454 -0.63305223 2.3094137 1.5988032e-38
0.30124182 -0.62592006 2.2984633 1.5988032e-38
0.33881718 -0.6260305 2.2986989 1.5988032e-38
0.38008806 -0.6258918 2.2983222 1.5988032e-38
0.41915593 -0.62879771 2.2950163 1.5988032e-38
0.46097627 -0.62431484 2.295718 1.5988032e-38
0.50004399 -0.61693972 2.2939851 1.5988032e-38
0.54010725 -0.61820006 2.292315 1.5988032e-38
0.57896417 -0.6176905 2.2959991 1.5988032e-38
0.61886925 -0.61989796 2.2955806 1.5988032e-38
0.65972686 -0.61138421 2.2904987 1.5988032e-38
0.70188177 -0.60757482 2.2866211 1.5988032e-38
0.74070185 -0.60873216 2.2958958 1.5988032e-38
0.77992612 -0.60632432 2.2945805 1.5988032e-38
0.81768197 -0.60725385 2.2949769 1.5988032e-38
0.86417282 -0.60399622 2.283087 1.5988032e-38
0.8889237 -0.6024906 2.2933574 1.5988032e-38
-0.33735803 -0.58973742 2.2809992 1.5988032e-38
-0.30061045 -0.57972854 2.2892957 1.5988032e-38
-0.26383138 -0.57438928 2.3062301 1.5988032e-38
-0.23384228 -0.56500882 2.312 1.5988032e-38
0.66430634 -0.59415132 2.3021309 1.5988032e-38
0.69601578 -0.5932616 2.2997744 1.5988032e-38
0.74309045 -0.59336102 2.312 1.5988032e-38
0.78082776 -0.5962311 2.3077145 1.5988032e-38
0.83037847 -0.59278989 2.3031583 1.5988032e-38
0.85789204 -0.58521789 2.3043172 1.5988032e-38
0.90070057 -0.58663225 2.303792 1.5988032e-38
0.93958855 -0.5792917 2.3020444 1.5988032e-38
0.9753406 -0.57408595 2.2955685 1.5988032e-38
1.0014676 -0.56264669 2.2810001 1.5988032e-38
-0.29292989 -0.54357886 2.2816143 1.5988032e-38
-0.25961575 -0.54023582 2.2933881 1.5988032e-38
-0.22149515 -0.53634226 2.3028924 1.5988032e-38
-0.19596952 -0.52625525 2.312 1.5988032e-38
0.86094475 -0.55708194 2.312 1.5988032e-38
0.95342469 -0.54093468 2.3120003 1.5988032e-38
0.98224282 -0.54199451 2.2995498 1.5988032e-38
1.0014677 -0.54744005 2.2810001 1.5988032e-38
-0.28820258 -0.51775086 2.2810001 1.5988032e-38
-0.2577706 -0.50325322 2.2822497 1.5988032e-38
-0.21870303 -0.49998596 2.2949414 1.5988032e-38
-0.1949909 -0.49640718 2.312 1.5988032e-38
0.95342475 -0.50247467 2.312 1.5988032e-38
0.97661209 -0.49958798 2.2979987 1.5988032e-38
-0.25603062 -0.46240687 2.2810001 1.5988032e-38
-0.21278767 -0.46419472 2.2821422 1.5988032e-38
-0.18040879 -0.45904377 2.2991881 1.5988032e-38
-0.15387262 -0.4429588 2.30825 1.5988032e-38
0.95097816 -0.44796529 2.312 1.5988032e-38
0.97529751 -0.4605009 2.2993367 1.5988032e-38
-0.20203142 -0.42361432 2.2810001 1.5988032e-38
-0.18034999 -0.41937611 2.2815933 1.5988032e-38
-0.15127259 -0.41690537 2.3040245 1.5988032e-38
0.94553679 -0.41899797 2.3066101 1.5988032e-38
0.9680956 -0.42000932 2.2909794 1.5988032e-38
-0.1739974 -0.38595963 2.2809989 1.5988032e-38
-0.14013739 -0.37923428 2.2988844 1.5988032e-38
-0.11264445 -0.37713867 2.3105717 1.5988032e-38
0.94500721 -0.37975711 2.3026652 1.5988032e-38
0.96363246 -0.3936342 2.2863336 1.5988032e-38
-0.16913541 -0.33920181 2.2810001 1.5988032e-38
-0.13752425 -0.34229219 2.2976201 1.5988032e-38
-0.10913223 -0.33899173 2.306473 1.5988032e-38
-0.061653331 -0.32588193 2.312 1.5988032e-38
0.91339374 -0.3336542 2.3104212 1.5988032e-38
0.93893552 -0.3410812 2.2996182 1.5988032e-38
-0.13189457 -0.31096086 2.2810001 1.5988032e-38
-0.10237541 -0.29872406 2.2923903 1.5988032e-38
-0.059961203 -0.29691741 2.305845 1.5988032e-38
0.90609741 -0.29963538 2.3054359 1.5988032e-38
0.93224174 -0.30036905 2.2928023 1.5988032e-38
-0.092162237 -0.27653748 2.2863336 1.5988032e-38
-0.058859996 -0.27686 2.289 1.5988032e-38
-0.037189528 -0.27564001 2.2970002 1.5988032e-38
0.87268829 -0.2429435 2.312 1.5988032e-38
0.90121931 -0.25912473 2.3057189 1.5988032e-38
0.92647564 -0.26111171 2.2913995 1.5988032e-38
0.87503695 -0.22532824 2.312 1.5988032e-38
0.8966819 -0.22625732 2.296916 1.5988032e-38
0.93438208 -0.21896018 2.2881112 1.5988032e-38
0.97057313 -0.21653405 2.30825 1.5988032e-38
0.059206765 -0.1252639 2.312 1.5988032e-38
0.03548222 -0.10572255 2.2810001 1.5988032e-38
0.0610977 -0.10030504 2.2999284 1.5988032e-38
0.10806947 -0.096091144 2.312 1.5988032e-38
0.12220572 -0.10348953 2.312 1.5988032e-38
0.067643151 -0.063629337 2.2905521 1.5988032e-38
0.099212594 -0.057279713 2.3060546 1.5988032e-38
0.12430754 -0.051844846 2.3120003 1.5988032e-38
0.076033339 -0.027154762 2.2810001 1.5988032e-38
0.098612979 -0.020529045 2.2872074 1.5988032e-38
0.13695629 -0.018159404 2.3039701 1.5988032e-38
0.1147017 0.016075619 2.2809999 1.5988032e-38
0.14034796 0.020053748 2.2934854 1.5988032e-38
0.16931285 0.026091976 2.3109288 1.5988032e-38
0.11948096 0.043447621 2.2810001 1.5988032e-38
0.14641993 0.056177627 2.2860518 1.5988032e-38
0.1786003 0.06037128 2.301923 1.5988032e-38
0.2064548 0.066581406 2.312 1.5988032e-38
0.15134256 0.081102237 2.2810001 1.5988032e-38
0.18184251 0.099257529 2.2916017 1.5988032e-38
0.21488287 0.10139373 2.3092022 1.5988032e-38
0.18863495 0.13340518 2.2822964 1.5988032e-38
0.21883349 0.14001271 2.2973704 1.5988032e-38
0.24481177 0.13952073 2.3120003 1.5988032e-38
0.22483213 0.17820224 2.2909811 1.5988032e-38
0.25752023 0.18161985 2.308141 1.5988032e-38
0.23337582 0.2110313 2.2810001 1.5988032e-38
0.26101214 0.21893615 2.2974379 1.5988032e-38
0.30088806 0.22896017 2.3068771 1.5988032e-38
0.26820934 0.25534922 2.2943325 1.5988032e-38
0.29983565 0.25939375 2.2981045 1.5988032e-38
0.33346349 0.26664504 2.3048563 1.5988032e-38
0.27233762 0.28695181 2.2810001 1.5988032e-38
0.299862 0.29526165 2.2841544 1.5988032e-38
0.34018853 0.29356033 2.3019989 1.5988032e-38
0.3661375 0.30208111 2.2986252 1.5988032e-38
-0.29475334 -0.68092453 2.3269999 1.5988032e-38
-0.27259144 -0.68037051 2.3270001 1.5988032e-38
-0.097512387 -0.68037051 2.3270001 1.5988032e-38
-0.29591778 -0.65888041 2.3342948 1.5988032e-38
-0.26155868 -0.65937632 2.342442 1.5988032e-38
-0.21920873 -0.65418237 2.3370278 1.5988032e-38
-0.18085989 -0.65500575 2.3385062 1.5988032e-38
-0.14027716 -0.65606713 2.3378928 1.5988032e-38
-0.10023067 -0.65637237 2.3330629 1.5988032e-38
-0.063221194 -0.64781749 2.3297436 1.5988032e-38
-0.015979899 -0.64374506 2.3269999 1.5988032e-38
0.017008062 -0.64224809 2.3280666 1.5988032e-38
0.066375531 -0.64295977 2.3325651 1.5988032e-38
0.09317816 -0.64409822 2.3391383 1.5988032e-38
0.23270002 -0.64269531 2.3270001 1.5988032e-38
-0.29081285 -0.62716919 2.3292854 1.5988032e-38
-0.25893068 -0.61863452 2.3342948 1.5988032e-38
-0.2216187 -0.61858463 2.3463252 1.5988032e-38
-0.18926507 -0.62374324 2.3585439 1.5988032e-38
-0.14109319 -0.63469589 2.3576672 1.5988032e-38
-0.099533945 -0.63500184 2.3550005 1.5988032e-38
-0.058768846 -0.63279599 2.3411186 1.5988032e-38
-0.017808393 -0.63185865 2.3448608 1.5988032e-38
0.017490959 -0.62943351 2.3416679 1.5988032e-38
0.058371674 -0.63319749 2.3489437 1.5988032e-38
0.10982485 -0.62494183 2.3512061 1.5988032e-38
0.13850124 -0.61965513 2.3406222 1.5988032e-38
0.18178552 -0.61956447 2.3450994 1.5988032e-38
0.22051854 -0.61975211 2.3352108 1.5988032e-38
0.25874788 -0.61799651 2.3423603 1.5988032e-38
0.29739872 -0.60965329 2.3393087 1.5988032e-38
0.34082252 -0.60909462 2.3364704 1.5988032e-38
0.37936658 -0.60798252 2.3363345 1.5988032e-38
0.42241487 -0.61207795 2.3400183 1.5988032e-38
0.45875281 -0.61033833 2.3370752 1.5988032e-38
0.49864283 -0.60375381 2.3269999 1.5988032e-38
0.54050756 -0.6044395 2.3283331 1.5988032e-38
0.57862681 -0.60269535 2.3323331 1.5988032e-38
0.6172089 -0.60357559 2.3303101 1.5988032e-38
0.64712763 -0.60723627 2.3269999 1.5988032e-38
0.78453147 -0.60206509 2.3270001 1.5988032e-38
0.82220668 -0.60058767 2.3270001 1.5988032e-38
-0.2577906 -0.58614987 2.3295953 1.5988032e-38
-0.21866132 -0.58008152 2.3361087 1.5988032e-38
-0.18387236 -0.58010054 2.3538229 1.5988032e-38
0.11907334 -0.59986001 2.3590002 1.5988032e-38
0.12581334 -0.59986001 2.3590002 1.5988032e-38
0.26735336 -0.59986001 2.3590002 1.5988032e-38
0.30400935 -0.59007692 2.3542945 1.5988032e-38
0.33969709 -0.59281123 2.3585439 1.5988032e-38
0.38123211 -0.59203649 2.3585908 1.5988032e-38
0.41916388 -0.59151548 2.3590009 1.5988032e-38
0.4626455 -0.59210151 2.3554008 1.5988032e-38
0.5022884 -0.58684105 2.3450005 1.5988032e-38
0.5388521 -0.58782142 2.3466237 1.5988032e-38
0.58034271 -0.58729947 2.3486145 1.5988032e-38
0.61803508 -0.59133869 2.3465559 1.5988032e-38
0.65841466 -0.58596241 2.3402321 1.5988032e-38
0.69874156 -0.58223313 2.3392191 1.5988032e-38
0.73639911 -0.58013618 2.3441761 1.5988032e-38
0.78227496 -0.58491683 2.3415003 1.5988032e-38
0.81962907 -0.5827843 2.3378716 1.5988032e-38
0.85989559 -0.56994498 2.3396523 1.5988032e-38
0.900307 -0.56781191 2.3328474 1.5988032e-38
0.93615848 -0.56518131 2.329963 1.5988032e-38
-0.20876515 -0.5531612 2.3269999 1.5988032e-38
-0.17951107 -0.53953439 2.337435 1.5988032e-38
-0.15033945 -0.53246003 2.3590009 1.5988032e-38
0.73016679 -0.55942005 2.3590002 1.5988032e-38
0.86796439 -0.55525124 2.3580005 1.5988032e-38
0.90269071 -0.55230057 2.3574009 1.5988032e-38
0.94622624 -0.54388618 2.3475003 1.5988032e-38
0.97479427 -0.5369488 2.3338573 1.5988032e-38
-0.20167334 -0.51194006 2.3270001 1.5988032e-38
-0.17728706 -0.50052524 2.3300154 1.5988032e-38
-0.14314349 -0.50022733 2.3484156 1.5988032e-38
-0.11547867 -0.48483071 2.3590002 1.5988032e-38
0.94725358 -0.49967155 2.3472528 1.5988032e-38
0.96677577 -0.49935886 2.3279409 1.5988032e-38
-0.13916641 -0.46045223 2.3316936 1.5988032e-38
-0.10359327 -0.45692468 2.3500185 1.5988032e-38
0.9190532 -0.44856977 2.3526003 1.5988032e-38
0.94113082 -0.46110892 2.3489749 1.5988032e-38
0.96489912 -0.46742281 2.3334002 1.5988032e-38
-0.13252489 -0.42309207 2.3280921 1.5988032e-38
-0.10082368 -0.42023572 2.3396764 1.5988032e-38
-0.06602703 -0.41301227 2.3590009 1.5988032e-38
-0.035946667 -0.40440005 2.3590002 1.5988032e-38
0.91382152 -0.4190737 2.3530879 1.5988032e-38
0.92963499 -0.42043617 2.3368192 1.5988032e-38
-0.094212964 -0.38064963 2.3334572 1.5988032e-38
-0.060220346 -0.37874737 2.3375211 1.5988032e-38
-0.03304885 -0.37815157 2.3584294 1.5988032e-38
0.91057783 -0.37789634 2.3508768 1.5988032e-38
0.93218112 -0.38337198 2.3335464 1.5988032e-38
-0.089952618 -0.34099114 2.329401 1.5988032e-38
-0.059558615 -0.34201565 2.3311744 1.5988032e-38
-0.021450046 -0.33840469 2.3535812 1.5988032e-38
0.0022466672 -0.32876226 2.3590002 1.5988032e-38
0.87485212 -0.34374005 2.3590002 1.5988032e-38
0.90448618 -0.34094879 2.348973 1.5988032e-38
0.92415148 -0.3568067 2.3270001 1.5988032e-38
-0.085323349 -0.30805051 2.3269999 1.5988032e-38
-0.058729049 -0.30860451 2.3269999 1.5988032e-38
-0.019647492 -0.29923755 2.3356915 1.5988032e-38
0.0052422229 -0.29656005 2.3590007 1.5988032e-38
0.87644964 -0.29081854 2.3590004 1.5988032e-38
0.89155114 -0.30015388 2.3460886 1.5988032e-38
-0.017851431 -0.27892861 2.3430002 1.5988032e-38
0.025275001 -0.27016166 2.3590002 1.5988032e-38
0.86701602 -0.25847724 2.3435166 1.5988032e-38
0.88768929 -0.27104902 2.3327146 1.5988032e-38
0.068748005 -0.20624402 2.3590002 1.5988032e-38
0.83576006 -0.20444669 2.3590002 1.5988032e-38
0.86339557 -0.22277035 2.3399668 1.5988032e-38
0.99246502 -0.21118668 2.3590002 1.5988032e-38
0.069123767 -0.1792105 2.3440917 1.5988032e-38
0.0962274 -0.1743634 2.357801 1.5988032e-38
0.12581335 -0.16737667 2.3590002 1.5988032e-38
0.83576006 -0.19995335 2.3590002 1.5988032e-38
0.068193324 -0.14455576 2.3398008 1.5988032e-38
0.10063291 -0.14090922 2.3477404 1.5988032e-38
0.13716413 -0.14037605 2.3572228 1.5988032e-38
0.095729753 -0.10111682 2.3278587 1.5988032e-38
0.14139578 -0.10012721 2.3487594 1.5988032e-38
0.16887447 -0.088743344 2.3590007 1.5988032e-38
0.097069152 -0.074464016 2.3269999 1.5988032e-38
0.14235513 -0.061240271 2.3340862 1.5988032e-38
0.17299555 -0.056760676 2.3558009 1.5988032e-38
0.1520524 -0.034256611 2.3287778 1.5988032e-38
0.18156049 -0.020175602 2.3530734 1.5988032e-38
0.20874469 -0.016703481 2.3590009 1.5988032e-38
0.1857937 0.015887566 2.3348446 1.5988032e-38
0.21906416 0.021447366 2.3551786 1.5988032e-38
0.24301448 0.028832225 2.3590007 1.5988032e-38
0.19502477 0.046540003 2.3270001 1.5988032e-38
0.22274911 0.057587303 2.338171 1.5988032e-38
0.24792629 0.061849419 2.3590009 1.5988032e-38
0.29880673 0.074140005 2.3590002 1.5988032e-38
0.23268214 0.093205221 2.3330951 1.5988032e-38
0.25804445 0.10304086 2.3491943 1.5988032e-38
0.29415837 0.10574829 2.3590009 1.5988032e-38
0.26448783 0.14025535 2.3342991 1.5988032e-38
0.29745549 0.14344849 2.3554754 1.5988032e-38
0.33250669 0.15771602 2.3590004 1.5988032e-38
0.26963654 0.16547556 2.3269999 1.5988032e-38
0.30113345 0.18014777 2.3384295 1.5988032e-38
0.34010234 0.18296665 2.356818 1.5988032e-38
0.36524385 0.18904097 2.3590007 1.5988032e-38
0.30160314 0.21150374 2.3315136 1.5988032e-38
0.34118631 0.22094545 2.3430007 1.5988032e-38
0.37335211 0.22559169 2.3542438 1.5988032e-38
0.34761611 0.25430018 2.332334 1.5988032e-38
0.38076311 0.26149613 2.3491056 1.5988032e-38
0.40696767 0.26671147 2.3590007 1.5988032e-38
0.38196746 0.29316324 2.3355343 1.5988032e-38
0.41650304 0.29518303 2.3590009 1.5988032e-38
-0.20592001 -0.64038861 2.3760002 1.5988032e-38
-0.15161145 -0.64038861 2.3760002 1.5988032e-38
-0.17363174 -0.62069726 2.3805709 1.5988032e-38
-0.14157143 -0.62805283 2.3887172 1.5988032e-38
-0.1010745 -0.63043714 2.3887992 1.5988032e-38
-0.059365578 -0.61905783 2.3841269 1.5988032e-38
-0.02227333 -0.61614901 2.3830004 1.5988032e-38
0.022519274 -0.61617309 2.3830762 1.5988032e-38
0.061636716 -0.61631072 2.3810916 1.5988032e-38
0.095887415 -0.61771506 2.380444 1.5988032e-38
0.14751475 -0.60658228 2.3772309 1.5988032e-38
0.17617467 -0.6070928 2.379555 1.5988032e-38
0.22179946 -0.60584772 2.3794777 1.5988032e-38
0.25670856 -0.60518867 2.3760002 1.5988032e-38
0.29190859 -0.6041829 2.3760002 1.5988032e-38
-0.16451721 -0.58335513 2.3778822 1.5988032e-38
-0.14330754 -0.57661933 2.3901167 1.5988032e-38
-0.11390477 -0.56268954 2.3920002 1.5988032e-38
-0.060857698 -0.59783739 2.3920002 1.5988032e-38
-0.034171432 -0.59913909 2.3920002 1.5988032e-38
0.01594667 -0.59762037 2.3920002 1.5988032e-38
0.065305404 -0.59913915 2.3920002 1.5988032e-38
0.11069606 -0.59574866 2.3862858 1.5988032e-38
0.13853675 -0.59239078 2.3845844 1.5988032e-38
0.17997777 -0.59625661 2.3873329 1.5988032e-38
0.21645971 -0.59754324 2.3866663 1.5988032e-38
0.25972348 -0.59441435 2.381176 1.5988032e-38
0.29616058 -0.58678102 2.3828571 1.5988032e-38
0.34160879 -0.5839783 2.3852303 1.5988032e-38
0.37906477 -0.58258098 2.383333 1.5988032e-38
0.41814527 -0.58260906 2.3875551 1.5988032e-38
0.46165717 -0.58246607 2.3849995 1.5988032e-38
0.49833527 -0.57097512 2.3836515 1.5988032e-38
0.54143101 -0.57158446 2.3843801 1.5988032e-38
0.58137286 -0.57185662 2.3858173 1.5988032e-38
0.62080133 -0.57541907 2.3863521 1.5988032e-38
0.6568045 -0.57457149 2.3839996 1.5988032e-38
0.6990267 -0.56926554 2.3791213 1.5988032e-38
0.7460252 -0.56702119 2.3770666 1.5988032e-38
0.77891529 -0.5702576 2.3789763 1.5988032e-38
0.82073539 -0.56659365 2.3773332 1.5988032e-38
0.85066026 -0.56867343 2.3759999 1.5988032e-38
-0.13475841 -0.5443579 2.3830762 1.5988032e-38
-0.10487229 -0.53659999 2.3906372 1.5988032e-38
-0.068518102 -0.52729142 2.3920002 1.5988032e-38
0.5093171 -0.55487895 2.3920002 1.5988032e-38
0.52624005 -0.55813336 2.3920002 1.5988032e-38
0.67568922 -0.5519132 2.3888004 1.5988032e-38
0.69795084 -0.55227691 2.3899479 1.5988032e-38
0.73640394 -0.55592507 2.3870761 1.5988032e-38
0.78678179 -0.55610025 2.3894734 1.5988032e-38
0.82075638 -0.55373037 2.3839993 1.5988032e-38
0.86115259 -0.54970467 2.3837831 1.5988032e-38
0.89946187 -0.54118669 2.3820794 1.5988032e-38
0.93462789 -0.53589261 2.3798516 1.5988032e-38
-0.12575021 -0.50978941 2.3760004 1.5988032e-38
-0.10063694 -0.5014258 2.3846157 1.5988032e-38
-0.063702881 -0.49603936 2.3917322 1.5988032e-38
-0.032652702 -0.49130923 2.3920002 1.5988032e-38
0.91241491 -0.49470481 2.387428 1.5988032e-38
0.92848194 -0.50064421 2.3791215 1.5988032e-38
-0.088642932 -0.47109339 2.3772306 1.5988032e-38
-0.061158955 -0.45915329 2.3840005 1.5988032e-38
-0.028275184 -0.45494902 2.3919992 1.5988032e-38
0.9101367 -0.45808917 2.3828568 1.5988032e-38
0.9230718 -0.46527827 2.3759999 1.5988032e-38
-0.055958945 -0.42696249 2.3768885 1.5988032e-38
-0.021584274 -0.41969636 2.3832257 1.5988032e-38
0.0037968259 -0.40853843 2.3920002 1.5988032e-38
0.89801085 -0.42003584 2.3835788 1.5988032e-38
-0.013540342 -0.38169867 2.380425 1.5988032e-38
0.016436605 -0.37606865 2.3906078 1.5988032e-38
0.043283813 -0.36677337 2.3920002 1.5988032e-38
0.87327337 -0.37321624 2.3840003 1.5988032e-38
0.89178675 -0.38253787 2.3790634 1.5988032e-38
-0.010937145 -0.35262856 2.3759999 1.5988032e-38
0.020818537 -0.34148937 2.3822713 1.5988032e-38
0.048254203 -0.33363736 2.3919997 1.5988032e-38
0.87379849 -0.34152922 2.3839996 1.5988032e-38
0.88768673 -0.34346947 2.3759999 1.5988032e-38
0.022436792 -0.30049628 2.3764584 1.5988032e-38
0.056874655 -0.29792094 2.3879313 1.5988032e-38
0.084289528 -0.2915962 2.3920002 1.5988032e-38
0.8670963 -0.29617742 2.381454 1.5988032e-38
0.88354295 -0.30960003 2.3759999 1.5988032e-38
0.027935423 -0.26974875 2.3782856 1.5988032e-38
0.062358182 -0.26091099 2.3860919 1.5988032e-38
0.093037412 -0.25377986 2.3919995 1.5988032e-38
0.85549861 -0.25753596 2.3868229 1.5988032e-38
0.070930801 -0.22615072 2.3837571 1.5988032e-38
0.099712223 -0.22001167 2.3869712 1.5988032e-38
0.12529525 -0.21459658 2.392 1.5988032e-38
0.83570546 -0.2121651 2.386667 1.5988032e-38
0.84794354 -0.22549655 2.3839993 1.5988032e-38
0.99130553 -0.20905322 2.3759999 1.5988032e-38
1.0024458 -0.21497144 2.3760002 1.5988032e-38
0.10797715 -0.18779716 2.3774996 1.5988032e-38
0.14033116 -0.18010066 2.3805709 1.5988032e-38
0.16174477 -0.16781971 2.3920002 1.5988032e-38
0.83725721 -0.19686858 2.3760002 1.5988032e-38
0.15613717 -0.14482287 2.3760004 1.5988032e-38
0.16924137 -0.13543771 2.3861327 1.5988032e-38
0.17870285 -0.10139643 2.3825636 1.5988032e-38
0.21616593 -0.087833241 2.392 1.5988032e-38
0.18931331 -0.065939054 2.3769996 1.5988032e-38
0.21756104 -0.061817061 2.383543 1.5988032e-38
0.22721802 -0.02167749 2.3811057 1.5988032e-38
0.25170824 -0.0091100959 2.3896 1.5988032e-38
0.23216915 0.0031679999 2.3760002 1.5988032e-38
0.26087925 0.018640766 2.3784006 1.5988032e-38
0.28202826 0.022629082 2.3920004 1.5988032e-38
0.26876575 0.060068589 2.3759997 1.5988032e-38
0.29794446 0.063750722 2.381052 1.5988032e-38
0.32292002 0.072329529 2.3920002 1.5988032e-38
0.27199548 0.086893708 2.3760002 1.5988032e-38
0.30029282 0.098265044 2.3782854 1.5988032e-38
0.32764369 0.097154073 2.3920002 1.5988032e-38
0.31286806 0.13175215 2.3770666 1.5988032e-38
0.33962479 0.14181449 2.3876071 1.5988032e-38
0.36852574 0.14667431 2.3920002 1.5988032e-38
0.34686369 0.16777472 2.3760004 1.5988032e-38
0.37676841 0.17637369 2.3841944 1.5988032e-38
0.40686783 0.19546059 2.3920002 1.5988032e-38
0.38694802 0.21427275 2.3831105 1.5988032e-38
0.41051403 0.22406234 2.3914473 1.5988032e-38
0.69117415 0.21004041 2.3920002 1.5988032e-38
0.39600003 0.24212573 2.3760002 1.5988032e-38
0.42216158 0.25880608 2.384666 1.5988032e-38
0.44422859 0.27564955 2.3920002 1.5988032e-38
0.4958654 0.26957464 2.3920002 1.5988032e-38
0.43340382 0.2893905 2.381 1.5988032e-38
0.45855087 0.2988013 2.3859992 1.5988032e-38
0.49641779 0.30146798 2.3919992 1.5988032e-38
0.51712769 0.32121146 2.3920002 1.5988032e-38
-0.13679041 -0.6159392 2.4089987 1.5988032e-38
-0.098394468 -0.61361498 2.4097071 1.5988032e-38
-0.069652699 -0.6089651 2.4108891 1.5988032e-38
-0.01212694 -0.60405272 2.4090002 1.5988032e-38
0.020648573 -0.60569161 2.4090002 1.5988032e-38
0.058160685 -0.60526007 2.4138575 1.5988032e-38
0.091795243 -0.60318983 2.4187145 1.5988032e-38
-0.12994002 -0.59067422 2.4090004 1.5988032e-38
-0.097899698 -0.58255994 2.4132481 1.5988032e-38
-0.062872201 -0.58340144 2.4188912 1.5988032e-38
-0.020551767 -0.59581107 2.4174995 1.5988032e-38
0.019203776 -0.5953269 2.4197667 1.5988032e-38
0.057664763 -0.59620166 2.4217501 1.5988032e-38
0.1035529 -0.59219104 2.4210415 1.5988032e-38
0.14210699 -0.57957083 2.4195237 1.5988032e-38
0.18080541 -0.58017337 2.4173684 1.5988032e-38
0.22161385 -0.58517075 2.4204304 1.5988032e-38
0.2603243 -0.58160001 2.4212782 1.5988032e-38
0.30018458 -0.57777023 2.4191084 1.5988032e-38
0.3402302 -0.57372892 2.4207113 1.5988032e-38
0.38038579 -0.57171345 2.4206486 1.5988032e-38
0.42160463 -0.57128918 2.4160004 1.5988032e-38
0.45846084 -0.57000262 2.4161386 1.5988032e-38
0.48963639 -0.56538802 2.4155388 1.5988032e-38
0.54578513 -0.56311971 2.4090002 1.5988032e-38
0.57717681 -0.56373876 2.4090002 1.5988032e-38
0.62124163 -0.56260985 2.4090002 1.5988032e-38
0.65669519 -0.56351185 2.4090004 1.5988032e-38
-0.087359332 -0.54639298 2.4090004 1.5988032e-38
-0.060329832 -0.54045063 2.4133477 1.5988032e-38
-0.02380795 -0.52889812 2.4259996 1.5988032e-38
0.33831972 -0.55484432 2.4260004 1.5988032e-38
0.38469428 -0.55682474 2.4260001 1.5988032e-38
0.41973653 -0.55631131 2.4260004 1.5988032e-38
0.45805192 -0.55451429 2.4260001 1.5988032e-38
0.49935549 -0.55165988 2.4146669 1.5988032e-38
0.54098129 -0.55284154 2.417774 1.5988032e-38
0.58091295 -0.552773 2.4207697 1.5988032e-38
0.61946023 -0.54853749 2.4159539 1.5988032e-38
0.65801316 -0.55177474 2.4196253 1.5988032e-38
0.70177269 -0.53938931 2.41835 1.5988032e-38
0.73951149 -0.54178792 2.4163909 1.5988032e-38
0.78033763 -0.55002069 2.4170277 1.5988032e-38
0.81908387 -0.54042912 2.4157205 1.5988032e-38
0.86107194 -0.54134625 2.4188421 1.5988032e-38
0.89851409 -0.52897114 2.4158008 1.5988032e-38
0.9223029 -0.53456861 2.4090002 1.5988032e-38
-0.054776076 -0.50961828 2.4090002 1.5988032e-38
-0.018375142 -0.50128448 2.4154379 1.5988032e-38
0.0023104763 -0.4990629 2.4260001 1.5988032e-38
0.89723027 -0.50036865 2.4192948 1.5988032e-38
-0.013410277 -0.46599177 2.4134731 1.5988032e-38
0.0064179897 -0.45156971 2.4260004 1.5988032e-38
0.87871146 -0.44738573 2.4090002 1.5988032e-38
0.89554507 -0.46343178 2.4190447 1.5988032e-38
-0.0063748155 -0.43192065 2.4108891 1.5988032e-38
0.020464666 -0.41900092 2.4199791 1.5988032e-38
0.045054287 -0.42859331 2.4260001 1.5988032e-38
0.87871152 -0.41434804 2.4090002 1.5988032e-38
0.88590598 -0.42183068 2.4158001 1.5988032e-38
0.028409829 -0.38994122 2.4124002 1.5988032e-38
0.05392614 -0.37599367 2.4203331 1.5988032e-38
0.87412184 -0.37911135 2.4140999 1.5988032e-38
0.88788861 -0.39691144 2.4090002 1.5988032e-38
0.064400695 -0.34183857 2.4145248 1.5988032e-38
0.094682299 -0.32751232 2.4245839 1.5988032e-38
0.87247926 -0.33857939 2.4207242 1.5988032e-38
0.074460007 -0.30388862 2.4090004 1.5988032e-38
0.099094145 -0.29853675 2.4189372 1.5988032e-38
0.12861651 -0.29266033 2.4259999 1.5988032e-38
0.85811353 -0.30199581 2.4162853 1.5988032e-38
0.10547055 -0.26486534 2.4122374 1.5988032e-38
0.14076197 -0.26073638 2.4226406 1.5988032e-38
0.16404381 -0.25778314 2.4260004 1.5988032e-38
0.83622676 -0.24870086 2.4203336 1.5988032e-38
0.8501808 -0.26462954 2.4175003 1.5988032e-38
0.14557663 -0.22233611 2.4142301 1.5988032e-38
0.17262562 -0.21553445 2.4260004 1.5988032e-38
0.83580744 -0.2265348 2.4200001 1.5988032e-38
0.84273672 -0.21571663 2.4184449 1.5988032e-38
0.1569947 -0.19239226 2.4090002 1.5988032e-38
0.18056627 -0.18086122 2.4235322 1.5988032e-38
0.20671967 -0.17328572 2.4260001 1.5988032e-38
0.79711431 -0.19176954 2.4260001 1.5988032e-38
0.80481589 -0.19485018 2.4260001 1.5988032e-38
0.84200293 -0.19960286 2.4090002 1.5988032e-38
0.18684833 -0.14385365 2.4145241 1.5988032e-38
0.21611653 -0.13768601 2.4246063 1.5988032e-38
0.24260001 -0.1363181 2.4260001 1.5988032e-38
0.78267384 -0.14613762 2.4260004 1.5988032e-38
0.1939346 -0.10864118 2.4090002 1.5988032e-38
0.22174661 -0.10607152 2.4141729 1.5988032e-38
0.24761932 -0.09317755 2.4236817 1.5988032e-38
0.23401716 -0.043591432 2.4090002 1.5988032e-38
0.25595501 -0.057661422 2.4218304 1.5988032e-38
0.30201229 -0.047859866 2.4260004 1.5988032e-38
0.26455411 -0.025417758 2.4168704 1.5988032e-38
0.3017641 -0.015594095 2.4251506 1.5988032e-38
0.32613263 -0.0090641771 2.4260006 1.5988032e-38
0.30394378 0.020899065 2.41366 1.5988032e-38
0.33344772 0.021932764 2.4223831 1.5988032e-38
0.30690488 0.046415176 2.4090004 1.5988032e-38
0.34221575 0.059035957 2.4188423 1.5988032e-38
0.37122476 0.060106825 2.4250815 1.5988032e-38
0.34333539 0.099650636 2.4102819 1.5988032e-38
0.37766409 0.10128216 2.4223933 1.5988032e-38
0.40433335 0.10859239 2.4260001 1.5988032e-38
0.34460172 0.12526803 2.4090002 1.5988032e-38
0.38189596 0.13773426 2.4111574 1.5988032e-38
0.41881287 0.14568673 2.4225373 1.5988032e-38
0.44130099 0.14864063 2.4260001 1.5988032e-38
0.3946172 0.18026532 2.4090002 1.5988032e-38
0.41941002 0.1807037 2.4189377 1.5988032e-38
0.4521932 0.18813881 2.4259999 1.5988032e-38
0.48288953 0.19639048 2.4260001 1.5988032e-38
0.69425082 0.19547315 2.4090002 1.5988032e-38
0.39461714 0.20419145 2.4090002 1.5988032e-38
0.42648235 0.21820913 2.4094038 1.5988032e-38
0.46030751 0.21881098 2.4206433 1.5988032e-38
0.49594307 0.2271017 2.4215474 1.5988032e-38
0.52447814 0.22873715 2.4260001 1.5988032e-38
0.69005191 0.2189412 2.4197035 1.5988032e-38
0.43209052 0.24395907 2.4090004 1.5988032e-38
0.46144304 0.25931492 2.4108112 1.5988032e-38
0.50076735 0.25700057 2.4160149 1.5988032e-38
0.53135318 0.27359453 2.4217501 1.5988032e-38
0.69083238 0.24260001 2.4260001 1.5988032e-38
0.46604598 0.28617397 2.4090002 1.5988032e-38
0.50084269 0.29848659 2.4089992 1.5988032e-38
0.53593457 0.30193433 2.4176486 1.5988032e-38
0.56699091 0.31468686 2.4260004 1.5988032e-38
0.5369544 0.32450429 2.4127781 1.5988032e-38
0.56606674 0.32511702 2.4260004 1.5988032e-38
-0.048648495 -0.57553279 2.4430006 1.5988032e-38
-0.021030385 -0.57801902 2.4480274 1.5988032e-38
0.021924572 -0.57869089 2.4540136 1.5988032e-38
0.061778922 -0.57789779 2.4544232 1.5988032e-38
0.098192833 -0.57758862 2.4574778 1.5988032e-38
0.13915928 -0.56742471 2.4477243 1.5988032e-38
0.17830688 -0.56403702 2.4473007 1.5988032e-38
0.21923904 -0.56785256 2.4460297 1.5988032e-38
0.26084864 -0.56655574 2.4547098 1.5988032e-38
0.29770362 -0.5669626 2.4448218 1.5988032e-38
0.33986309 -0.56419063 2.4456158 1.5988032e-38
0.38110802 -0.56072664 2.4430001 1.5988032e-38
-0.045137335 -0.55048937 2.4430001 1.5988032e-38
-0.019205123 -0.54825509 2.4459755 1.5988032e-38
0.01958932 -0.54274273 2.4621294 1.5988032e-38
0.051390111 -0.54532397 2.476124 1.5988032e-38
0.11001772 -0.55634111 2.4689999 1.5988032e-38
0.13866487 -0.55422026 2.4675479 1.5988032e-38
0.17997465 -0.55763131 2.47224 1.5988032e-38
0.22153638 -0.558231 2.4722729 1.5988032e-38
0.26304907 -0.55790246 2.4735003 1.5988032e-38
0.3051818 -0.55212408 2.4688568 1.5988032e-38
0.33952683 -0.54603761 2.4717996 1.5988032e-38
0.37861991 -0.54533362 2.463984 1.5988032e-38
0.42035329 -0.54349202 2.4630706 1.5988032e-38
0.45933989 -0.54227072 2.4644084 1.5988032e-38
0.49916553 -0.5370481 2.4565909 1.5988032e-38
0.54050136 -0.53504574 2.4561398 1.5988032e-38
0.57979894 -0.53416401 2.4579084 1.5988032e-38
0.61981982 -0.53058577 2.4584739 1.5988032e-38
0.66192734 -0.53355992 2.460192 1.5988032e-38
0.69630426 -0.52932453 2.4566457 1.5988032e-38
0.73859674 -0.5278604 2.4444788 1.5988032e-38
0.78001755 -0.53369439 2.4442835 1.5988032e-38
0.8205111 -0.52943712 2.4430006 1.5988032e-38
0.85940176 -0.52935976 2.4430006 1.5988032e-38
0.88778961 -0.5294829 2.4430001 1.5988032e-38
0.021834956 -0.49915496 2.4513896 1.5988032e-38
0.058565814 -0.49718466 2.4698172 1.5988032e-38
0.086271115 -0.48904452 2.4780004 1.5988032e-38
0.50994802 -0.5131613 2.472316 1.5988032e-38
0.53602713 -0.51097041 2.4746246 1.5988032e-38
0.58160955 -0.51355737 2.4762862 1.5988032e-38
0.62405431 -0.51522082 2.4767148 1.5988032e-38
0.66042751 -0.51336217 2.4780004 1.5988032e-38
0.701343 -0.51118845 2.4692426 1.5988032e-38
0.74070692 -0.51259953 2.4610972 1.5988032e-38
0.78027838 -0.51302099 2.4635711 1.5988032e-38
0.81892401 -0.51027328 2.4605999 1.5988032e-38
0.86320406 -0.5040772 2.4586399 1.5988032e-38
0.88739407 -0.50154424 2.4515417 1.5988032e-38
0.022060089 -0.46089482 2.4447286 1.5988032e-38
0.061498672 -0.45973498 2.4569833 1.5988032e-38
0.091535255 -0.45977402 2.4749994 1.5988032e-38
0.12036 -0.44604003 2.4780002 1.5988032e-38
0.86845291 -0.45805421 2.4644899 1.5988032e-38
0.88233411 -0.46206903 2.449182 1.5988032e-38
0.031487562 -0.43074358 2.4430003 1.5988032e-38
0.061430696 -0.42052132 2.4468381 1.5988032e-38
0.098398089 -0.41860729 2.4621804 1.5988032e-38
0.13118824 -0.41522121 2.4779994 1.5988032e-38
0.86359006 -0.41929144 2.4595649 1.5988032e-38
0.88195181 -0.42282543 2.4447002 1.5988032e-38
0.068869323 -0.38483065 2.4430006 1.5988032e-38
0.099726886 -0.37903109 2.4494858 1.5988032e-38
0.14054428 -0.38013989 2.4670799 1.5988032e-38
0.16441335 -0.36737335 2.4780004 1.5988032e-38
0.8319599 -0.37605903 2.4742939 1.5988032e-38
0.85933554 -0.37997615 2.4553173 1.5988032e-38
0.88180673 -0.39320669 2.4430003 1.5988032e-38
0.076779999 -0.35132667 2.4430001 1.5988032e-38
0.10108609 -0.34199631 2.4455497 1.5988032e-38
0.14086758 -0.34005991 2.4546907 1.5988032e-38
0.17445445 -0.33312911 2.4774373 1.5988032e-38
0.82952976 -0.33972883 2.4687896 1.5988032e-38
0.85540462 -0.34097517 2.4512575 1.5988032e-38
0.10563067 -0.31689203 2.4430001 1.5988032e-38
0.14328671 -0.30475661 2.4470718 1.5988032e-38
0.17832905 -0.30078131 2.4652991 1.5988032e-38
0.82652301 -0.29856476 2.4625962 1.5988032e-38
0.8472811 -0.30368099 2.4460363 1.5988032e-38
0.18276148 -0.26004747 2.4483702 1.5988032e-38
0.21058013 -0.25718838 2.4740002 1.5988032e-38
0.79432654 -0.25032249 2.4728575 1.5988032e-38
0.82081431 -0.26012462 2.4586253 1.5988032e-38
0.84657437 -0.2708905 2.4430001 1.5988032e-38
0.18912481 -0.2250219 2.4430006 1.5988032e-38
0.21917376 -0.2190126 2.4573998 1.5988032e-38
0.24720819 -0.21252412 2.4754291 1.5988032e-38
0.79031193 -0.21834876 2.4637773 1.5988032e-38
0.82233202 -0.22031686 2.4539866 1.5988032e-38
0.84457999 -0.20474666 2.4430001 1.5988032e-38
0.22376494 -0.18214953 2.4482312 1.5988032e-38
0.25876075 -0.17858839 2.4674916 1.5988032e-38
0.28338155 -0.18026771 2.4780004 1.5988032e-38
0.75756001 -0.16756003 2.4780002 1.5988032e-38
0.78465116 -0.17980739 2.4594862 1.5988032e-38
0.81946659 -0.18462147 2.4557168 1.5988032e-38
0.84457999 -0.19776668 2.4430001 1.5988032e-38
0.23333144 -0.14990382 2.4430003 1.5988032e-38
0.25974938 -0.13971175 2.4483681 1.5988032e-38
0.29909068 -0.13813868 2.4779999 1.5988032e-38
0.32776237 -0.13146588 2.4780004 1.5988032e-38
0.75708801 -0.13829599 2.4780004 1.5988032e-38
0.77366984 -0.13938025 2.4579699 1.5988032e-38
0.26580828 -0.10289779 2.4464004 1.5988032e-38
0.3008543 -0.096170887 2.4664438 1.5988032e-38
0.33068609 -0.098277755 2.4763634 1.5988032e-38
0.75151396 -0.09203162 2.4725006 1.5988032e-38
0.7701664 -0.10429016 2.4608328 1.5988032e-38
0.27299556 -0.069412231 2.4430003 1.5988032e-38
0.29956156 -0.061734144 2.4443705 1.5988032e-38
0.33930352 -0.060557112 2.4673083 1.5988032e-38
0.36622912 -0.045269098 2.4780006 1.5988032e-38
0.71980011 -0.044840004 2.4780002 1.5988032e-38
0.74381995 -0.059785038 2.4651475 1.5988032e-38
0.76611423 -0.070285715 2.46 1.5988032e-38
0.30057624 -0.027483754 2.4430006 1.5988032e-38
0.34194314 -0.022700204 2.4517169 1.5988032e-38
0.3774606 -0.017455585 2.4750531 1.5988032e-38
0.40733606 -0.0042480002 2.4780004 1.5988032e-38
0.71927559 -0.020191113 2.4780004 1.5988032e-38
0.72983074 -0.022976326 2.4598632 1.5988032e-38
0.35179195 0.015821336 2.4430006 1.5988032e-38
0.38013792 0.02109951 2.4637649 1.5988032e-38
0.41488802 0.020715559 2.477999 1.5988032e-38
0.71116632 0.02333324 2.4696577 1.5988032e-38
0.72536409 0.0070310207 2.4625714 1.5988032e-38
0.38863522 0.059640378 2.4464004 1.5988032e-38
0.4187524 0.058798082 2.4699993 1.5988032e-38
0.44840002 0.058999997 2.4779994 1.5988032e-38
0.70821023 0.058927193 2.4713013 1.5988032e-38
0.392625 0.085505016 2.4430001 1.5988032e-38
0.42051777 0.0989739 2.4537747 1.5988032e-38
0.45849976 0.10107041 2.4722021 1.5988032e-38
0.5076248 0.10440192 2.4780004 1.5988032e-38
0.52156007 0.11092001 2.4780002 1.5988032e-38
0.7015565 0.10165739 2.4640903 1.5988032e-38
0.42671832 0.12724033 2.4590001 1.5988032e-38
0.4616085 0.13747093 2.4674685 1.5988032e-38
0.50287789 0.14313442 2.4759989 1.5988032e-38
0.53431404 0.14406042 2.4779987 1.5988032e-38
0.56404006 0.15812001 2.4780002 1.5988032e-38
0.67732 0.1534 2.4780002 1.5988032e-38
0.69804388 0.14148015 2.4636972 1.5988032e-38
0.43974 0.16984667 2.4430001 1.5988032e-38
0.46366352 0.17355201 2.447053 1.5988032e-38
0.50035071 0.18027923 2.465873 1.5988032e-38
0.54059261 0.17947236 2.4747031 1.5988032e-38
0.56655741 0.17983204 2.4780004 1.5988032e-38
0.67441547 0.1835354 2.4780004 1.5988032e-38
0.69356662 0.17883199 2.4572759 1.5988032e-38
0.50693452 0.21242565 2.4566998 1.5988032e-38
0.54218 0.21959238 2.460392 1.5988032e-38
0.5794971 0.22029585 2.4727228 1.5988032e-38
0.60776216 0.22892003 2.4780004 1.5988032e-38
0.66754818 0.22337545 2.4743254 1.5988032e-38
0.68497449 0.21816933 2.4595354 1.5988032e-38
0.54578066 0.25784859 2.4493752 1.5988032e-38
0.57963383 0.26046258 2.4640002 1.5988032e-38
0.61586165 0.26304162 2.4779987 1.5988032e-38
0.66456068 0.26004341 2.4742243 1.5988032e-38
0.68673909 0.2582826 2.4561608 1.5988032e-38
0.55540866 0.29681623 2.4430001 1.5988032e-38
0.58106887 0.30045739 2.4520288 1.5988032e-38
0.62112081 0.29819891 2.4693966 1.5988032e-38
0.6593461 0.29976806 2.4769602 1.5988032e-38
0.68434954 0.28600097 2.4750004 1.5988032e-38
0.5537467 0.33038667 2.4430001 1.5988032e-38
0.58417451 0.32879359 2.4447899 1.5988032e-38
0.62293833 0.33114499 2.4591701 1.5988032e-38
0.6483857 0.32507139 2.46 1.5988032e-38
0.078445718 -0.56338286 2.4960001 1.5988032e-38
0.10046285 -0.56323773 2.4996002 1.5988032e-38
0.25910857 -0.56338286 2.4960001 1.5988032e-38
0.070154741 -0.53899872 2.497946 1.5988032e-38
0.099806964 -0.54148 2.5082622 1.5988032e-38
0.1389363 -0.53866476 2.5040007 1.5988032e-38
0.18071927 -0.54034203 2.5060334 1.5988032e-38
0.21868579 -0.54048109 2.5045855 1.5988032e-38
0.25997236 -0.54390687 2.5051484 1.5988032e-38
0.29693231 -0.53943533 2.5023017 1.5988032e-38
0.34140179 -0.52652335 2.4984825 1.5988032e-38
0.38095915 -0.5264051 2.4959993 1.5988032e-38
0.41847223 -0.52534866 2.4959993 1.5988032e-38
0.46259198 -0.52610922 2.4959993 1.5988032e-38
0.49016687 -0.52344692 2.4960001 1.5988032e-38
0.075049803 -0.51176494 2.4960001 1.5988032e-38
0.10363882 -0.50322032 2.5082269 1.5988032e-38
0.13601387 -0.49801156 2.5140004 1.5988032e-38
0.16720097 -0.4908286 2.5140002 1.5988032e-38
0.21309145 -0.51956004 2.5140002 1.5988032e-38
0.34451115 -0.51849592 2.5140002 1.5988032e-38
0.38116756 -0.5129357 2.5110967 1.5988032e-38
0.41902268 -0.51246494 2.5063846 1.5988032e-38
0.459555 -0.51524633 2.506 1.5988032e-38
0.50021088 -0.50782132 2.5078125 1.5988032e-38
0.54350793 -0.50135064 2.5022304 1.5988032e-38
0.57751542 -0.50423318 2.5047095 1.5988032e-38
0.61895096 -0.50870162 2.5045002 1.5988032e-38
0.65959436 -0.50524682 2.5010393 1.5988032e-38
0.70003855 -0.4994165 2.5038753 1.5988032e-38
0.74021024 -0.49733645 2.5070207 1.5988032e-38
0.78157306 -0.49410415 2.506001 1.5988032e-38
0.81888407 -0.49169767 2.5074549 1.5988032e-38
0.8550244 -0.49253348 2.5092003 1.5988032e-38
0.10931938 -0.46260026 2.501333 1.5988032e-38
0.1384216 -0.46108726 2.5005772 1.5988032e-38
0.16811308 -0.45816374 2.5140004 1.5988032e-38
0.7791006 -0.47550517 2.5140002 1.5988032e-38
0.8262462 -0.46470913 2.5140002 1.5988032e-38
0.85225528 -0.4611237 2.5087502 1.5988032e-38
0.11014096 -0.43818671 2.4960001 1.5988032e-38
0.14866282 -0.42660576 2.4960003 1.5988032e-38
0.17995639 -0.41950786 2.5088143 1.5988032e-38
0.20862213 -0.41293457 2.5140004 1.5988032e-38
0.8291223 -0.41856518 2.5133793 1.5988032e-38
0.84840965 -0.42232636 2.508316 1.5988032e-38
0.18303847 -0.38215345 2.5033226 1.5988032e-38
0.21052617 -0.37710005 2.5140004 1.5988032e-38
0.81867236 -0.38117057 2.5090594 1.5988032e-38
0.84039432 -0.39505717 2.5140002 1.5988032e-38
0.18523297 -0.34875563 2.4965804 1.5988032e-38
0.21977736 -0.33920878 2.5080953 1.5988032e-38
0.24740954 -0.33253968 2.5140002 1.5988032e-38
0.81591213 -0.33951563 2.5098464 1.5988032e-38
0.19730285 -0.29833144 2.4960001 1.5988032e-38
0.21877614 -0.2996265 2.4968448 1.5988032e-38
0.25651711 -0.29942733 2.5125258 1.5988032e-38
0.28013146 -0.30407429 2.5140002 1.5988032e-38
0.78815025 -0.2922526 2.5111198 1.5988032e-38
0.80862993 -0.30032223 2.5021465 1.5988032e-38
0.22770149 -0.2627103 2.4960001 1.5988032e-38
0.2568821 -0.25795439 2.5014558 1.5988032e-38
0.28952441 -0.2510317 2.5140004 1.5988032e-38
0.78249276 -0.25854412 2.5051591 1.5988032e-38
0.80449313 -0.27405065 2.4960001 1.5988032e-38
0.26387078 -0.22061107 2.4980462 1.5988032e-38
0.29916567 -0.21975863 2.511786 1.5988032e-38
0.33010522 -0.21570876 2.5059309 1.5988032e-38
0.77753997 -0.22139324 2.5100873 1.5988032e-38
0.26861715 -0.19730285 2.4960001 1.5988032e-38
0.30492789 -0.18106522 2.5028403 1.5988032e-38
0.33404821 -0.17785703 2.5048006 1.5988032e-38
0.36153716 -0.16041715 2.5140002 1.5988032e-38
0.7521863 -0.17530932 2.5106845 1.5988032e-38
0.76994687 -0.18498732 2.5006666 1.5988032e-38
0.83122289 -0.16957717 2.5080004 1.5988032e-38
0.84039432 -0.16760001 2.5140002 1.5988032e-38
0.30253109 -0.14046267 2.4960005 1.5988032e-38
0.34441143 -0.14171426 2.4960008 1.5988032e-38
0.37246737 -0.13710913 2.5089374 1.5988032e-38
0.74716711 -0.13818675 2.5041513 1.5988032e-38
0.76781714 -0.15926857 2.4960001 1.5988032e-38
0.30332342 -0.11362743 2.4960001 1.5988032e-38
0.35189381 -0.10068353 2.4959996 1.5988032e-38
0.3794072 -0.098163128 2.5025463 1.5988032e-38
0.41152745 -0.094991423 2.5122001 1.5988032e-38
0.73985702 -0.10179189 2.5068004 1.5988032e-38
0.35894856 -0.07131429 2.4960001 1.5988032e-38
0.3824082 -0.061922625 2.4960008 1.5988032e-38
0.41144648 -0.056570809 2.5057299 1.5988032e-38
0.71365273 -0.051730994 2.5126157 1.5988032e-38
0.72830403 -0.063377306 2.5055001 1.5988032e-38
0.39460573 -0.02912 2.4960001 1.5988032e-38
0.42045414 -0.019839142 2.5021138 1.5988032e-38
0.44821033 -0.0090982867 2.5140002 1.5988032e-38
0.71225655 -0.019062145 2.5012496 1.5988032e-38
0.72027439 -0.017319186 2.4960001 1.5988032e-38
0.43551761 0.014638194 2.4959996 1.5988032e-38
0.45563352 0.022353517 2.5032976 1.5988032e-38
0.51716578 0.035914287 2.5140002 1.5988032e-38
0.70468652 0.017827274 2.5082726 1.5988032e-38
0.72027433 0.0047542858 2.4960001 1.5988032e-38
0.47067431 0.059428565 2.4960001 1.5988032e-38
0.50036836 0.060337301 2.5030451 1.5988032e-38
0.52833909 0.071030483 2.5140002 1.5988032e-38
0.69782752 0.061143573 2.5061247 1.5988032e-38
0.47495317 0.08795429 2.4960001 1.5988032e-38
0.49752679 0.097274035 2.4968185 1.5988032e-38
0.53511286 0.10046908 2.5049999 1.5988032e-38
0.56265718 0.11732001 2.5140002 1.5988032e-38
0.69397414 0.09785334 2.5059998 1.5988032e-38
0.49657264 0.12974194 2.4959996 1.5988032e-38
0.55009532 0.13194413 2.4984543 1.5988032e-38
0.57187241 0.14103802 2.5078125 1.5988032e-38
0.67246896 0.1516868 2.5083752 1.5988032e-38
0.68677241 0.13391395 2.5009999 1.5988032e-38
0.58618969 0.18216915 2.5011427 1.5988032e-38
0.61479437 0.18612684 2.5065367 1.5988032e-38
0.67127979 0.17983188 2.5022304 1.5988032e-38
0.59072006 0.20324571 2.4960001 1.5988032e-38
0.62306744 0.21631782 2.5021367 1.5988032e-38
0.65521336 0.21901827 2.5041287 1.5988032e-38
0.63242334 0.2520805 2.4959993 1.5988032e-38
0.64951932 0.25379494 2.4959998 1.5988032e-38
0.66322291 0.29278481 2.4960003 1.5988032e-38
0.148544 -0.52617377 2.5319998 1.5988032e-38
0.17819045 -0.52543992 2.5342355 1.5988032e-38
0.22810048 -0.52462244 2.5415003 1.5988032e-38
0.25808579 -0.52643299 2.5424831 1.5988032e-38
0.30192095 -0.52463406 2.5419521 1.5988032e-38
0.32313144 -0.52328002 2.5320001 1.5988032e-38
0.15016623 -0.51363432 2.5319998 1.5988032e-38
0.18164128 -0.50351226 2.538811 1.5988032e-38
0.21512517 -0.51068676 2.5472002 1.5988032e-38
0.24214254 -0.51586896 2.5510001 1.5988032e-38
0.29980323 -0.5174886 2.5510004 1.5988032e-38
0.34147137 -0.50795949 2.543633 1.5988032e-38
0.37841773 -0.49986067 2.5455718 1.5988032e-38
0.42007801 -0.50119859 2.5430837 1.5988032e-38
0.46059895 -0.50474674 2.5436597 1.5988032e-38
0.50071478 -0.49633312 2.5428576 1.5988032e-38
0.54071027 -0.49023759 2.5391898 1.5988032e-38
0.57944858 -0.48930472 2.5375884 1.5988032e-38
0.62089491 -0.49205065 2.5383332 1.5988032e-38
0.66119182 -0.49276596 2.5354104 1.5988032e-38
0.69717628 -0.4903681 2.5391891 1.5988032e-38
0.73870087 -0.4867067 2.5319998 1.5988032e-38
0.77117485 -0.48759088 2.5320001 1.5988032e-38
0.18677653 -0.46373808 2.5385313 1.5988032e-38
0.21716513 -0.45441473 2.5498488 1.5988032e-38
0.51652503 -0.47528642 2.5462501 1.5988032e-38
0.53891259 -0.47419882 2.5509999 1.5988032e-38
0.5764913 -0.47398853 2.5509999 1.5988032e-38
0.62282819 -0.47345489 2.5503213 1.5988032e-38
0.6622088 -0.47083861 2.5494599 1.5988032e-38
0.69741511 -0.47259182 2.5495925 1.5988032e-38
0.74197817 -0.47367844 2.538676 1.5988032e-38
0.78160715 -0.466479 2.5379372 1.5988032e-38
0.81759858 -0.45996627 2.5338621 1.5988032e-38
0.84351778 -0.46058282 2.5320001 1.5988032e-38
0.19532572 -0.4364686 2.5320001 1.5988032e-38
0.2230496 -0.42246845 2.5425003 1.5988032e-38
0.25510001 -0.40087143 2.5510001 1.5988032e-38
0.78904969 -0.40697733 2.5459998 1.5988032e-38
0.81509674 -0.42147988 2.5364997 1.5988032e-38
0.22605357 -0.38283157 2.5362906 1.5988032e-38
0.25623792 -0.38020799 2.5502093 1.5988032e-38
0.78886694 -0.38081494 2.5416939 1.5988032e-38
0.80622101 -0.38261336 2.5320003 1.5988032e-38
0.26364273 -0.34169012 2.5381472 1.5988032e-38
0.28887811 -0.32771832 2.5488892 1.5988032e-38
0.78506821 -0.33869112 2.5404441 1.5988032e-38
0.80448961 -0.34372136 2.5319998 1.5988032e-38
0.27731431 -0.29867268 2.5320001 1.5988032e-38
0.29105657 -0.29962373 2.5418067 1.5988032e-38
0.33675897 -0.29491717 2.5510004 1.5988032e-38
0.75959998 -0.28213716 2.5320001 1.5988032e-38
0.77867043 -0.30168599 2.5404449 1.5988032e-38
0.30385885 -0.26558223 2.5403821 1.5988032e-38
0.3399792 -0.26119772 2.5483689 1.5988032e-38
0.36807287 -0.25368276 2.5509996 1.5988032e-38
0.75257403 -0.25601572 2.5430324 1.5988032e-38
0.76732987 -0.26449105 2.5365605 1.5988032e-38
0.31348574 -0.23632 2.5320001 1.5988032e-38
0.34778497 -0.22206594 2.5352759 1.5988032e-38
0.37464204 -0.21705987 2.549788 1.5988032e-38
0.75046808 -0.21738708 2.5398476 1.5988032e-38
0.76648992 -0.21978451 2.5320001 1.5988032e-38
0.35275754 -0.18361308 2.5320001 1.5988032e-38
0.37897679 -0.17988721 2.5472679 1.5988032e-38
0.40492067 -0.17047159 2.5510006 1.5988032e-38
0.73421347 -0.18044609 2.5408206 1.5988032e-38
0.39067978 -0.14182469 2.5330005 1.5988032e-38
0.4137938 -0.13760944 2.5505257 1.5988032e-38
0.72934818 -0.14116904 2.5403953 1.5988032e-38
0.39547428 -0.11333715 2.5320001 1.5988032e-38
0.42546064 -0.10437004 2.5393083 1.5988032e-38
0.45445591 -0.094076544 2.5510004 1.5988032e-38
