# .PCD v0.7 - Point Cloud Data file format
VERSION 0.7
FIELDS x y z rgb
SIZE 4 4 4 4
TYPE F F F F
COUNT 1 1 1 1
WIDTH 255
HEIGHT 1
VIEWPOINT 0 0 0 1 0 0 0
POINTS 255
DATA ascii
0.01581613 -0.044562034 0.54957569 9.9705132e-39
0.024732286 -0.02194972 0.53594035 8.7705267e-39
0.041135177 -0.013873804 0.53246003 2.1385789e-38
0.029296765 0.0077775535 0.52788466 1.1439869e-38
-0.055304516 -0.08569821 0.59900028 7.0922224e-39
-0.045241877 -0.047826059 0.59377187 6.6496713e-39
-0.020813635 -0.057810813 0.57233721 7.6587715e-39
0.013572079 -0.063134059 0.59189796 9.1353534e-39
-0.082991667 -0.0024665366 0.59422731 1.4087553e-38
-0.054268859 -0.014948771 0.58613408 9.4882353e-39
-0.019697797 -0.020101512 0.57608598 5.1719993e-39
0.0037484295 -0.019907001 0.57211858 1.190155e-38
-0.085185371 0.015404682 0.59497863 1.1415322e-38
-0.060323529 0.020479843 0.58114123 1.0587719e-38
-0.021152047 0.019332903 0.57840061 1.2525625e-38
0.0030301302 0.0032614723 0.57400006 1.9823125e-38
-0.085655794 0.059707683 0.59319067 1.1969566e-38
-0.05993396 0.059439868 0.58052516 1.2152521e-38
-0.028473295 0.0470425 0.57710814 1.4915515e-38
-0.054905448 0.094274476 0.58903629 1.1324207e-38
-0.033571076 0.095409334 0.59464461 1.7404802e-38
-0.058796342 -0.088394091 0.60253805 9.0352124e-39
-0.019714978 -0.089267045 0.63448918 1.0880933e-38
-0.056217063 -0.063039578 0.60729945 6.8322535e-39
-0.02276252 -0.065242119 0.60692859 1.17143e-38
0.026857143 -0.060000002 0.60000002 2.341769e-38
-0.082155608 -0.014062887 0.61538225 1.6210229e-38
-0.066551998 -0.026456475 0.6056537 1.0404427e-38
-0.091057234 0.028951166 0.60343742 1.1782309e-38
-0.05316833 0.0036793374 0.60404354 4.2395668e-39
-0.095147811 0.051800203 0.60849988 1.4826913e-38
-0.04232588 0.070447288 0.61595654 1.7861798e-38
-0.021813707 0.065928079 0.62589842 1.7311881e-38
-0.051906038 0.11517962 0.60258448 9.0203964e-39
-0.021971198 0.09852948 0.61211586 1.9614971e-38
-0.049864437 0.14096455 0.62060916 8.3761074e-39
-0.030296432 0.13995491 0.62173122 1.5378656e-38
-0.049551923 0.1746994 0.63396895 7.9158495e-39
-0.033286896 0.17355706 0.63363349 1.2430557e-38
-0.092479445 -0.085994177 0.67122316 1.6136425e-38
-0.078748189 -0.083048001 0.66360003 8.0340477e-39
-0.032727938 -0.094932392 0.64033341 2.193824e-38
-0.089440286 -0.065608926 0.66157955 1.7516463e-38
-0.075835213 -0.061667964 0.65039694 7.5687297e-39
-0.0067078103 0.0844348 0.64026678 2.0924804e-38
-0.065537103 0.15476166 0.64596009 1.2246178e-38
-0.020061295 0.15764338 0.64121437 1.8419306e-38
-0.059939977 0.18722965 0.64492404 8.5615819e-39
-0.021783218 0.18470132 0.649167 1.61155e-38
-0.080887794 0.22347085 0.67406249 8.7402096e-39
-0.058385607 0.22081009 0.65361649 7.6399843e-39
-0.022851439 0.22055715 0.65747136 1.3904247e-38
-0.081017621 0.24908511 0.67783332 7.9187362e-39
-0.058297187 0.25867835 0.66421729 7.3630387e-39
-0.023133436 0.25848556 0.66559201 1.1600438e-38
0.1859882 0.26753178 0.66943669 1.0033464e-38
0.21977647 0.26198462 0.66344684 1.2152884e-38
0.25750536 0.26510894 0.668172 1.7592424e-38
0.28579935 0.27433491 0.67483914 2.0820718e-38
-0.053362638 0.28966111 0.67343032 6.4414439e-39
-0.027540421 0.29035613 0.67374068 8.2835559e-39
0.15972666 0.29423335 0.67899996 8.6523328e-39
0.17855576 0.28923249 0.66645676 8.6519712e-39
0.21905243 0.28636795 0.65261847 1.0127101e-38
0.26067829 0.28783968 0.65934503 1.5840707e-38
0.29126242 0.29167849 0.6730392 1.8698771e-38
-0.0068628574 0.19586931 0.68226099 1.0308973e-38
-0.0049793124 0.21437307 0.68710792 1.4361974e-38
0.00066000002 0.23892 0.69300002 1.5466535e-38
0.18928963 0.23429507 0.71199208 1.1876286e-38
0.21995291 0.23169655 0.70559126 1.3442531e-38
0.25694913 0.23266661 0.70746386 1.6852688e-38
0.28516373 0.2368795 0.71597487 1.9618202e-38
-0.083226644 0.26434293 0.68586957 7.7311038e-39
-0.077104896 0.27277201 0.68191671 7.732903e-39
-0.0036731793 0.26366517 0.68721598 1.4640008e-38
0.005471658 0.26447129 0.70162034 1.3626568e-38
0.15024407 0.26763692 0.70588791 1.0862494e-38
0.17555287 0.25342083 0.69500744 1.1230918e-38
0.21842232 0.24336854 0.6859017 1.3350337e-38
0.26374775 0.24689814 0.6892491 1.8051956e-38
0.29780293 0.26001278 0.69825602 2.0819631e-38
0.32577425 0.27499917 0.71453452 2.0728876e-38
-0.083113067 0.29139736 0.69828594 7.4545239e-39
-0.070723169 0.29911372 0.6886 6.9957009e-39
-0.0085466057 0.29639071 0.68803865 1.0033832e-38
0.0068073659 0.29707551 0.7052182 1.0494438e-38
0.1188875 0.31615469 0.71742862 8.1913448e-39
0.14020319 0.29618463 0.69852829 9.1118676e-39
0.16113925 0.28196058 0.68060005 9.7579545e-39
0.31084561 0.29294416 0.68627882 1.971256e-38
0.33750543 0.29933581 0.70355278 1.8514377e-38
0.36086956 0.29992571 0.71900004 1.8515462e-38
0.11761428 0.32070667 0.71800005 7.915474e-39
0.15396346 0.19690044 0.75653034 1.2520221e-38
0.18209614 0.19363478 0.75253206 1.3809878e-38
0.21843012 0.19344129 0.75170356 1.537648e-38
0.2505832 0.19692263 0.75465465 1.7588454e-38
0.034392942 0.23690881 0.75649995 1.0859264e-38
0.063170291 0.23048942 0.75357372 1.178302e-38
0.095055804 0.22720869 0.75332779 1.2428392e-38
0.14671096 0.22253178 0.74553788 1.1415311e-38
0.17807811 0.21758726 0.73416197 1.2520937e-38
0.21983176 0.21154563 0.73244846 1.4455243e-38
0.26005429 0.21364725 0.73666811 1.7588814e-38
0.29796952 0.22624978 0.74158961 1.9894426e-38
0.32757625 0.23441897 0.75330925 2.0355772e-38
0.024249367 0.26108539 0.74848592 9.6621589e-39
0.059665821 0.25996661 0.74416089 9.7557965e-39
0.09760315 0.25928274 0.74904126 8.8352793e-39
0.13562526 0.25796497 0.73663282 9.6646784e-39
0.16315418 0.24279772 0.72188002 1.1599332e-38
0.31131616 0.24651766 0.72771209 2.1002579e-38
0.34103698 0.25987738 0.73998684 1.9897314e-38
0.3682735 0.26627499 0.74940133 1.6486795e-38
0.026993686 0.30031952 0.7336455 7.821133e-39
0.0594243 0.29940471 0.74081504 7.4527064e-39
0.1039561 0.30025685 0.74458903 6.8080586e-39
0.12392297 0.28978282 0.72723049 9.3873741e-39
0.35124442 0.2871787 0.72529805 1.8423622e-38
0.36417627 0.28742525 0.73175263 1.648751e-38
0.025903335 0.32324946 0.72979587 6.8073426e-39
0.059397317 0.32643276 0.7456975 5.4258501e-39
0.098827437 0.32636061 0.74259418 6.7165833e-39
0.39285007 0.0059156828 0.79648906 5.0671737e-39
0.39824003 0.072960004 0.79800004 7.0897014e-39
0.38984218 0.11358313 0.79597998 7.6443213e-39
0.15053533 0.15626526 0.79484624 1.4177224e-38
0.17924932 0.15488766 0.79333723 1.5375761e-38
0.2121923 0.15702233 0.79435283 1.648139e-38
0.39226142 0.12607175 0.79611689 5.8018479e-39
0.037975103 0.19919661 0.79528576 1.3349624e-38
0.064013653 0.19261108 0.78735262 1.3808803e-38
0.10105136 0.1856124 0.78426152 1.3900997e-38
0.14018354 0.17950627 0.77920425 1.2796091e-38
0.17926525 0.17399341 0.77213788 1.4638201e-38
0.22065055 0.17386664 0.77490944 1.6204446e-38
0.25918233 0.18293475 0.77853519 1.7955441e-38
0.29631647 0.19262516 0.78843969 1.8417857e-38
0.32377076 0.19838926 0.79689997 1.9617478e-38
-0.00096523826 0.2340707 0.78578573 1.1414598e-38
0.022269964 0.2231928 0.7768991 1.1781579e-38
0.057609625 0.21163309 0.76757163 1.2611702e-38
0.10370583 0.21134596 0.76519346 1.3073036e-38
0.12877196 0.21630642 0.768264 8.9274763e-39
0.27583605 0.20164636 0.76276475 1.9154343e-38
0.30384055 0.20873648 0.7713291 1.9248335e-38
0.33963931 0.22046511 0.77722865 1.9985906e-38
0.37629515 0.23058009 0.78590351 1.9157946e-38
0.40026906 0.23241383 0.79750001 1.8236345e-38
-0.00072698423 0.24859969 0.76333344 1.233295e-38
0.0091776205 0.24530207 0.76266664 1.0121699e-38
0.11679229 0.26211169 0.76062894 4.8748343e-39
0.12328976 0.24720851 0.76150024 5.5198422e-39
0.35385472 0.24309149 0.76160008 1.9434896e-38
0.37530193 0.24792457 0.76737386 1.8053758e-38
0.099323772 0.30387771 0.76020175 3.3107526e-39
0.075735949 0.34236762 0.77510542 2.0225403e-39
0.085754335 0.33096197 0.76541275 3.5862619e-39
0.39872476 -0.04155048 0.83900005 6.6247548e-39
0.41094193 -0.04909379 0.83448708 3.4072866e-39
0.3861756 -0.014046179 0.8306818 8.1960406e-39
0.40545237 -0.022516571 0.82437027 9.8519564e-39
0.35462788 0.026727831 0.83342999 1.1139455e-38
0.37884006 0.020192724 0.82036394 9.8508802e-39
0.40237567 0.024445571 0.81098866 9.1183682e-39
0.34827387 0.061413113 0.82488346 1.0126744e-38
0.37893713 0.05968022 0.80633831 1.1233097e-38
0.4012641 0.055250634 0.80372238 1.2245807e-38
0.17019716 0.11905811 0.83900005 1.5469039e-38
0.3458195 0.09955702 0.82216138 7.7329002e-39
0.37727404 0.097899742 0.80360651 7.5510341e-39
0.40027782 0.093011118 0.80055565 1.0126748e-38
0.077697553 0.15846789 0.8361429 1.3625492e-38
0.10443 0.15005913 0.82444149 1.3809519e-38
0.14003962 0.14104748 0.81785464 1.4454528e-38
0.17858025 0.13679415 0.8180089 1.5929291e-38
0.21853806 0.14634517 0.81833369 1.6205158e-38
0.25490585 0.15403564 0.82770061 1.5283919e-38
0.2825807 0.15861265 0.83514297 1.3994623e-38
0.35079578 0.13218795 0.82605505 7.0871665e-39
0.37751138 0.13982999 0.8120153 6.2599337e-39
0.40322495 0.14590248 0.80993754 6.6319743e-39
0.034573618 0.19545242 0.81369716 1.3718408e-38
0.062057674 0.17880271 0.81929451 1.399391e-38
0.095838003 0.16683948 0.80869466 1.3808799e-38
0.12402938 0.16147822 0.80157906 1.390064e-38
0.2384762 0.16076191 0.80000001 1.6482112e-38
0.26531172 0.1658626 0.81020212 1.6666496e-38
0.30168071 0.17435899 0.81840456 1.6483187e-38
0.33777899 0.18665048 0.82544225 1.9065026e-38
0.37010223 0.19356838 0.83346319 1.8789162e-38
-0.00076190475 0.22933334 0.80000001 1.2613144e-38
0.01804119 0.21034394 0.80616683 1.2889729e-38
0.34987673 0.20557693 0.80915588 1.9710035e-38
0.38146326 0.21225785 0.81556588 1.8880996e-38
0.40749103 0.21561904 0.82397503 1.7958684e-38
0.35567775 -0.045083571 0.87361366 2.8559051e-39
0.3818363 -0.054835696 0.85747385 3.4079999e-39
0.41061407 -0.063748866 0.84560329 3.7775083e-39
0.35042137 -0.016001394 0.86697918 4.1441258e-39
0.37161681 -0.026526881 0.84895992 4.2366788e-39
0.31726596 0.036723457 0.87637514 1.2334399e-38
0.34147295 0.02032214 0.8590346 9.0221971e-39
0.31793422 0.061371062 0.87536722 1.178338e-38
0.32932332 0.058939029 0.85688716 1.0219296e-38
0.14639954 0.11699345 0.85529655 1.4639278e-38
0.17523341 0.11672767 0.85093325 1.4916231e-38
0.31358916 0.10261326 0.8685832 1.1784448e-38
0.32709622 0.10055771 0.84975559 9.2980553e-39
0.076078571 0.1563319 0.85057145 1.3902077e-38
0.10016532 0.13906853 0.85409802 1.4085747e-38
0.13315755 0.12400698 0.84923345 1.4547443e-38
0.1897673 0.12407347 0.84691972 1.592965e-38
0.21408081 0.13353218 0.84333318 1.5100608e-38
0.26548418 0.1468351 0.86584848 1.325814e-38
0.30222714 0.14149515 0.86011118 1.1968839e-38
0.33484334 0.1424053 0.84724456 1.0217848e-38
0.36577791 0.15764478 0.84476477 1.0307884e-38
0.064016603 0.16717994 0.84692293 1.3718049e-38
0.30710292 0.16087183 0.8439033 1.325778e-38
0.34506038 0.16906042 0.84514117 1.5747425e-38
0.38038889 0.17923938 0.85421818 1.851293e-38
0.41229075 0.19479878 0.86901051 1.749806e-38
0.39706022 0.20153619 0.84225005 1.8972829e-38
0.4201341 0.20391822 0.85506344 1.7406589e-38
0.37700582 -0.085557133 0.90155321 3.6835358e-39
0.34923995 -0.047535181 0.88912058 3.1317745e-39
0.37068585 -0.072668858 0.88871449 3.408367e-39
0.31616157 -0.0042591244 0.89480025 1.0585556e-38
0.33428702 -0.021632481 0.89324069 5.4319794e-39
0.31443086 0.021855472 0.89496517 1.0863227e-38
0.32784948 0.012944345 0.88694841 1.0493003e-38
0.31289756 0.061206441 0.89737582 1.1141971e-38
0.32047206 0.05912035 0.881091 1.1692621e-38
0.30192935 0.10116868 0.89767551 1.1969924e-38
0.22985286 0.13524547 0.90656245 1.3442534e-38
0.26050174 0.13325119 0.89746398 1.3351056e-38
0.28892526 0.12646182 0.89267373 1.2521653e-38
0.4259724 0.19204612 0.89501971 1.7221469e-38
0.44893834 0.19439217 0.90587616 1.5563035e-38
0.44261375 0.20124839 0.88120002 1.6761576e-38
0.3287569 -0.030716406 0.92133343 3.7749832e-39
0.31186047 0.028011246 0.92374611 5.2497489e-39
0.3104358 0.047308464 0.92094117 5.1579162e-39
0.27887592 0.11842572 0.92566675 1.2791794e-38
0.29407924 0.10406633 0.92443013 1.2062845e-38
0.2258288 0.12774593 0.92096561 1.418048e-38
0.25767961 0.12469034 0.92117947 1.2980853e-38
0.28476191 0.12003809 0.92000002 1.2245782e-38
0.4353826 0.1887531 0.92075002 1.6482465e-38
0.44539684 0.18954921 0.92000002 1.5377203e-38
0.073597141 0.20274487 0.81258029 1.289803e-38
0.086824574 0.17868459 0.72364694 1.1604039e-38
0.022269964 0.2231928 0.7768991 1.1781579e-38
