# .PCD v0.7 - Point Cloud Data file format
VERSION 0.7
FIELDS x y z rgb
SIZE 4 4 4 4
TYPE F F F F
COUNT 1 1 1 1
WIDTH 1018
HEIGHT 1
VIEWPOINT 0 0 0 1 0 0 0
POINTS 1018
DATA ascii
-0.5815025 -0.21871367 1.9520367 1.9095543e-38
-0.54543811 -0.21225476 1.9565001 1.9095543e-38
-0.60755056 -0.18583593 1.9306571 1.9095543e-38
-0.58175761 -0.17995749 1.9388224 1.9095543e-38
-0.54458469 -0.17906055 1.9447396 1.9095543e-38
-0.60500002 -0.1595 1.9250001 1.9095543e-38
-0.57516104 -0.15248407 1.9264865 1.9095543e-38
-0.54373664 -0.14166328 1.9294873 1.9095543e-38
-0.53057432 -0.11183775 1.9319476 1.9095543e-38
-0.061059434 0.43283534 1.9481001 1.9095543e-38
-0.93846166 -0.17974688 1.6999749 1.9095543e-38
-0.95397294 -0.59598601 1.9004933 1.9095543e-38
-0.92519397 -0.65343338 1.9427232 1.9095543e-38
-0.57251602 0.29345256 1.7254542 1.9095543e-38
-0.37813139 -0.63823032 1.8928572 1.9095543e-38
-0.75275648 -0.33663565 1.7565464 1.9095543e-38
-0.82567209 0.077133894 1.6545639 1.9095543e-38
-0.70253807 0.10118173 1.6810029 1.9095543e-38
-0.53271806 0.096631192 1.7135249 1.9095543e-38
0.65386087 -0.76401132 1.9735001 1.9095543e-38
0.70283449 -0.76351786 1.9824173 1.9095543e-38
0.73620749 -0.7644242 1.9902227 1.9095543e-38
0.76644576 -0.76075435 1.9920001 1.9095543e-38
0.95609778 -0.76750284 1.9703751 1.9095543e-38
0.96779913 -0.7710427 1.9709412 1.9095543e-38
-0.96865135 -0.74688929 1.9690007 1.9095543e-38
-0.9389655 -0.74335986 1.9713863 1.9095543e-38
-0.90731382 -0.7340126 1.9796457 1.9095543e-38
-0.86807847 -0.74069893 1.9920003 1.9095543e-38
0.63929713 -0.75845146 1.9860001 1.9095543e-38
0.66330111 -0.75208145 1.9842876 1.9095543e-38
0.69563454 -0.75349522 1.9867662 1.9095543e-38
0.73889577 -0.74730283 1.9904783 1.9095543e-38
0.78061813 -0.7522918 1.9805535 1.9095543e-38
0.82223016 -0.73909658 1.9808605 1.9095543e-38
0.86018711 -0.73023576 1.9801742 1.9095543e-38
0.89845771 -0.73018259 1.9838219 1.9095543e-38
0.94194335 -0.7362808 1.982583 1.9095543e-38
0.97923923 -0.74096721 1.9782032 1.9095543e-38
1.0163677 -0.74256897 1.9852412 1.9095543e-38
-0.93386877 -0.70508957 1.9690001 1.9095543e-38
-0.89811838 -0.70047611 1.9803493 1.9095543e-38
-0.86027473 -0.69265836 1.9917808 1.9095543e-38
0.83664006 -0.71901715 1.9920001 1.9095543e-38
0.85771936 -0.71901709 1.9920003 1.9095543e-38
0.89431328 -0.71787882 1.9920005 1.9095543e-38
0.94973683 -0.71479213 1.9895004 1.9095543e-38
0.9804014 -0.71621579 1.9869679 1.9095543e-38
1.0114306 -0.71639621 1.9900002 1.9095543e-38
-0.8881408 -0.67240757 1.9697858 1.9095543e-38
-0.85797197 -0.66189694 1.9748155 1.9095543e-38
-0.8325147 -0.64961171 1.9826001 1.9095543e-38
-0.84760761 -0.63101768 1.9690006 1.9095543e-38
-0.82228059 -0.61824238 1.9763383 1.9095543e-38
-0.79869717 -0.60329151 1.9920001 1.9095543e-38
-0.80941665 -0.58295965 1.9739672 1.9095543e-38
-0.78879684 -0.57282072 1.9869443 1.9095543e-38
-0.75332731 -0.57082456 1.9902862 1.9095543e-38
-0.80072671 -0.55507052 1.9690001 1.9095543e-38
-0.77906698 -0.5406357 1.9777527 1.9095543e-38
-0.74829328 -0.53858095 1.9913445 1.9095543e-38
-0.77247423 -0.50359589 1.9702952 1.9095543e-38
-0.7425617 -0.49908549 1.9800158 1.9095543e-38
-0.71427435 -0.49192911 1.9920005 1.9095543e-38
-0.76384705 -0.46818447 1.9690001 1.9095543e-38
-0.74126059 -0.46876574 1.9733199 1.9095543e-38
-0.70689857 -0.45582101 1.9875489 1.9095543e-38
-0.69712937 -0.42130864 1.9822316 1.9095543e-38
-0.67236978 -0.41056406 1.9920003 1.9095543e-38
-0.68824029 -0.38348269 1.976701 1.9095543e-38
-0.66354746 -0.37671271 1.9891838 1.9095543e-38
-0.63807237 -0.36488384 1.9920001 1.9095543e-38
-0.68258667 -0.35817048 1.9690001 1.9095543e-38
-0.65500253 -0.3447409 1.9762286 1.9095543e-38
-0.62629813 -0.33116674 1.9904344 1.9095543e-38
-0.57979602 -0.3282057 1.9920005 1.9095543e-38
-0.6431399 -0.31053394 1.973125 1.9095543e-38
-0.61733109 -0.3015359 1.9781671 1.9095543e-38
-0.58125085 -0.29681236 1.9911325 1.9095543e-38
-0.55538857 -0.28955147 1.9920005 1.9095543e-38
-0.60936457 -0.27428278 1.9715384 1.9095543e-38
-0.57715851 -0.26185906 1.9781592 1.9095543e-38
-0.54168534 -0.26122999 1.9823027 1.9095543e-38
-0.57165909 -0.23469327 1.9690001 1.9095543e-38
-0.53899729 -0.22135201 1.9703288 1.9095543e-38
-0.50609225 -0.21185081 1.9880228 1.9095543e-38
-0.46588409 -0.20895676 1.9920006 1.9095543e-38
-0.52826542 -0.19261177 1.9763334 1.9095543e-38
-0.49626884 -0.18332474 1.9838463 1.9095543e-38
-0.47294503 -0.18298373 1.988286 1.9095543e-38
-0.48675388 -0.1470319 1.9834999 1.9095543e-38
-0.47600824 -0.15058777 1.9800003 1.9095543e-38
-0.068422861 0.35272461 1.9848 1.9095543e-38
-0.049325719 0.39346749 1.9920005 1.9095543e-38
-0.052429184 0.41943085 1.986087 1.9095543e-38
-0.026920686 0.41903913 1.9879318 1.9095543e-38
0.0034148574 0.42382175 1.9920002 1.9095543e-38
-0.65015346 0.12190598 1.7574145 1.9095543e-38
-0.68103665 -0.16166712 1.867135 1.9095543e-38
-0.63807237 -0.36488384 1.9920001 1.9095543e-38
-0.34750372 -0.48552072 2.0066354 1.9095543e-38
-0.49626884 -0.18332474 1.9838463 1.9095543e-38
-0.19010244 -0.68344378 2.0074975 1.9095543e-38
-0.43159205 -0.57124227 1.9063715 1.9095543e-38
-0.50246453 -0.41830337 1.8583614 1.9095543e-38
-0.24215166 -0.52855736 1.929926 1.9095543e-38
-0.28362554 -0.39652088 1.8956285 1.9095543e-38
-0.65047282 0.2111284 1.7247146 1.9095543e-38
-0.56284666 0.32490855 1.723 1.9095543e-38
-0.73780018 -0.020334542 1.7623121 1.9095543e-38
-0.90357536 -0.090050653 1.6842638 1.9095543e-38
-0.89088023 -0.60612923 1.9452502 1.9095543e-38
-0.8811143 -0.70570296 1.9914631 1.9095543e-38
-0.86130697 -0.77646005 2.0252664 1.9095543e-38
-0.83404803 -0.77708554 2.0389998 1.9095543e-38
-0.13787523 -0.79812282 2.039 1.9095543e-38
-0.056962539 -0.795102 2.039 1.9095543e-38
-0.017731577 -0.79604805 2.0347648 1.9095543e-38
0.015542924 -0.79397088 2.032582 1.9095543e-38
0.065786749 -0.79523432 2.0370004 1.9095543e-38
0.07046853 -0.75078213 2.0214407 1.9095543e-38
0.074968323 -0.70501822 2.0030661 1.9095543e-38
0.12196471 -0.70175946 2.005265 1.9095543e-38
0.22003481 -0.78664321 2.0310903 1.9095543e-38
0.16817071 -0.73622626 2.0071051 1.9095543e-38
0.24347037 -0.75106281 2.0069532 1.9095543e-38
0.31984657 -0.76725411 2.0171332 1.9095543e-38
0.36257425 -0.76151788 2.0130727 1.9095543e-38
0.42058727 -0.7762714 2.0188355 1.9095543e-38
0.45955935 -0.77451098 2.0194035 1.9095543e-38
0.50012779 -0.77074683 2.0172911 1.9095543e-38
0.53964674 -0.76989502 2.017344 1.9095543e-38
0.57899654 -0.77206713 2.0126584 1.9095543e-38
0.62179196 -0.7692917 2.0088818 1.9095543e-38
0.64286762 -0.76495522 2.003 1.9095543e-38
0.71535712 -0.76877046 2.003 1.9095543e-38
0.7519834 -0.76190299 2.003 1.9095543e-38
0.76113999 -0.76113999 2.003 1.9095543e-38
-0.89408135 -0.74193245 2.0029988 1.9095543e-38
-0.85771286 -0.74084628 2.011488 1.9095543e-38
-0.82354975 -0.7317552 2.0348628 1.9095543e-38
-0.77870381 -0.72044665 2.039 1.9095543e-38
0.3451505 -0.75816196 2.036 1.9095543e-38
0.37847856 -0.75787026 2.0365999 1.9095543e-38
0.42743486 -0.75842178 2.0389998 1.9095543e-38
0.46929368 -0.75928485 2.039 1.9095543e-38
0.49462956 -0.75833905 2.0210001 1.9095543e-38
0.55538476 -0.75928479 2.039 1.9095543e-38
0.58062011 -0.75353485 2.0185676 1.9095543e-38
0.6233089 -0.75525612 2.0206604 1.9095543e-38
0.65914309 -0.7391113 2.0216391 1.9095543e-38
0.70399988 -0.73873842 2.0211983 1.9095543e-38
0.73833072 -0.73350525 2.0218079 1.9095543e-38
0.77841455 -0.73481739 2.0173204 1.9095543e-38
0.81759673 -0.72897029 2.0203846 1.9095543e-38
0.85863483 -0.72225142 2.0204549 1.9095543e-38
0.90747678 -0.72079766 2.0210001 1.9095543e-38
0.93456888 -0.72447497 2.0219679 1.9095543e-38
0.99479979 -0.72120547 2.0230002 1.9095543e-38
1.0351262 -0.73322737 2.0046003 1.9095543e-38
1.0486022 -0.72824007 2.0186522 1.9095543e-38
-0.88852656 -0.71090609 2.0029998 1.9095543e-38
-0.85574186 -0.70619452 2.0036092 1.9095543e-38
-0.82065678 -0.69815952 2.0208197 1.9095543e-38
-0.78036284 -0.6925512 2.0382807 1.9095543e-38
-0.75637192 -0.68257952 2.039 1.9095543e-38
0.77770406 -0.71412849 2.0357997 1.9095543e-38
0.82490379 -0.71198601 2.0364738 1.9095543e-38
0.86305362 -0.70857048 2.0269995 1.9095543e-38
0.89912277 -0.70315868 2.0303166 1.9095543e-38
0.93973923 -0.70075905 2.021991 1.9095543e-38
0.97984296 -0.69993109 2.0266466 1.9095543e-38
1.0161235 -0.69950223 2.0224764 1.9095543e-38
1.0504395 -0.70638782 2.0374351 1.9095543e-38
-0.84278613 -0.67415255 2.003 1.9095543e-38
-0.81689608 -0.66074216 2.010905 1.9095543e-38
-0.7802074 -0.65957028 2.0224545 1.9095543e-38
-0.74747711 -0.65671104 2.0380147 1.9095543e-38
0.89804268 -0.67454714 2.0389998 1.9095543e-38
0.97095239 -0.67772478 2.039 1.9095543e-38
1.0175632 -0.67397285 2.0332859 1.9095543e-38
-0.80733526 -0.62955147 2.0067708 1.9095543e-38
-0.7808044 -0.61970001 2.0104117 1.9095543e-38
-0.74077886 -0.61840856 2.0287998 1.9095543e-38
-0.71267903 -0.60703945 2.0389998 1.9095543e-38
-0.80692285 -0.59708476 2.003 1.9095543e-38
-0.77576739 -0.58550495 2.0032022 1.9095543e-38
-0.73826343 -0.58114398 2.0172575 1.9095543e-38
-0.70563281 -0.57706422 2.036535 1.9095543e-38
-0.76762593 -0.55282801 2.003 1.9095543e-38
-0.73215759 -0.54193109 2.0029988 1.9095543e-38
-0.70340699 -0.53913677 2.0227203 1.9095543e-38
-0.72749662 -0.5121091 2.0030003 1.9095543e-38
-0.69783467 -0.50097859 2.0184121 1.9095543e-38
-0.65995282 -0.49797383 2.0375178 1.9095543e-38
-0.63888663 -0.49906951 2.039 1.9095543e-38
-0.69333869 -0.46671569 2.0044391 1.9095543e-38
-0.66021878 -0.45950082 2.0237794 1.9095543e-38
-0.63049257 -0.4494569 2.0390005 1.9095543e-38
-0.68292761 -0.42158383 2.0030003 1.9095543e-38
-0.65868706 -0.42225328 2.0077765 1.9095543e-38
-0.62128437 -0.41766006 2.029422 1.9095543e-38
-0.58387816 -0.41391715 2.037847 1.9095543e-38
-0.65037888 -0.38867742 2.0029993 1.9095543e-38
-0.61914688 -0.38036999 2.0165548 1.9095543e-38
-0.57740688 -0.38029563 2.0334151 1.9095543e-38
-0.5454554 -0.37456775 2.039001 1.9095543e-38
1.0552311 -0.36546648 2.039 1.9095543e-38
-0.64286762 -0.34909427 2.003 1.9095543e-38
-0.61528873 -0.34541506 2.0049722 1.9095543e-38
-0.57747978 -0.34151208 2.0107806 1.9095543e-38
-0.54022628 -0.34044689 2.0300002 1.9095543e-38
-0.51250654 -0.33121124 2.0379417 1.9095543e-38
1.038919 -0.35536858 2.039 1.9095543e-38
1.052124 -0.34384662 2.0390007 1.9095543e-38
-0.58016503 -0.31160545 2.0029995 1.9095543e-38
-0.53752655 -0.30055234 2.0056798 1.9095543e-38
-0.51216376 -0.30501199 2.0248187 1.9095543e-38
1.0358034 -0.29684806 2.0294003 1.9095543e-38
1.0448984 -0.29885519 2.0246003 1.9095543e-38
-0.52459526 -0.27533302 2.003 1.9095543e-38
1.0314143 -0.2601147 2.0324552 1.9095543e-38
1.044978 -0.26215112 2.0246003 1.9095543e-38
-0.48872644 -0.21641213 2.0033629 1.9095543e-38
-0.47494864 -0.21811 2.0035999 1.9095543e-38
1.0316406 -0.23242591 2.0258002 1.9095543e-38
1.043962 -0.23220479 2.0150001 1.9095543e-38
-0.48644286 -0.19648476 2.003 1.9095543e-38
-0.47499713 -0.19648476 2.003 1.9095543e-38
-0.052431431 0.27769238 2.039 1.9095543e-38
-0.049648155 0.30759951 2.0358701 1.9095543e-38
-0.034954287 0.31653047 2.039 1.9095543e-38
-0.051748462 0.34026286 2.0235944 1.9095543e-38
-0.026002591 0.34529164 2.0361042 1.9095543e-38
-0.052957818 0.37607235 2.0069473 1.9095543e-38
-0.019784713 0.38110346 2.0272136 1.9095543e-38
0.010498884 0.3897579 2.038173 1.9095543e-38
-0.063237153 0.41014743 2.0118001 1.9095543e-38
-0.013660219 0.40986189 2.0128179 1.9095543e-38
0.014940003 0.41196007 2.0312865 1.9095543e-38
-0.69036013 -0.28046739 1.9133266 1.9095543e-38
-0.65068984 -0.45641664 1.983035 1.9095543e-38
-0.77212751 -0.70996881 2.0345488 1.9095543e-38
-0.54364872 -0.73642606 1.9545629 1.9095543e-38
0.74803233 -0.75658548 1.9538379 1.9095543e-38
-0.67175311 -0.72037089 2.0348511 1.9095543e-38
-0.63803893 -0.72221977 2.0414085 1.9095543e-38
-0.57967651 -0.66853124 2.0369344 1.9095543e-38
-0.54900569 -0.56245834 2.0198627 1.9095543e-38
-0.41196316 -0.55479228 2.0133569 1.9095543e-38
-0.40407681 -0.70619166 2.0170617 1.9095543e-38
-0.24336016 -0.79200941 2.0511179 1.9095543e-38
-0.19712469 -0.79577649 2.0558608 1.9095543e-38
-0.18438034 -0.79152155 2.0565107 1.9095543e-38
-0.33151698 -0.77285153 2.0506814 1.9095543e-38
-0.36737347 -0.71890587 2.0350978 1.9095543e-38
-0.29891005 -0.68775719 2.0359669 1.9095543e-38
-0.22542909 -0.70439446 2.0398016 1.9095543e-38
-0.13364145 -0.59333402 2.0369534 1.9095543e-38
-0.073575556 -0.80412221 2.0510001 1.9095543e-38
-0.029300002 -0.80282003 2.0510004 1.9095543e-38
-0.8518486 -0.7934441 2.0510001 1.9095543e-38
-0.82039875 -0.77989262 2.0609913 1.9095543e-38
-0.77918077 -0.77813762 2.0691535 1.9095543e-38
-0.75592774 -0.78070796 2.0760002 1.9095543e-38
-0.42706287 -0.79678869 2.0760002 1.9095543e-38
-0.36181718 -0.79678869 2.0760002 1.9095543e-38
-0.34600005 -0.79678875 2.0760002 1.9095543e-38
-0.29757577 -0.79707569 2.0747001 1.9095543e-38
-0.24867575 -0.79658198 2.0695 1.9095543e-38
-0.21634409 -0.79442203 2.0658345 1.9095543e-38
-0.18241094 -0.79458904 2.0673668 1.9095543e-38
-0.13909031 -0.79241574 2.0678611 1.9095543e-38
-0.098205857 -0.79137403 2.0688379 1.9095543e-38
-0.058699504 -0.78383887 2.060432 1.9095543e-38
-0.020676833 -0.7869339 2.0625136 1.9095543e-38
0.022248922 -0.78184325 2.0633471 1.9095543e-38
0.058033716 -0.78243375 2.0629611 1.9095543e-38
0.099582896 -0.7741189 2.062001 1.9095543e-38
0.14034615 -0.76997614 2.0630414 1.9095543e-38
0.1808989 -0.76833636 2.0638373 1.9095543e-38
0.21995896 -0.76872867 2.0631406 1.9095543e-38
0.25978035 -0.77108622 2.0624244 1.9095543e-38
0.29913399 -0.76571888 2.0612333 1.9095543e-38
0.32695562 -0.76497966 2.0606499 1.9095543e-38
0.41641176 -0.76133162 2.0595717 1.9095543e-38
0.45636329 -0.76269352 2.0566003 1.9095543e-38
0.50113857 -0.76375335 2.0510004 1.9095543e-38
0.53833872 -0.76414406 2.0510004 1.9095543e-38
0.56646669 -0.76375335 2.0510001 1.9095543e-38
0.61530006 -0.76375335 2.0510001 1.9095543e-38
-0.84344941 -0.75515872 2.0510004 1.9095543e-38
-0.81627119 -0.74780208 2.0532985 1.9095543e-38
-0.77806056 -0.73810154 2.0574431 1.9095543e-38
-0.75568706 -0.72936791 2.0717781 1.9095543e-38
0.11269715 -0.75625724 2.0760002 1.9095543e-38
0.13840002 -0.75658691 2.0760002 1.9095543e-38
0.17833832 -0.75302815 2.0760002 1.9095543e-38
0.22025375 -0.75566405 2.0760002 1.9095543e-38
0.26521963 -0.75724578 2.0760002 1.9095543e-38
0.30343372 -0.75207514 2.0714054 1.9095543e-38
0.33951157 -0.75044852 2.0687795 1.9095543e-38
0.38043636 -0.75240856 2.0644934 1.9095543e-38
0.41996923 -0.74878854 2.0682843 1.9095543e-38
0.46106219 -0.74710047 2.0637617 1.9095543e-38
0.50095803 -0.74580795 2.0597861 1.9095543e-38
0.53960544 -0.74387681 2.0610878 1.9095543e-38
0.58018708 -0.74441379 2.0605431 1.9095543e-38
0.61915809 -0.74075311 2.0605097 1.9095543e-38
0.65669173 -0.73270458 2.0605009 1.9095543e-38
0.69917542 -0.72834522 2.0534208 1.9095543e-38
0.74369925 -0.72234279 2.0510006 1.9095543e-38
0.78675079 -0.72342557 2.0555458 1.9095543e-38
0.81568575 -0.72293711 2.0520914 1.9095543e-38
0.84507722 -0.72182858 2.0540001 1.9095543e-38
-0.80282003 -0.71687335 2.0510001 1.9095543e-38
-0.78054345 -0.70829594 2.0518005 1.9095543e-38
-0.74291503 -0.69685346 2.0625634 1.9095543e-38
0.61419815 -0.71436489 2.0736365 1.9095543e-38
0.67327678 -0.71610433 2.0610912 1.9095543e-38
0.69997996 -0.7155208 2.0646667 1.9095543e-38
0.74124354 -0.7138145 2.0555151 1.9095543e-38
0.78247988 -0.70850158 2.0588279 1.9095543e-38
0.82130909 -0.70527589 2.0542736 1.9095543e-38
0.85959101 -0.69505078 2.0571785 1.9095543e-38
0.89445496 -0.68388802 2.0594738 1.9095543e-38
0.94222331 -0.68736076 2.0656371 1.9095543e-38
0.97642416 -0.68366307 2.0645483 1.9095543e-38
1.0067489 -0.68667912 2.0542004 1.9095543e-38
1.064667 -0.69284588 2.0602808 1.9095543e-38
1.0814973 -0.68211436 2.0760002 1.9095543e-38
-0.72968084 -0.66589141 2.0562949 1.9095543e-38
-0.70584661 -0.65417671 2.0703166 1.9095543e-38
0.8699429 -0.67025149 2.0760002 1.9095543e-38
0.901079 -0.67344767 2.0650315 1.9095543e-38
0.93617719 -0.67717159 2.0760002 1.9095543e-38
0.98312479 -0.67320597 2.0720272 1.9095543e-38
1.0182818 -0.66717821 2.0660796 1.9095543e-38
1.0577399 -0.67228764 2.0725667 1.9095543e-38
1.0814973 -0.67222863 2.0760002 1.9095543e-38
-0.72078001 -0.62995005 2.0510001 1.9095543e-38
-0.69822395 -0.62143642 2.0565541 1.9095543e-38
-0.67413902 -0.61406088 2.073174 1.9095543e-38
-0.68761992 -0.58392328 2.0520217 1.9095543e-38
-0.66687328 -0.58013809 2.0683191 1.9095543e-38
-0.68526489 -0.53876489 2.0509999 1.9095543e-38
-0.66059285 -0.54062873 2.0584545 1.9095543e-38
-0.62784612 -0.53540057 2.0711873 1.9095543e-38
1.0735886 -0.52789718 2.0760002 1.9095543e-38
-0.68562007 -0.51763332 2.0510001 1.9095543e-38
-0.65078562 -0.50330895 2.0510006 1.9095543e-38
-0.62304229 -0.49831361 2.0615938 1.9095543e-38
-0.58995771 -0.49083179 2.0732639 1.9095543e-38
-0.55320466 -0.48123661 2.0760002 1.9095543e-38
1.0704939 -0.49961543 2.0760014 1.9095543e-38
-0.64362341 -0.47075337 2.0510001 1.9095543e-38
-0.61823702 -0.46402651 2.0524211 1.9095543e-38
-0.58351719 -0.46032238 2.065927 1.9095543e-38
-0.55314124 -0.45640141 2.0749183 1.9095543e-38
1.0608959 -0.45719779 2.0674877 1.9095543e-38
-0.60699838 -0.43364003 2.0510004 1.9095543e-38
-0.57370168 -0.42626232 2.0571232 1.9095543e-38
-0.54395092 -0.41809997 2.0691495 1.9095543e-38
-0.5199886 -0.41717717 2.0760002 1.9095543e-38
1.0374353 -0.40983352 2.0760002 1.9095543e-38
1.0573653 -0.418201 2.0694275 1.9095543e-38
-0.56060666 -0.39652669 2.0510001 1.9095543e-38
-0.53151691 -0.38520339 2.0586424 1.9095543e-38
-0.50335425 -0.37602234 2.0745342 1.9095543e-38
-0.47303146 -0.36527714 2.0760002 1.9095543e-38
1.0318141 -0.37710616 2.0693629 1.9095543e-38
1.0556352 -0.38317826 2.0648885 1.9095543e-38
-0.49885896 -0.34507242 2.0600443 1.9095543e-38
-0.47113311 -0.34718502 2.0613334 1.9095543e-38
1.0330421 -0.33970538 2.0673611 1.9095543e-38
1.0502962 -0.34011272 2.0570006 1.9095543e-38
-0.40907335 -0.28477335 2.071667 1.9095543e-38
1.0320947 -0.30066773 2.0655951 1.9095543e-38
1.042429 -0.31383559 2.0510004 1.9095543e-38
-0.41840589 -0.26004735 2.0733104 1.9095543e-38
1.0245894 -0.25908652 2.061219 1.9095543e-38
-0.41105852 -0.22173984 2.0585008 1.9095543e-38
-0.39566001 -0.21288268 2.0546002 1.9095543e-38
1.0262874 -0.23492804 2.0660005 1.9095543e-38
-0.04638423 0.2672435 2.0619309 1.9095543e-38
-0.02303811 0.26700968 2.0703504 1.9095543e-38
0.0019771433 0.27482289 2.0760002 1.9095543e-38
-0.044740628 0.29476735 2.0509999 1.9095543e-38
-0.019176653 0.29980054 2.0589418 1.9095543e-38
0.0041520009 0.30151436 2.0760002 1.9095543e-38
-0.011981865 0.33430684 2.0528123 1.9095543e-38
0.017246954 0.34316361 2.062722 1.9095543e-38
0.042084906 0.34712985 2.0760002 1.9095543e-38
-0.0019533334 0.36332002 2.0510001 1.9095543e-38
0.023033818 0.37648812 2.0560877 1.9095543e-38
0.047988851 0.38522533 2.0719433 1.9095543e-38
0.028648891 0.40108448 2.0510004 1.9095543e-38
0.041020002 0.40043333 2.0510001 1.9095543e-38
-0.5836547 -0.43909395 1.9937919 1.9095543e-38
-0.5856095 -0.52162737 1.9234645 1.9095543e-38
-0.73728049 -0.75781775 2.0410314 1.9095543e-38
-0.59451967 -0.80585355 2.0853345 1.9095543e-38
-0.69399863 -0.78987658 2.0783186 1.9095543e-38
-0.64030582 -0.79097223 2.0850062 1.9095543e-38
-0.59461564 -0.7742523 2.0837409 1.9095543e-38
-0.54158455 -0.80840111 2.1012273 1.9095543e-38
-0.5092063 -0.75770199 2.0837598 1.9095543e-38
-0.46030438 -0.80829597 2.0982494 1.9095543e-38
-0.42422205 -0.80398941 2.0901668 1.9095543e-38
-0.38374549 -0.80242407 2.0964503 1.9095543e-38
-0.32836539 -0.80194306 2.0952222 1.9095543e-38
-0.31815144 -0.80238193 2.1010001 1.9095543e-38
-0.26902252 -0.8017236 2.0923333 1.9095543e-38
-0.76162291 -0.76162291 2.0880001 1.9095543e-38
-0.73994702 -0.77986014 2.0955598 1.9095543e-38
-0.7135945 -0.78002018 2.1097746 1.9095543e-38
-0.60802674 -0.7992934 2.1140001 1.9095543e-38
-0.58050698 -0.79818481 2.1117063 1.9095543e-38
-0.54319733 -0.79848808 2.1140001 1.9095543e-38
-0.50887001 -0.79828674 2.1140001 1.9095543e-38
-0.44601011 -0.79911071 2.1114001 1.9095543e-38
-0.41685787 -0.79056484 2.1060441 1.9095543e-38
-0.38028371 -0.79153979 2.1079633 1.9095543e-38
-0.34125796 -0.7926684 2.1069989 1.9095543e-38
-0.29860923 -0.79292041 2.1043613 1.9095543e-38
-0.25726464 -0.78627259 2.104619 1.9095543e-38
-0.22232686 -0.78027022 2.102299 1.9095543e-38
-0.17996289 -0.77790982 2.1023607 1.9095543e-38
-0.14055872 -0.77316195 2.0992057 1.9095543e-38
-0.099982895 -0.77617532 2.1020825 1.9095543e-38
-0.060594842 -0.76864499 2.0951955 1.9095543e-38
-0.019355081 -0.76968682 2.08989 1.9095543e-38
0.017773215 -0.76738721 2.0922444 1.9095543e-38
0.060058445 -0.76590151 2.0914211 1.9095543e-38
0.094965711 -0.76642561 2.093688 1.9095543e-38
0.25205141 -0.7636115 2.0880001 1.9095543e-38
-0.76275927 -0.74571437 2.0880003 1.9095543e-38
-0.73889565 -0.74053085 2.0881352 1.9095543e-38
-0.70574921 -0.73926616 2.1006818 1.9095543e-38
-0.17429715 -0.75701338 2.1140003 1.9095543e-38
-0.14550911 -0.75573212 2.1139996 1.9095543e-38
-0.082546666 -0.75902671 2.1140001 1.9095543e-38
-0.05594806 -0.75482857 2.107934 1.9095543e-38
-0.020217536 -0.75444579 2.1047912 1.9095543e-38
0.01880935 -0.75630772 2.108485 1.9095543e-38
0.061281294 -0.75245082 2.1047492 1.9095543e-38
0.10172288 -0.74766111 2.1059852 1.9095543e-38
0.13899483 -0.74986678 2.1004081 1.9095543e-38
0.18040566 -0.74347329 2.0970991 1.9095543e-38
0.21942893 -0.74738938 2.0995131 1.9095543e-38
0.25998068 -0.74533319 2.0945768 1.9095543e-38
0.29806852 -0.74152434 2.1004717 1.9095543e-38
0.33908936 -0.73413855 2.0980582 1.9095543e-38
0.37889287 -0.73786086 2.1061058 1.9095543e-38
0.41803417 -0.73259634 2.1052754 1.9095543e-38
0.46054634 -0.73194057 2.1040137 1.9095543e-38
0.50000525 -0.72908181 2.0981827 1.9095543e-38
0.54161012 -0.72672176 2.0984633 1.9095543e-38
0.57894462 -0.72770643 2.096894 1.9095543e-38
0.61955351 -0.72623414 2.0932002 1.9095543e-38
0.65545684 -0.72856885 2.0952652 1.9095543e-38
0.71516353 -0.7231285 2.0917144 1.9095543e-38
0.72317713 -0.72317713 2.0880001 1.9095543e-38
0.78548574 -0.72185147 2.0880001 1.9095543e-38
-0.72852731 -0.70722127 2.0880005 1.9095543e-38
-0.70143712 -0.70081228 2.0994339 1.9095543e-38
-0.66713625 -0.69193983 2.1099751 1.9095543e-38
0.34319076 -0.71736205 2.112267 1.9095543e-38
0.3624 -0.71876007 2.1140001 1.9095543e-38
0.41776669 -0.71775341 2.1140003 1.9095543e-38
0.44897339 -0.71876007 2.1140001 1.9095543e-38
0.50110424 -0.71608114 2.1114833 1.9095543e-38
0.53986812 -0.71409833 2.1121421 1.9095543e-38
0.58453435 -0.71240121 2.1082551 1.9095543e-38
0.62097687 -0.71006924 2.1026239 1.9095543e-38
0.66405612 -0.71203148 2.1054146 1.9095543e-38
0.69977748 -0.70464957 2.1031897 1.9095543e-38
0.74000531 -0.7046569 2.1006126 1.9095543e-38
0.77810365 -0.69915062 2.0969262 1.9095543e-38
0.82024318 -0.69558167 2.0980229 1.9095543e-38
0.85734284 -0.689789 2.0934355 1.9095543e-38
0.88690287 -0.68208003 2.0880001 1.9095543e-38
0.9538514 -0.68473148 2.0880001 1.9095543e-38
0.96048003 -0.68208003 2.0880001 1.9095543e-38
1.07184 -0.68208003 2.0880001 1.9095543e-38
-0.69353598 -0.66603094 2.0899777 1.9095543e-38
-0.66098547 -0.65860718 2.1011302 1.9095543e-38
-0.63621336 -0.64426672 2.1140001 1.9095543e-38
0.83291 -0.67593628 2.1023002 1.9095543e-38
0.85961908 -0.6683147 2.0973158 1.9095543e-38
0.90203553 -0.66803479 2.0976803 1.9095543e-38
0.94000649 -0.6634835 2.0998049 1.9095543e-38
0.97921622 -0.65753096 2.0996234 1.9095543e-38
1.0147452 -0.65225428 2.0961239 1.9095543e-38
1.0633708 -0.6604405 2.1029172 1.9095543e-38
1.0894558 -0.65524209 2.1090205 1.9095543e-38
-0.68208003 -0.63833147 2.0880001 1.9095543e-38
-0.65716523 -0.62325525 2.0948811 1.9095543e-38
-0.62689871 -0.61658317 2.1071687 1.9095543e-38
1.0764623 -0.61943555 2.1140003 1.9095543e-38
1.0862967 -0.61809295 2.1050334 1.9095543e-38
-0.64924312 -0.58367121 2.0879998 1.9095543e-38
-0.62154031 -0.58092982 2.09585 1.9095543e-38
-0.58929783 -0.5717445 2.1056662 1.9095543e-38
1.0771334 -0.56574672 2.1140001 1.9095543e-38
1.0892001 -0.57949954 2.1091242 1.9095543e-38
-0.64628571 -0.5587886 2.0880001 1.9095543e-38
-0.61749101 -0.54118907 2.0885808 1.9095543e-38
-0.5829069 -0.54053813 2.10007 1.9095543e-38
-0.55165333 -0.52548003 2.1140003 1.9095543e-38
1.0659513 -0.53609872 2.1062803 1.9095543e-38
1.0856506 -0.54984301 2.0979052 1.9095543e-38
-0.61872983 -0.51589227 2.0879998 1.9095543e-38
-0.57759732 -0.50540048 2.0916607 1.9095543e-38
-0.54392147 -0.49788544 2.1009991 1.9095543e-38
1.0571085 -0.50118977 2.1039987 1.9095543e-38
-0.53462619 -0.46234277 2.0911989 1.9095543e-38
-0.50916219 -0.45535782 2.1049457 1.9095543e-38
1.0381689 -0.45476839 2.1036003 1.9095543e-38
1.0483786 -0.46107358 2.0952446 1.9095543e-38
-0.52887362 -0.42840746 2.0880003 1.9095543e-38
-0.50028133 -0.41980222 2.0973194 1.9095543e-38
-0.46460629 -0.40681168 2.1140001 1.9095543e-38
1.0363969 -0.41521415 2.1015913 1.9095543e-38
1.044196 -0.4281373 2.0934172 1.9095543e-38
-0.49268761 -0.39194778 2.0897937 1.9095543e-38
-0.46251509 -0.38238072 2.0972846 1.9095543e-38
-0.41810226 -0.38857335 2.1139996 1.9095543e-38
1.0307047 -0.37982336 2.1039999 1.9095543e-38
-0.45737141 -0.35993144 2.0880001 1.9095543e-38
1.0273217 -0.3380293 2.103785 1.9095543e-38
1.0408933 -0.34428 2.1140001 1.9095543e-38
1.0238748 -0.30160511 2.1026242 1.9095543e-38
-0.42754287 -0.26447999 2.0880001 1.9095543e-38
1.0175207 -0.25717688 2.0995543 1.9095543e-38
1.0154308 -0.23661107 2.1010001 1.9095543e-38
-0.014093334 0.19932 2.1140001 1.9095543e-38
-0.043020479 0.23511191 2.1010001 1.9095543e-38
-0.019749595 0.22306252 2.0996823 1.9095543e-38
0.011638554 0.23349866 2.1111739 1.9095543e-38
-0.043267302 0.24626413 2.0966668 1.9095543e-38
-0.01603787 0.24983302 2.0893824 1.9095543e-38
0.018139524 0.26174146 2.1019275 1.9095543e-38
0.047254119 0.27251062 2.1140001 1.9095543e-38
0.023708811 0.29888272 2.0955422 1.9095543e-38
0.049539313 0.29991663 2.1110446 1.9095543e-38
0.026927685 0.32678974 2.0888672 1.9095543e-38
0.059112079 0.34155035 2.09957 1.9095543e-38
0.084727295 0.35208708 2.1125557 1.9095543e-38
0.063882016 0.3732506 2.0908883 1.9095543e-38
0.088265449 0.36726809 2.1060555 1.9095543e-38
-0.6942941 -0.80839288 2.1359551 1.9095543e-38
-0.66133851 -0.80801564 2.1379604 1.9095543e-38
-0.62618297 -0.80530769 2.132 1.9095543e-38
-0.57597816 -0.80015719 2.1270001 1.9095543e-38
-0.54028702 -0.80189353 2.1270006 1.9095543e-38
-0.49151269 -0.80290347 2.1277225 1.9095543e-38
-0.46484187 -0.80301714 2.1270003 1.9095543e-38
-0.6972217 -0.78145307 2.1367037 1.9095543e-38
-0.65938234 -0.778238 2.1441784 1.9095543e-38
-0.62028956 -0.78284651 2.142267 1.9095543e-38
-0.58020371 -0.78948092 2.1403997 1.9095543e-38
-0.53967112 -0.78659326 2.136569 1.9095543e-38
-0.49959987 -0.78746742 2.1412129 1.9095543e-38
-0.46065155 -0.78677124 2.1413863 1.9095543e-38
-0.42073756 -0.77461737 2.1386209 1.9095543e-38
-0.38098547 -0.77642006 2.1389456 1.9095543e-38
-0.34058368 -0.77579683 2.1381426 1.9095543e-38
-0.30055702 -0.77862686 2.1386614 1.9095543e-38
-0.26463225 -0.77394587 2.1357543 1.9095543e-38
-0.22032507 -0.76457584 2.1382496 1.9095543e-38
-0.1959362 -0.76137114 2.1356668 1.9095543e-38
-0.12523688 -0.76100296 2.1455715 1.9095543e-38
-0.10295373 -0.76446468 2.1365328 1.9095543e-38
-0.077763624 -0.76170689 2.1374002 1.9095543e-38
-0.68882835 -0.74231225 2.1303329 1.9095543e-38
-0.66052938 -0.74083477 2.1431427 1.9095543e-38
-0.62202442 -0.73691213 2.1469641 1.9095543e-38
-0.24857576 -0.75521684 2.1452003 1.9095543e-38
-0.21598992 -0.75362086 2.1524091 1.9095543e-38
-0.18075161 -0.75253773 2.1437817 1.9095543e-38
-0.1391505 -0.75148296 2.1468823 1.9095543e-38
-0.10073362 -0.75088668 2.150279 1.9095543e-38
-0.058986545 -0.74349684 2.1427622 1.9095543e-38
-0.020746961 -0.73908818 2.1426272 1.9095543e-38
0.021047851 -0.74016488 2.1411247 1.9095543e-38
0.060789574 -0.73778361 2.141988 1.9095543e-38
0.099442072 -0.73316652 2.1399996 1.9095543e-38
0.13985531 -0.73269141 2.1320138 1.9095543e-38
0.17895596 -0.73110986 2.1339846 1.9095543e-38
0.22024836 -0.73166382 2.1340904 1.9095543e-38
0.25900939 -0.73106509 2.136848 1.9095543e-38
0.29667157 -0.7284193 2.1327436 1.9095543e-38
0.32411432 -0.72520578 2.1270001 1.9095543e-38
0.38546455 -0.72491628 2.1270006 1.9095543e-38
0.40311715 -0.72318006 2.1270001 1.9095543e-38
0.47037092 -0.72399038 2.1270001 1.9095543e-38
0.48009431 -0.7272315 2.1270003 1.9095543e-38
-0.68401623 -0.71777815 2.1270003 1.9095543e-38
-0.65409702 -0.70371884 2.1290307 1.9095543e-38
-0.61897802 -0.70141619 2.139149 1.9095543e-38
-0.58718228 -0.69388521 2.1522975 1.9095543e-38
0.032124132 -0.7197172 2.1530004 1.9095543e-38
0.067665718 -0.7197172 2.1530001 1.9095543e-38
0.1422492 -0.71620429 2.1482334 1.9095543e-38
0.17886865 -0.7172721 2.1490002 1.9095543e-38
0.21780905 -0.71614414 2.1482728 1.9095543e-38
0.26072365 -0.71382302 2.1519461 1.9095543e-38
0.30490884 -0.71562314 2.1429996 1.9095543e-38
0.33906668 -0.71118712 2.1358297 1.9095543e-38
0.38181612 -0.71481085 2.1407497 1.9095543e-38
0.4226431 -0.70973378 2.1373618 1.9095543e-38
0.45829958 -0.70847839 2.1379566 1.9095543e-38
0.50095081 -0.70474648 2.1429617 1.9095543e-38
0.540497 -0.70145452 2.1427855 1.9095543e-38
0.57900006 -0.70012307 2.1445346 1.9095543e-38
0.61878616 -0.69990349 2.1454327 1.9095543e-38
0.6620059 -0.69910812 2.1421411 1.9095543e-38
0.69989645 -0.688968 2.1372142 1.9095543e-38
0.74027687 -0.68875307 2.1336753 1.9095543e-38
0.78030312 -0.68871504 2.145318 1.9095543e-38
0.81649369 -0.68580002 2.1393497 1.9095543e-38
-0.64457208 -0.66889304 2.1283002 1.9095543e-38
-0.61817855 -0.6602186 2.1298592 1.9095543e-38
-0.58134413 -0.66014355 2.1462231 1.9095543e-38
-0.55978006 -0.67870766 2.1530001 1.9095543e-38
0.49416479 -0.67870766 2.1530001 1.9095543e-38
0.5577296 -0.67870766 2.1530001 1.9095543e-38
0.57208288 -0.67870766 2.1530001 1.9095543e-38
0.70074517 -0.67545307 2.1516552 1.9095543e-38
0.73989463 -0.67513549 2.1458156 1.9095543e-38
0.77610534 -0.67501664 2.1530001 1.9095543e-38
0.82358789 -0.67268991 2.1489556 1.9095543e-38
0.86043638 -0.66140389 2.1416881 1.9095543e-38
0.89984566 -0.65841788 2.1363671 1.9095543e-38
0.93780059 -0.64848101 2.1387959 1.9095543e-38
0.97623622 -0.6455673 2.1321068 1.9095543e-38
1.0241768 -0.64235741 2.1310625 1.9095543e-38
1.0604721 -0.6471225 2.1310232 1.9095543e-38
1.0878086 -0.65531862 2.1270001 1.9095543e-38
-0.61027163 -0.62508142 2.1282089 1.9095543e-38
-0.57914394 -0.6190784 2.1350095 1.9095543e-38
-0.54836172 -0.6100837 2.1498621 1.9095543e-38
0.89400762 -0.63769811 2.1530001 1.9095543e-38
0.94476777 -0.63653803 2.1491001 1.9095543e-38
0.9834615 -0.63263047 2.1425998 1.9095543e-38
1.0174057 -0.63018018 2.1480362 1.9095543e-38
1.0622159 -0.62143308 2.1350358 1.9095543e-38
1.0844325 -0.61176574 2.1270001 1.9095543e-38
-0.60366285 -0.59758574 2.1270001 1.9095543e-38
-0.5737794 -0.58407927 2.1281993 1.9095543e-38
-0.54072189 -0.57809132 2.1399996 1.9095543e-38
-0.51218468 -0.5709787 2.1478 1.9095543e-38
1.067282 -0.58084202 2.1344488 1.9095543e-38
1.0847701 -0.58948284 2.1270001 1.9095543e-38
-0.5666669 -0.54768926 2.1270001 1.9095543e-38
-0.53772193 -0.53988892 2.1284437 1.9095543e-38
-0.50378823 -0.53824121 2.1441216 1.9095543e-38
-0.47776097 -0.53107339 2.1530004 1.9095543e-38
1.0395916 -0.52697241 2.1530004 1.9095543e-38
1.0528016 -0.54212087 2.1383996 1.9095543e-38
-0.52755392 -0.50359255 2.1269996 1.9095543e-38
-0.50091624 -0.49948293 2.1360855 1.9095543e-38
-0.46935201 -0.49744961 2.1481626 1.9095543e-38
1.0383888 -0.49969059 2.1399999 1.9095543e-38
1.0446515 -0.50138068 2.1329088 1.9095543e-38
-0.4910543 -0.46230516 2.1284711 1.9095543e-38
-0.46251893 -0.4595125 2.1404934 1.9095543e-38
-0.42270049 -0.45148885 2.1432498 1.9095543e-38
-0.39820251 -0.44495335 2.1530001 1.9095543e-38
1.0294247 -0.45774451 2.1377158 1.9095543e-38
1.0452689 -0.46085003 2.1270003 1.9095543e-38
-0.48156756 -0.42705745 2.1270003 1.9095543e-38
-0.4572657 -0.42450643 2.1296346 1.9095543e-38
-0.41944844 -0.42052072 2.1343291 1.9095543e-38
-0.3900806 -0.41423082 2.1505406 1.9095543e-38
1.0272648 -0.42042124 2.1403019 1.9095543e-38
1.0448397 -0.4278219 2.1290004 1.9095543e-38
-0.4470596 -0.38815805 2.1270003 1.9095543e-38
-0.42314923 -0.39568961 2.1270001 1.9095543e-38
-0.38288337 -0.39515033 2.1387 1.9095543e-38
1.0214528 -0.3791807 2.1355565 1.9095543e-38
0.99858201 -0.32192478 2.1530001 1.9095543e-38
1.0142397 -0.34157512 2.1394019 1.9095543e-38
0.98870307 -0.30048177 2.1456723 1.9095543e-38
1.0108652 -0.2983968 2.1309862 1.9095543e-38
0.9575724 -0.24810761 2.1530001 1.9095543e-38
0.98348725 -0.25773716 2.1331382 1.9095543e-38
1.0082757 -0.26407215 2.1312444 1.9095543e-38
0.98303533 -0.23813523 2.1371112 1.9095543e-38
1.0081565 -0.23797429 2.1356668 1.9095543e-38
0.0093410583 0.10001768 2.1530001 1.9095543e-38
-0.0030664287 0.15457262 2.14975 1.9095543e-38
0.015942238 0.14740558 2.1527348 1.9095543e-38
-0.0068731559 0.18172973 2.1383746 1.9095543e-38
0.020245945 0.17982458 2.1436765 1.9095543e-38
0.049465455 0.18585204 2.1502426 1.9095543e-38
-0.0043911114 0.20919463 2.1291671 1.9095543e-38
0.022142917 0.21676375 2.1363969 1.9095543e-38
0.056929693 0.22313967 2.1453731 1.9095543e-38
0.034049578 0.24980272 2.1306112 1.9095543e-38
0.063067809 0.25892779 2.1416624 1.9095543e-38
0.09258689 0.26845473 2.1530001 1.9095543e-38
0.070391789 0.30081099 2.1355085 1.9095543e-38
0.097288534 0.30316266 2.1498332 1.9095543e-38
0.13169137 0.30479199 2.1524799 1.9095543e-38
0.072758391 0.32752198 2.1294377 1.9095543e-38
0.10123805 0.33943656 2.1406417 1.9095543e-38
0.1347533 0.33622846 2.1458404 1.9095543e-38
0.10625879 0.36306381 2.1340909 1.9095543e-38
-0.6129362 -0.77148002 2.1743042 1.9095543e-38
-0.57928884 -0.7718792 2.1755784 1.9095543e-38
-0.54059869 -0.77250981 2.182735 1.9095543e-38
-0.49988684 -0.76984906 2.1766064 1.9095543e-38
-0.46306646 -0.7707352 2.1769655 1.9095543e-38
-0.42153317 -0.76464146 2.1670001 1.9095543e-38
-0.37910047 -0.76595795 2.1670001 1.9095543e-38
-0.33607072 -0.7663337 2.1669998 1.9095543e-38
-0.30131617 -0.76704895 2.1670001 1.9095543e-38
-0.27108744 -0.76664472 2.1670001 1.9095543e-38
-0.60802549 -0.74701613 2.1723104 1.9095543e-38
-0.57990879 -0.73998284 2.1834044 1.9095543e-38
-0.54908669 -0.7396822 2.1930251 1.9095543e-38
-0.49840119 -0.75551218 2.194 1.9095543e-38
-0.45650679 -0.75338256 2.1886296 1.9095543e-38
-0.42163771 -0.75400519 2.1817999 1.9095543e-38
-0.37844592 -0.75117177 2.1804285 1.9095543e-38
-0.3421196 -0.74777776 2.181988 1.9095543e-38
-0.29935974 -0.75073564 2.1834927 1.9095543e-38
-0.25755998 -0.74584574 2.1806817 1.9095543e-38
-0.21935955 -0.73738277 2.1762698 1.9095543e-38
-0.1804651 -0.73681122 2.1787677 1.9095543e-38
-0.13979293 -0.73748189 2.1792097 1.9095543e-38
-0.099274963 -0.73644626 2.1806293 1.9095543e-38
-0.063177302 -0.72763717 2.178 1.9095543e-38
-0.017793763 -0.72278649 2.171 1.9095543e-38
0.01918786 -0.72188979 2.1772499 1.9095543e-38
0.060171399 -0.72352779 2.1787071 1.9095543e-38
0.099416368 -0.72416878 2.1790953 1.9095543e-38
0.12314063 -0.72164547 2.1670003 1.9095543e-38
0.24146572 -0.72026956 2.1670001 1.9095543e-38
0.28686953 -0.72026956 2.1670001 1.9095543e-38
-0.57473803 -0.70508868 2.1713555 1.9095543e-38
-0.54416531 -0.6971826 2.1850002 1.9095543e-38
-0.053608418 -0.71217167 2.1929169 1.9095543e-38
-0.023279576 -0.7128076 2.188915 1.9095543e-38
0.017760953 -0.71513945 2.194 1.9095543e-38
0.063328646 -0.71220613 2.1940002 1.9095543e-38
0.10304476 -0.7082516 2.191231 1.9095543e-38
0.13960962 -0.70148504 2.1794541 1.9095543e-38
0.18016323 -0.70247537 2.1816161 1.9095543e-38
0.21958171 -0.70113623 2.1829672 1.9095543e-38
0.25895166 -0.69813859 2.1838031 1.9095543e-38
0.30039552 -0.69994271 2.1824863 1.9095543e-38
0.34091446 -0.69452316 2.1771395 1.9095543e-38
0.38059554 -0.6968115 2.1764853 1.9095543e-38
0.41908932 -0.69359249 2.1733155 1.9095543e-38
0.46263385 -0.69092226 2.1755719 1.9095543e-38
0.49567404 -0.69112927 2.17226 1.9095543e-38
0.53717345 -0.68798739 2.170619 1.9095543e-38
0.58244747 -0.68504596 2.168077 1.9095543e-38
0.61874306 -0.68652731 2.1712778 1.9095543e-38
0.65793777 -0.6864453 2.1688335 1.9095543e-38
0.68312097 -0.68518478 2.1670001 1.9095543e-38
0.79559857 -0.68621671 2.1670001 1.9095543e-38
-0.56417048 -0.66285819 2.1670001 1.9095543e-38
-0.54031301 -0.66063911 2.1806395 1.9095543e-38
-0.50744474 -0.64937747 2.194 1.9095543e-38
0.26119047 -0.67909521 2.194 1.9095543e-38
0.305767 -0.67839873 2.1940002 1.9095543e-38
0.3442798 -0.67639118 2.194 1.9095543e-38
0.3817859 -0.67790121 2.1940002 1.9095543e-38
0.42016807 -0.67715144 2.1877408 1.9095543e-38
0.45814517 -0.67729139 2.1915627 1.9095543e-38
0.50128305 -0.67509311 2.1828709 1.9095543e-38
0.54276729 -0.67688715 2.180625 1.9095543e-38
0.58024061 -0.6744889 2.1833777 1.9095543e-38
0.62051249 -0.67357236 2.1801591 1.9095543e-38
0.66106188 -0.67472541 2.1764209 1.9095543e-38
0.70183492 -0.6657635 2.1786876 1.9095543e-38
0.73985457 -0.66471636 2.1887808 1.9095543e-38
0.78109431 -0.66527444 2.1890254 1.9095543e-38
0.81741101 -0.66144913 2.1830254 1.9095543e-38
0.86024135 -0.65204376 2.1846862 1.9095543e-38
0.89742798 -0.64575821 2.1753914 1.9095543e-38
0.92950439 -0.64852315 2.1747777 1.9095543e-38
0.96792668 -0.64390856 2.1670001 1.9095543e-38
1.0572658 -0.64806855 2.181 1.9095543e-38
-0.56290573 -0.62937433 2.181 1.9095543e-38
-0.53651857 -0.62331003 2.1735072 1.9095543e-38
-0.50141835 -0.61931235 2.1911612 1.9095543e-38
-0.47710791 -0.61362344 2.194 1.9095543e-38
0.83372003 -0.63563311 2.194 1.9095543e-38
0.86189425 -0.63524467 2.1920717 1.9095543e-38
0.90315568 -0.62996244 2.186887 1.9095543e-38
0.93895298 -0.62545776 2.1878297 1.9095543e-38
0.9797067 -0.62590498 2.1826572 1.9095543e-38
1.0182759 -0.6127215 2.1786194 1.9095543e-38
1.0508319 -0.61472344 2.1772323 1.9095543e-38
-0.52214384 -0.59644097 2.1670001 1.9095543e-38
-0.4961139 -0.58260256 2.1764357 1.9095543e-38
-0.46243545 -0.57733107 2.1898334 1.9095543e-38
-0.43531746 -0.56904697 2.194 1.9095543e-38
1.029184 -0.5884673 2.1916788 1.9095543e-38
1.0522413 -0.58035928 2.178458 1.9095543e-38
-0.48874271 -0.54765451 2.1699166 1.9095543e-38
-0.46094972 -0.54121751 2.1794236 1.9095543e-38
-0.42442185 -0.53658909 2.1836197 1.9095543e-38
-0.39909905 -0.52029145 2.194 1.9095543e-38
1.0234444 -0.53809321 2.1938243 1.9095543e-38
1.0454429 -0.5417366 2.1816306 1.9095543e-38
-0.48499525 -0.51506793 2.1670001 1.9095543e-38
-0.45424995 -0.50128633 2.1718571 1.9095543e-38
-0.42060131 -0.49863634 2.1711824 1.9095543e-38
-0.3817606 -0.49679184 2.1875999 1.9095543e-38
-0.35730857 -0.48476952 2.194 1.9095543e-38
1.022158 -0.49857143 2.1844225 1.9095543e-38
1.0435666 -0.49942425 2.1764839 1.9095543e-38
-0.4504956 -0.47252291 2.1681666 1.9095543e-38
-0.41355294 -0.46928924 2.1689534 1.9095543e-38
-0.37810779 -0.46118388 2.1819584 1.9095543e-38
-0.34778959 -0.44901535 2.194 1.9095543e-38
0.99258655 -0.44537446 2.1914001 1.9095543e-38
1.0154238 -0.46063787 2.1823299 1.9095543e-38
-0.3755593 -0.42548773 2.1711836 1.9095543e-38
-0.34499431 -0.41886619 2.1846619 1.9095543e-38
0.99086869 -0.42547327 2.1892438 1.9095543e-38
1.0124413 -0.41875073 2.1823602 1.9095543e-38
-0.36323047 -0.39831525 2.1670001 1.9095543e-38
-0.34480572 -0.39673427 2.181 1.9095543e-38
0.99203318 -0.38110542 2.192143 1.9095543e-38
1.0106839 -0.38136894 2.1822901 1.9095543e-38
0.98576325 -0.33788067 2.1828339 1.9095543e-38
1.0047389 -0.3442758 2.174 1.9095543e-38
0.97819346 -0.2994771 2.1815341 1.9095543e-38
0.94754332 -0.2499036 2.1902573 1.9095543e-38
0.97401416 -0.2613197 2.1805673 1.9095543e-38
0.94234294 -0.23714942 2.1891251 1.9095543e-38
0.018283332 0.063730471 2.1940002 1.9095543e-38
0.024510983 0.10149918 2.1807039 1.9095543e-38
0.05134657 0.10808041 2.1926553 1.9095543e-38
-0.0041276193 0.1506581 2.1670001 1.9095543e-38
0.026559999 0.13330749 2.1716666 1.9095543e-38
0.057376079 0.14274836 2.1875696 1.9095543e-38
0.087063506 0.15532127 2.194 1.9095543e-38
0.03921238 0.16304097 2.1670001 1.9095543e-38
0.06596905 0.17671099 2.1779137 1.9095543e-38
0.089950003 0.18376884 2.1916363 1.9095543e-38
0.13117565 0.18643196 2.194 1.9095543e-38
0.072718754 0.21194752 2.1691 1.9095543e-38
0.097984783 0.22240719 2.1850955 1.9095543e-38
0.13105755 0.22595432 2.1897838 1.9095543e-38
0.10490998 0.25643396 2.1740618 1.9095543e-38
0.13935901 0.25953406 2.1842535 1.9095543e-38
0.16765296 0.26531804 2.1935937 1.9095543e-38
0.11236297 0.29030919 2.1670001 1.9095543e-38
0.14858107 0.29467297 2.175909 1.9095543e-38
0.17625538 0.30267829 2.1888852 1.9095543e-38
0.15668917 0.33450913 2.1713078 1.9095543e-38
0.1752179 0.33017814 2.1789427 1.9095543e-38
-0.52961004 -0.76169574 2.2155001 1.9095543e-38
-0.53579789 -0.74232727 2.2140427 1.9095543e-38
-0.50213766 -0.74000251 2.2233453 1.9095543e-38
-0.46093613 -0.74100333 2.2246637 1.9095543e-38
-0.41998845 -0.73810184 2.2252259 1.9095543e-38
-0.38122532 -0.73402154 2.2227414 1.9095543e-38
-0.33845103 -0.73251432 2.2254059 1.9095543e-38
-0.30070621 -0.7332899 2.2244225 1.9095543e-38
-0.26446545 -0.73147207 2.2166038 1.9095543e-38
-0.22475831 -0.72375405 2.2080002 1.9095543e-38
-0.178975 -0.72528708 2.2136757 1.9095543e-38
-0.14292271 -0.72567028 2.2090003 1.9095543e-38
-0.10033634 -0.72518528 2.2080002 1.9095543e-38
-0.076403819 -0.722682 2.2080002 1.9095543e-38
-0.53015369 -0.70936388 2.2080002 1.9095543e-38
-0.50237733 -0.69875276 2.2205245 1.9095543e-38
-0.45462817 -0.69841594 2.2369998 1.9095543e-38
-0.42925414 -0.70033902 2.2369998 1.9095543e-38
-0.38466933 -0.71749699 2.2369998 1.9095543e-38
-0.33528367 -0.71557373 2.2369998 1.9095543e-38
-0.30344069 -0.71644872 2.2369998 1.9095543e-38
-0.25512788 -0.70989466 2.2263408 1.9095543e-38
-0.22068439 -0.7072475 2.2238474 1.9095543e-38
-0.18147218 -0.71329075 2.2315118 1.9095543e-38
-0.13920602 -0.71354967 2.2261739 1.9095543e-38
-0.099530287 -0.71061546 2.2237051 1.9095543e-38
-0.062864035 -0.7045157 2.2210376 1.9095543e-38
-0.018707583 -0.70150757 2.2201319 1.9095543e-38
0.021221677 -0.70345759 2.2171631 1.9095543e-38
0.058263697 -0.69851518 2.2199216 1.9095543e-38
0.099305421 -0.69379652 2.2170503 1.9095543e-38
0.14202003 -0.68692303 2.2240484 1.9095543e-38
0.1790915 -0.68667954 2.2192893 1.9095543e-38
0.22530504 -0.6855092 2.2108572 1.9095543e-38
0.26039025 -0.68468869 2.2101431 1.9095543e-38
0.30018288 -0.68500578 2.2080002 1.9095543e-38
0.33014861 -0.68342859 2.2080002 1.9095543e-38
0.37904003 -0.68500578 2.2080002 1.9095543e-38
0.46683431 -0.68342859 2.2080002 1.9095543e-38
-0.49488556 -0.66433054 2.2154715 1.9095543e-38
-0.46101704 -0.66133857 2.2331209 1.9095543e-38
-0.42856562 -0.65863937 2.2352498 1.9095543e-38
0.14170894 -0.67303687 2.2369998 1.9095543e-38
0.18296011 -0.67432964 2.2339997 1.9095543e-38
0.21889235 -0.67409766 2.2289243 1.9095543e-38
0.26175839 -0.67263484 2.22505 1.9095543e-38
0.30017382 -0.67256057 2.2271476 1.9095543e-38
0.33950567 -0.66615897 2.224298 1.9095543e-38
0.38024148 -0.66525561 2.2238083 1.9095543e-38
0.41975793 -0.66411602 2.2237484 1.9095543e-38
0.46127626 -0.66349417 2.2256567 1.9095543e-38
0.50009817 -0.65869492 2.2210121 1.9095543e-38
0.53976005 -0.66029239 2.2188628 1.9095543e-38
0.57863176 -0.65929085 2.221112 1.9095543e-38
0.61940968 -0.65937608 2.2214668 1.9095543e-38
0.66121441 -0.66197664 2.22035 1.9095543e-38
0.69909978 -0.6554004 2.21895 1.9095543e-38
0.73807794 -0.64699036 2.2146733 1.9095543e-38
0.77833211 -0.64583737 2.2128379 1.9095543e-38
0.81827813 -0.64703476 2.2097144 1.9095543e-38
0.84829277 -0.64683896 2.2080002 1.9095543e-38
0.88708287 -0.64149433 2.223 1.9095543e-38
-0.48786288 -0.63716573 2.2080002 1.9095543e-38
-0.46003994 -0.62174553 2.2189879 1.9095543e-38
-0.42041561 -0.62043172 2.2309885 1.9095543e-38
-0.38967425 -0.61063492 2.2369998 1.9095543e-38
0.71225941 -0.63563335 2.2346666 1.9095543e-38
0.74061441 -0.63519806 2.2257082 1.9095543e-38
0.78139448 -0.63343179 2.2283428 1.9095543e-38
0.81973267 -0.63225114 2.2219782 1.9095543e-38
0.86122233 -0.62749392 2.2207088 1.9095543e-38
0.89755958 -0.62163687 2.2210555 1.9095543e-38
0.94232875 -0.6111083 2.2324641 1.9095543e-38
0.97952819 -0.6103934 2.2221146 1.9095543e-38
1.012715 -0.6084767 2.2233636 1.9095543e-38
-0.45603958 -0.59426749 2.2080002 1.9095543e-38
-0.41974476 -0.58119178 2.2175391 1.9095543e-38
-0.38343707 -0.57857996 2.2336946 1.9095543e-38
0.99317551 -0.58170128 2.2346666 1.9095543e-38
1.0183386 -0.5804804 2.2215014 1.9095543e-38
1.0425265 -0.58292258 2.2170002 1.9095543e-38
-0.40589917 -0.54477113 2.2092001 1.9095543e-38
-0.37853688 -0.53956866 2.2239897 1.9095543e-38
-0.34290826 -0.53356177 2.2363775 1.9095543e-38
0.99729949 -0.53569639 2.2369998 1.9095543e-38
1.010155 -0.54212242 2.2205398 1.9095543e-38
-0.37065935 -0.51284558 2.2106471 1.9095543e-38
-0.34101591 -0.49928659 2.2266855 1.9095543e-38
-0.31150562 -0.49108365 2.2362628 1.9095543e-38
0.99777293 -0.51628542 2.237 1.9095543e-38
1.0095137 -0.50254565 2.2221088 1.9095543e-38
-0.34044263 -0.4633233 2.2170916 1.9095543e-38
-0.31027716 -0.46624652 2.2292998 1.9095543e-38
-0.27909237 -0.45592189 2.237 1.9095543e-38
0.99613267 -0.45399025 2.2318823 1.9095543e-38
1.0065259 -0.46926206 2.2258637 1.9095543e-38
0.98629069 -0.41470307 2.2262743 1.9095543e-38
0.9565838 -0.36218095 2.237 1.9095543e-38
0.97906619 -0.37872955 2.2248976 1.9095543e-38
0.95474106 -0.33259845 2.2338331 1.9095543e-38
0.97368461 -0.34259036 2.2253389 1.9095543e-38
0.9512738 -0.29904598 2.2296197 1.9095543e-38
0.96836823 -0.30179074 2.2152684 1.9095543e-38
0.91823518 -0.26844001 2.237 1.9095543e-38
0.93722248 -0.26203662 2.2191212 1.9095543e-38
0.96750557 -0.2701216 2.2080002 1.9095543e-38
0.92945051 -0.23816097 2.2130003 1.9095543e-38
0.019174285 -0.040479045 2.237 1.9095543e-38
0.02193002 -0.015892463 2.2319999 1.9095543e-38
0.041899364 -0.007101587 2.237 1.9095543e-38
0.025163086 0.020756755 2.2175424 1.9095543e-38
0.05005848 0.021043558 2.2296953 1.9095543e-38
0.027503578 0.059370507 2.2082887 1.9095543e-38
0.059121337 0.060841899 2.2247479 1.9095543e-38
0.083088569 0.07030572 2.237 1.9095543e-38
0.030942045 0.08621715 2.2080002 1.9095543e-38
0.065540828 0.097353801 2.2123773 1.9095543e-38
0.095067866 0.10404208 2.2300348 1.9095543e-38
0.12910686 0.11163695 2.2369998 1.9095543e-38
0.073900416 0.13187921 2.2080002 1.9095543e-38
0.099836841 0.13939825 2.2171445 1.9095543e-38
0.13540286 0.14458071 2.2355261 1.9095543e-38
0.10791925 0.17832506 2.2112999 1.9095543e-38
0.14061709 0.17930079 2.2201114 1.9095543e-38
0.17201281 0.18998292 2.2369998 1.9095543e-38
0.11209847 0.20947692 2.2080002 1.9095543e-38
0.14720097 0.21549673 2.2156415 1.9095543e-38
0.17777418 0.22159888 2.2302499 1.9095543e-38
0.18538536 0.25733438 2.2211895 1.9095543e-38
0.20873816 0.26421499 2.2357998 1.9095543e-38
0.1923092 0.2952638 2.2125652 1.9095543e-38
0.21680067 0.30256912 2.2288592 1.9095543e-38
0.24457864 0.30891904 2.2369998 1.9095543e-38
0.19766858 0.32594287 2.2080002 1.9095543e-38
0.20839839 0.3259984 2.2165713 1.9095543e-38
-0.48725089 -0.72863418 2.2520003 1.9095543e-38
-0.4707537 -0.72823179 2.252934 1.9095543e-38
-0.41393909 -0.72278476 2.2520003 1.9095543e-38
-0.36532447 -0.72421467 2.2520003 1.9095543e-38
-0.35817525 -0.72278476 2.2520001 1.9095543e-38
-0.48578855 -0.71420574 2.2520001 1.9095543e-38
-0.4707323 -0.70528358 2.2519999 1.9095543e-38
-0.41637951 -0.70473516 2.2559292 1.9095543e-38
-0.38033411 -0.70908773 2.2614279 1.9095543e-38
-0.34296322 -0.7073195 2.2585707 1.9095543e-38
-0.29885197 -0.71233749 2.2607496 1.9095543e-38
-0.26003227 -0.69895458 2.2607901 1.9095543e-38
-0.2209049 -0.69274491 2.2607496 1.9095543e-38
-0.18012387 -0.6994437 2.2600319 1.9095543e-38
-0.13970716 -0.69936293 2.2610455 1.9095543e-38
-0.10283986 -0.69558448 2.2612445 1.9095543e-38
-0.059244018 -0.69219941 2.2578537 1.9095543e-38
-0.01980347 -0.68940949 2.2547994 1.9095543e-38
0.018038666 -0.68867069 2.2547996 1.9095543e-38
0.062278103 -0.68674034 2.2547998 1.9095543e-38
0.098673657 -0.68684256 2.2566667 1.9095543e-38
-0.41145238 -0.66513896 2.2554994 1.9095543e-38
-0.39026371 -0.65914005 2.2628882 1.9095543e-38
