# .PCD v0.7 - Point Cloud Data file format
VERSION 0.7
FIELDS x y z rgb
SIZE 4 4 4 4
TYPE F F F F
COUNT 1 1 1 1
WIDTH 1013
HEIGHT 1
VIEWPOINT 0 0 0 1 0 0 0
POINTS 1013
DATA ascii
-0.61287838 0.25789595 1.7260405 7.2501529e-39
-0.57936251 0.25837645 1.7337588 7.2501529e-39
-0.54328215 0.26340994 1.7522179 7.2501529e-39
-0.5162127 0.27545702 1.7590001 7.2501529e-39
-0.61945957 0.28470522 1.7229998 7.2501529e-39
-0.57087237 0.29307184 1.7240674 7.2501529e-39
-0.54129827 0.29987562 1.7395928 7.2501529e-39
-0.50648987 0.30469081 1.7566574 7.2501529e-39
-0.47007185 0.31594989 1.7590001 7.2501529e-39
-0.53054535 0.33720866 1.7327197 7.2501529e-39
-0.50050813 0.34169847 1.7463789 7.2501529e-39
-0.46414077 0.34447184 1.7587909 7.2501529e-39
-0.52765739 0.36848497 1.7229997 7.2501529e-39
-0.49584505 0.37796658 1.7321874 7.2501529e-39
-0.4603869 0.37998801 1.7497413 7.2501529e-39
-0.43175474 0.38623604 1.7553186 7.2501529e-39
-0.49069148 0.4135704 1.72552 7.2501529e-39
-0.45941326 0.41992435 1.7380739 7.2501529e-39
-0.42512074 0.42163134 1.7504923 7.2501529e-39
-0.45336744 0.45186198 1.7279739 7.2501529e-39
-0.41992801 0.46021292 1.7417189 7.2501529e-39
-0.39040849 0.46572524 1.7533586 7.2501529e-39
-0.41066504 0.49705541 1.7300117 7.2501529e-39
-0.38228118 0.50202745 1.7447118 7.2501529e-39
-0.34808025 0.5110929 1.7510719 7.2501529e-39
-0.40438029 0.52891713 1.7266817 7.2501529e-39
-0.37891373 0.53910267 1.7359254 7.2501529e-39
-0.34771007 0.54163396 1.7435577 7.2501529e-39
-0.36908916 0.57379425 1.7295891 7.2501529e-39
-0.34716213 0.58043683 1.7303277 7.2501529e-39
-0.36517742 0.60383219 1.72525 7.2501529e-39
-0.34347138 0.61245197 1.7256306 7.2501529e-39
-0.80434781 0.67686898 1.7428001 7.2501529e-39
-0.786098 0.66040272 1.7365001 7.2501529e-39
-0.75483811 0.6448943 1.723 7.2501529e-39
-0.8152312 0.70069551 1.7453822 7.2501529e-39
-0.78929734 0.70030379 1.7306361 7.2501529e-39
-0.81249052 0.7253781 1.7590001 7.2501529e-39
-0.79490054 0.72621572 1.7590001 7.2501529e-39
-0.72744006 0.720842 1.7320001 7.2501529e-39
-1.0821286 -0.60004288 1.7950001 7.2501529e-39
-1.0718715 -0.60118258 1.7950001 7.2501529e-39
-1.0821286 -0.57952863 1.7950001 7.2501529e-39
-1.0682815 -0.57234854 1.7950001 7.2501529e-39
-1.0821286 -0.5487572 1.7950002 7.2501529e-39
-1.0650105 -0.53932226 1.7927254 7.2501529e-39
-1.0576029 -0.50103194 1.7819668 7.2501529e-39
-1.0353744 -0.49986354 1.7900213 7.2501529e-39
-1.0526718 -0.46328682 1.7711767 7.2501529e-39
-1.0283576 -0.45756629 1.7813598 7.2501529e-39
-0.98468578 -0.44618574 1.7950001 7.2501529e-39
-1.0157895 -0.42323056 1.7789165 7.2501529e-39
-0.9873172 -0.41689062 1.7879879 7.2501529e-39
-1.0033308 -0.39163604 1.7710001 7.2501529e-39
-0.98026425 -0.38058704 1.7793918 7.2501529e-39
-0.95220947 -0.37455171 1.7887325 7.2501529e-39
-0.97336322 -0.3505846 1.7741135 7.2501529e-39
-0.94110262 -0.33927232 1.7830412 7.2501529e-39
-0.90646756 -0.33436123 1.7910526 7.2501529e-39
-0.93324196 -0.3036994 1.7755623 7.2501529e-39
-0.89937466 -0.29883456 1.7849076 7.2501529e-39
-0.87482822 -0.28569949 1.7920001 7.2501529e-39
-0.92104387 -0.2761448 1.7680001 7.2501529e-39
-0.89825296 -0.26200861 1.7720075 7.2501529e-39
-0.86765873 -0.25695378 1.7849799 7.2501529e-39
-0.88684481 -0.22848243 1.7686434 7.2501529e-39
-0.86017543 -0.21956289 1.7808877 7.2501529e-39
-0.83798629 -0.20697153 1.7933638 7.2501529e-39
-0.85204273 -0.18203966 1.771086 7.2501529e-39
-0.82287806 -0.17453413 1.7831908 7.2501529e-39
-0.84662765 -0.14796992 1.7680002 7.2501529e-39
-0.81860304 -0.14066708 1.7783087 7.2501529e-39
-0.78301936 -0.13117741 1.7929994 7.2501529e-39
-0.8114776 -0.1031921 1.7713611 7.2501529e-39
-0.78206861 -0.096722476 1.7861367 7.2501529e-39
-0.74415582 -0.082740963 1.7950001 7.2501529e-39
-0.80486101 -0.074087627 1.7679999 7.2501529e-39
-0.77543312 -0.064402379 1.7740284 7.2501529e-39
-0.7415086 -0.058482505 1.7873638 7.2501529e-39
-0.71710449 -0.054623354 1.7950001 7.2501529e-39
-0.77115417 -0.026114352 1.7679996 7.2501529e-39
-0.7380833 -0.022313561 1.7743125 7.2501529e-39
-0.71004128 -0.017128807 1.7910432 7.2501529e-39
-0.67013335 -0.0017095238 1.7950001 7.2501529e-39
-0.72812736 0.010984855 1.768 7.2501529e-39
-0.69911051 0.018936444 1.7799063 7.2501529e-39
-0.66909713 0.022932651 1.7939662 7.2501529e-39
-0.62625563 0.038179368 1.7950001 7.2501529e-39
-0.68712503 0.055499256 1.7686589 7.2501529e-39
-0.66040844 0.06105867 1.7821662 7.2501529e-39
-0.61908853 0.065554224 1.7912419 7.2501529e-39
-0.59662384 0.07009048 1.7950001 7.2501529e-39
-0.65202463 0.095123082 1.7723998 7.2501529e-39
-0.61859733 0.10105788 1.7845286 7.2501529e-39
-0.58356327 0.10525601 1.7936538 7.2501529e-39
-0.64465857 0.1332615 1.7679999 7.2501529e-39
-0.61887681 0.13742974 1.7708435 7.2501529e-39
-0.58109593 0.14073634 1.7864159 7.2501529e-39
-0.55123037 0.14570166 1.794117 7.2501529e-39
-0.62076449 0.16332954 1.768 7.2501529e-39
-0.57524312 0.17573681 1.7724589 7.2501529e-39
-0.54336548 0.18166594 1.7898556 7.2501529e-39
-0.51542145 0.19488572 1.7950001 7.2501529e-39
-0.53342462 0.21624115 1.7793845 7.2501529e-39
-0.50359499 0.22649671 1.7925097 7.2501529e-39
-0.47543758 0.22812648 1.7950001 7.2501529e-39
-0.52825272 0.25105056 1.7718866 7.2501529e-39
-0.49972308 0.2599698 1.7835913 7.2501529e-39
-0.46275502 0.26291686 1.7920529 7.2501529e-39
-0.43729621 0.27660099 1.7950001 7.2501529e-39
-0.49189726 0.29427311 1.7754246 7.2501529e-39
-0.45951006 0.30027801 1.780611 7.2501529e-39
-0.43255115 0.30221167 1.7927918 7.2501529e-39
-0.48409528 0.3296057 1.7679999 7.2501529e-39
-0.45705885 0.33799651 1.7717702 7.2501529e-39
-0.42283487 0.3423363 1.7859987 7.2501529e-39
-0.39722735 0.35244986 1.7910625 7.2501529e-39
-0.44508502 0.3616336 1.7702501 7.2501529e-39
-0.41755095 0.37807107 1.7774907 7.2501529e-39
-0.38627923 0.38359711 1.7898564 7.2501529e-39
-0.33473545 0.39273703 1.7914001 7.2501529e-39
-0.4069021 0.41666237 1.7715356 7.2501529e-39
-0.38052753 0.42116761 1.7819395 7.2501529e-39
-0.34329328 0.42321825 1.7896289 7.2501529e-39
-0.40411431 0.44284195 1.7680001 7.2501529e-39
-0.37467304 0.45735282 1.7738373 7.2501529e-39
-0.34819123 0.4596504 1.7816513 7.2501529e-39
-0.36767215 0.49045941 1.7733518 7.2501529e-39
-0.34879202 0.49478981 1.7756879 7.2501529e-39
-0.84022099 0.67689145 1.7680001 7.2501529e-39
-0.83348578 0.67453414 1.7679999 7.2501529e-39
-0.84022099 0.68194288 1.7680001 7.2501529e-39
-0.83264387 0.70046484 1.7680001 7.2501529e-39
-1.0630773 -0.66830343 1.7990272 7.2501529e-39
-1.0764887 -0.69816136 1.8210371 7.2501529e-39
-1.0890241 -0.66183364 1.8219434 7.2501529e-39
-1.074273 -0.65734625 1.8252499 7.2501529e-39
-1.089345 -0.62328297 1.8157649 7.2501529e-39
-1.0682088 -0.61813909 1.8216386 7.2501529e-39
-1.0822623 -0.58531499 1.8045267 7.2501529e-39
-1.0597609 -0.5803988 1.8153124 7.2501529e-39
-1.0357062 -0.56707746 1.8306 7.2501529e-39
-1.0489943 -0.54418296 1.8124219 7.2501529e-39
-1.0235655 -0.53572142 1.824 7.2501529e-39
-0.99505723 -0.5237143 1.8330001 7.2501529e-39
-1.0417544 -0.485461 1.8140001 7.2501529e-39
-1.0186312 -0.4996976 1.8126612 7.2501529e-39
-0.98776841 -0.4967165 1.8266515 7.2501529e-39
-1.0136259 -0.46372545 1.8083822 7.2501529e-39
-0.97965807 -0.45842224 1.8165321 7.2501529e-39
-0.94475245 -0.45207134 1.8295712 7.2501529e-39
-0.91940951 -0.45155808 1.8330001 7.2501529e-39
-0.97142887 -0.42352793 1.8117778 7.2501529e-39
-0.94121909 -0.42015812 1.8199604 7.2501529e-39
-0.91477162 -0.41552985 1.828132 7.2501529e-39
-0.96213341 -0.39688003 1.8040001 7.2501529e-39
-0.93645656 -0.38245153 1.810605 7.2501529e-39
-0.90230584 -0.37824267 1.8208821 7.2501529e-39
-0.92981684 -0.34697348 1.8040005 7.2501529e-39
-0.89375478 -0.3448011 1.8129064 7.2501529e-39
-0.87304282 -0.33101273 1.8242611 7.2501529e-39
-0.88447553 -0.30771086 1.8040005 7.2501529e-39
-0.86151284 -0.29944339 1.8160927 7.2501529e-39
-0.83267182 -0.29356918 1.8279535 7.2501529e-39
-0.85052234 -0.26155496 1.8100467 7.2501529e-39
-0.8232978 -0.25695014 1.8239758 7.2501529e-39
-0.78242916 -0.24614571 1.8330001 7.2501529e-39
-0.84317017 -0.22762351 1.8073337 7.2501529e-39
-0.81839675 -0.21994701 1.8154521 7.2501529e-39
-0.78392792 -0.21391356 1.8309451 7.2501529e-39
-0.81183809 -0.1866753 1.8066996 7.2501529e-39
-0.78202903 -0.18001288 1.8233036 7.2501529e-39
-0.75105029 -0.1750105 1.832654 7.2501529e-39
-0.80320954 -0.15205143 1.804 7.2501529e-39
-0.77766871 -0.14371677 1.8056197 7.2501529e-39
-0.74323112 -0.1382698 1.8239088 7.2501529e-39
-0.71661574 -0.12481857 1.8330001 7.2501529e-39
-0.77426338 -0.10906173 1.8040007 7.2501529e-39
-0.73676264 -0.1029349 1.8094864 7.2501529e-39
-0.71043456 -0.0916292 1.8253055 7.2501529e-39
-0.72675431 -0.076455243 1.8040001 7.2501529e-39
-0.7010445 -0.06123656 1.8201216 7.2501529e-39
-0.664931 -0.051527482 1.8317041 7.2501529e-39
-0.63439256 -0.044690281 1.8330001 7.2501529e-39
-0.69277239 -0.023519315 1.8082702 7.2501529e-39
-0.66200125 -0.018841181 1.8239255 7.2501529e-39
-0.62333268 -0.015001461 1.8304112 7.2501529e-39
-0.59284467 -0.0038405713 1.8330001 7.2501529e-39
-0.65478963 0.018541226 1.8093973 7.2501529e-39
-0.61842144 0.021021567 1.8186513 7.2501529e-39
-0.58481199 0.024530951 1.8277035 7.2501529e-39
-0.55513716 0.036660001 1.8330001 7.2501529e-39
-0.64291131 0.048450287 1.8040001 7.2501529e-39
-0.61476058 0.050559882 1.8086674 7.2501529e-39
-0.57976353 0.060455795 1.8240961 7.2501529e-39
-0.54647076 0.065509982 1.8328677 7.2501529e-39
-0.57340229 0.09276516 1.8136003 7.2501529e-39
-0.54215497 0.10121182 1.8254353 7.2501529e-39
-0.50761497 0.11211368 1.8329999 7.2501529e-39
-0.56525338 0.12484827 1.8040001 7.2501529e-39
-0.53438354 0.13848698 1.8102299 7.2501529e-39
-0.50052035 0.14114839 1.8288962 7.2501529e-39
-0.47271314 0.1474293 1.832036 7.2501529e-39
-0.5254519 0.17316318 1.8050007 7.2501529e-39
-0.49993107 0.17942989 1.8164113 7.2501529e-39
-0.46325943 0.18268652 1.8258905 7.2501529e-39
-0.43817428 0.1937743 1.8330001 7.2501529e-39
-0.52058291 0.20101716 1.8040001 7.2501529e-39
-0.49765423 0.21132149 1.8064598 7.2501529e-39
-0.46002826 0.21896027 1.8161267 7.2501529e-39
-0.43028063 0.22727309 1.8280565 7.2501529e-39
-0.48622099 0.24225144 1.8040001 7.2501529e-39
-0.44957346 0.2503404 1.8084006 7.2501529e-39
-0.42087615 0.26102608 1.8203193 7.2501529e-39
-0.39661431 0.27072084 1.8298236 7.2501529e-39
-0.41488352 0.29888347 1.8114773 7.2501529e-39
-0.3881205 0.3044557 1.8252022 7.2501529e-39
-0.34285074 0.31019565 1.832036 7.2501529e-39
-0.40842119 0.3300778 1.8056673 7.2501529e-39
-0.37910679 0.33953133 1.817389 7.2501529e-39
-0.34544134 0.34260643 1.8227807 7.2501529e-39
-0.37103233 0.37351933 1.8086385 7.2501529e-39
-0.34657624 0.3779766 1.813091 7.2501529e-39
-0.36439243 0.40875053 1.8040003 7.2501529e-39
-0.35206571 0.41308355 1.8072504 7.2501529e-39
-0.84390008 0.6954124 1.827 7.2501529e-39
-0.83645386 0.69373 1.8165002 7.2501529e-39
-0.95024633 -0.41333914 1.6697298 7.2501529e-39
-0.8479771 -0.2745266 1.6908003 7.2501529e-39
-1.0852102 -0.7027868 1.8510002 7.2501529e-39
-1.0690335 -0.69897306 1.8613336 7.2501529e-39
-1.0587043 -0.65961856 1.8550134 7.2501529e-39
-1.0285538 -0.64879578 1.8676342 7.2501529e-39
-1.0523345 -0.62137526 1.8525696 7.2501529e-39
-1.0224819 -0.61789078 1.8661314 7.2501529e-39
-0.99625766 -0.60381955 1.8730001 7.2501529e-39
-1.0517381 -0.59010607 1.8464284 7.2501529e-39
-1.0193917 -0.58034641 1.8544283 7.2501529e-39
-0.98743373 -0.57727766 1.8673216 7.2501529e-39
-1.0114641 -0.54921073 1.8488179 7.2501529e-39
-0.98076504 -0.54009277 1.8595482 7.2501529e-39
-0.94575959 -0.53679109 1.8681227 7.2501529e-39
-0.97185403 -0.50139654 1.8497899 7.2501529e-39
-0.93873525 -0.4993147 1.8591069 7.2501529e-39
-0.91108072 -0.49210843 1.8730009 7.2501529e-39
-0.97014076 -0.47779664 1.8475456 7.2501529e-39
-0.93633217 -0.46646222 1.8481616 7.2501529e-39
-0.90101689 -0.45666084 1.8554029 7.2501529e-39
-0.87562108 -0.45138279 1.8710006 7.2501529e-39
-0.89580131 -0.42166477 1.84828 7.2501529e-39
-0.86748618 -0.41589636 1.8657911 7.2501529e-39
-0.88686496 -0.38752401 1.8442117 7.2501529e-39
-0.85894954 -0.38023609 1.8568362 7.2501529e-39
-0.83515185 -0.37145847 1.8717504 7.2501529e-39
-0.88288486 -0.35631335 1.8430002 7.2501529e-39
-0.85676849 -0.34285825 1.8465945 7.2501529e-39
-0.82287735 -0.33563372 1.8634677 7.2501529e-39
-0.79311579 -0.33136383 1.8730007 7.2501529e-39
-0.85129064 -0.31623536 1.8430003 7.2501529e-39
-0.81706953 -0.30240536 1.8544734 7.2501529e-39
-0.78434414 -0.29490089 1.866053 7.2501529e-39
-0.81001228 -0.26810679 1.84475 7.2501529e-39
-0.77985179 -0.25983134 1.8563808 7.2501529e-39
-0.74898338 -0.24591921 1.8726304 7.2501529e-39
-0.80284595 -0.23204248 1.8430001 7.2501529e-39
-0.77499771 -0.22402422 1.8456749 7.2501529e-39
-0.74135709 -0.2183487 1.8644607 7.2501529e-39
-0.71292931 -0.21096529 1.873001 7.2501529e-39
-0.79512286 -0.19834191 1.8430001 7.2501529e-39
-0.7353307 -0.18310753 1.8526498 7.2501529e-39
-0.70607066 -0.17956902 1.8701148 7.2501529e-39
-0.66250694 -0.16803487 1.8730001 7.2501529e-39
-0.72707862 -0.14909616 1.8440524 7.2501529e-39
-0.70053369 -0.13973363 1.8574827 7.2501529e-39
-0.66398948 -0.13561815 1.871905 7.2501529e-39
-0.63384712 -0.12873161 1.8730005 7.2501529e-39
-0.69618672 -0.10368745 1.8458425 7.2501529e-39
-0.66113716 -0.10130588 1.8587246 7.2501529e-39
-0.62319851 -0.096815161 1.8680009 7.2501529e-39
-0.59400862 -0.085760072 1.8730006 7.2501529e-39
-0.68454289 -0.075475246 1.8430002 7.2501529e-39
-0.65645754 -0.067277744 1.8451803 7.2501529e-39
-0.62022883 -0.06092814 1.8589222 7.2501529e-39
-0.58805257 -0.055600252 1.8698925 7.2501529e-39
-0.55833238 -0.04102762 1.8730001 7.2501529e-39
-0.64698082 -0.032296386 1.8430003 7.2501529e-39
-0.6124267 -0.027531238 1.8519998 7.2501529e-39
-0.57953352 -0.01979905 1.8608476 7.2501529e-39
-0.54630303 -0.014125139 1.8691974 7.2501529e-39
-0.49768287 -0.0017838096 1.8730001 7.2501529e-39
-0.57270396 0.012079916 1.8519468 7.2501529e-39
-0.54172307 0.02034392 1.8611351 7.2501529e-39
-0.50117135 0.027983427 1.8718342 7.2501529e-39
-0.47984478 0.032108575 1.8730001 7.2501529e-39
-0.53323752 0.055095181 1.8502723 7.2501529e-39
-0.50033456 0.060417891 1.8624496 7.2501529e-39
-0.46922833 0.064997867 1.8706599 7.2501529e-39
-0.43703336 0.074920006 1.8730001 7.2501529e-39
-0.52370232 0.092256516 1.8441768 7.2501529e-39
-0.49907291 0.098409057 1.8506268 7.2501529e-39
-0.46029493 0.10011407 1.8622923 7.2501529e-39
-0.4307825 0.10309005 1.8643203 7.2501529e-39
-0.4987973 0.12792587 1.8430003 7.2501529e-39
-0.45798266 0.13870537 1.85341 7.2501529e-39
-0.4205181 0.14113875 1.8661597 7.2501529e-39
-0.39689764 0.14984001 1.8730001 7.2501529e-39
-0.44674408 0.1732316 1.8435551 7.2501529e-39
-0.41988885 0.17991611 1.8567337 7.2501529e-39
-0.38830021 0.18513617 1.8701434 7.2501529e-39
-0.44056478 0.20711809 1.8430001 7.2501529e-39
-0.41547227 0.21685432 1.8475363 7.2501529e-39
-0.38045856 0.22035882 1.8619665 7.2501529e-39
-0.35223064 0.23232646 1.8606474 7.2501529e-39
-0.40646297 0.24523182 1.8430004 7.2501529e-39
-0.37901586 0.25919712 1.8520718 7.2501529e-39
-0.34599882 0.26295429 1.8522958 7.2501529e-39
-0.37187326 0.29702836 1.849233 7.2501529e-39
-0.34944904 0.29533103 1.8462691 7.2501529e-39
-0.35572827 0.32471907 1.8430002 7.2501529e-39
-0.85620099 0.70903933 1.8555 7.2501529e-39
-0.88298577 0.72422671 1.8730001 7.2501529e-39
-0.87941819 0.72244292 1.8730001 7.2501529e-39
-0.95966768 -0.50745988 1.8289443 7.2501529e-39
-1.0347925 -0.72899324 1.9125559 7.2501529e-39
0.8772524 -0.756881 1.9150001 7.2501529e-39
0.89062709 -0.756881 1.9150002 7.2501529e-39
0.92467147 -0.756881 1.9150001 7.2501529e-39
-1.0526696 -0.70367593 1.8883362 7.2501529e-39
-1.0260938 -0.69818521 1.9034457 7.2501529e-39
-0.98424923 -0.68028104 1.9150002 7.2501529e-39
-1.0441923 -0.67373359 1.8842225 7.2501529e-39
-1.0147625 -0.6610893 1.8928634 7.2501529e-39
-0.98275679 -0.65532047 1.91001 7.2501529e-39
-0.95536053 -0.64136463 1.9131668 7.2501529e-39
-1.0080855 -0.63022387 1.8856549 7.2501529e-39
-0.98160249 -0.6183691 1.8945956 7.2501529e-39
-0.94791186 -0.61552662 1.9057869 7.2501529e-39
-0.9729377 -0.58400077 1.8863401 7.2501529e-39
-0.9413625 -0.57981479 1.8933548 7.2501529e-39
-0.90696359 -0.57235229 1.9093806 7.2501529e-39
-0.92985582 -0.54398793 1.8853161 7.2501529e-39
-0.90122318 -0.53852302 1.8995343 7.2501529e-39
-0.8701598 -0.52829683 1.9150006 7.2501529e-39
-0.92571872 -0.5146867 1.8830003 7.2501529e-39
-0.89617103 -0.50146478 1.8842217 7.2501529e-39
-0.86220574 -0.49900356 1.9005662 7.2501529e-39
-0.89037853 -0.47438139 1.8834999 7.2501529e-39
-0.85745037 -0.46206349 1.894969 7.2501529e-39
-0.8240279 -0.4523074 1.9112433 7.2501529e-39
-0.85169542 -0.4250873 1.8844154 7.2501529e-39
-0.81951988 -0.42069092 1.9019928 7.2501529e-39
-0.79039568 -0.41780841 1.9143271 7.2501529e-39
-0.84197009 -0.38556668 1.8830001 7.2501529e-39
-0.8202368 -0.38104361 1.8875065 7.2501529e-39
-0.78524482 -0.37978992 1.9049989 7.2501529e-39
-0.81544042 -0.35141641 1.8843749 7.2501529e-39
-0.77723533 -0.34157628 1.8990353 7.2501529e-39
-0.74785602 -0.33693308 1.9146458 7.2501529e-39
-0.7713899 -0.30687773 1.8877548 7.2501529e-39
-0.7430805 -0.29810387 1.9055557 7.2501529e-39
-0.71067786 -0.28836456 1.9150006 7.2501529e-39
-0.76379699 -0.26981521 1.8830001 7.2501529e-39
-0.73809713 -0.26392725 1.8918542 7.2501529e-39
-0.70613736 -0.25549519 1.9086845 7.2501529e-39
-0.65925926 -0.25091776 1.9150007 7.2501529e-39
-0.72834963 -0.23748858 1.8830004 7.2501529e-39
-0.6982581 -0.22344729 1.8989137 7.2501529e-39
-0.66049677 -0.2172838 1.9119434 7.2501529e-39
-0.63286191 -0.20452721 1.9150002 7.2501529e-39
-0.68899864 -0.18076804 1.8830003 7.2501529e-39
-0.65956247 -0.18026596 1.8905675 7.2501529e-39
-0.62264168 -0.17793278 1.9085404 7.2501529e-39
-0.58909053 -0.16377811 1.9150002 7.2501529e-39
-0.69222671 -0.15960667 1.8830001 7.2501529e-39
-0.65768677 -0.14721152 1.8836484 7.2501529e-39
-0.6169976 -0.13984005 1.8978292 7.2501529e-39
-0.58222216 -0.13657159 1.9124048 7.2501529e-39
-0.55990952 -0.12219524 1.9150001 7.2501529e-39
-0.60950285 -0.10987248 1.8878947 7.2501529e-39
-0.57862604 -0.09986075 1.8993927 7.2501529e-39
-0.54888135 -0.09579017 1.9143238 7.2501529e-39
-0.51116419 -0.086382255 1.9150003 7.2501529e-39
-0.57092535 -0.063410647 1.8876537 7.2501529e-39
-0.54183638 -0.057934657 1.9040232 7.2501529e-39
-0.50590426 -0.05670888 1.91074 7.2501529e-39
-0.56490004 -0.037660003 1.8830001 7.2501529e-39
-0.53330094 -0.025184492 1.8861506 7.2501529e-39
-0.49980268 -0.019418607 1.8978947 7.2501529e-39
-0.47053418 -0.012836694 1.9054724 7.2501529e-39
-0.52441776 0.0063610389 1.8840002 7.2501529e-39
-0.49920696 0.012519675 1.8865895 7.2501529e-39
-0.4637472 0.021579778 1.8931072 7.2501529e-39
-0.45877013 0.056684796 1.885149 7.2501529e-39
-0.43936667 0.069940001 1.8830001 7.2501529e-39
-0.42469308 0.11101972 1.8863001 7.2501529e-39
-0.42322668 0.12015335 1.8830001 7.2501529e-39
-0.39747906 0.15288906 1.8885001 7.2501529e-39
-0.38821274 0.17644806 1.8842225 7.2501529e-39
-0.36404669 0.22416668 1.8830001 7.2501529e-39
-0.89174962 0.73521894 1.8861431 7.2501529e-39
-0.82628757 -0.2010009 1.7973895 7.2501529e-39
-0.86850375 -0.45049641 1.8853128 7.2501529e-39
-1.0448896 -0.75404716 1.9274447 7.2501529e-39
-1.0200629 -0.74133575 1.9371281 7.2501529e-39
-0.97958022 -0.73851192 1.9490337 7.2501529e-39
-0.95165032 -0.72570324 1.9580001 7.2501529e-39
0.63961333 -0.7589581 1.9580001 7.2501529e-39
0.66012573 -0.7589581 1.9580001 7.2501529e-39
0.71658194 -0.75877303 1.9543335 7.2501529e-39
0.74080372 -0.75525832 1.948974 7.2501529e-39
0.78285182 -0.75392532 1.9508822 7.2501529e-39
0.82236862 -0.75474751 1.9428749 7.2501529e-39
0.86217105 -0.74690998 1.9432001 7.2501529e-39
0.89665943 -0.7470926 1.9348754 7.2501529e-39
0.93511271 -0.75407612 1.9405519 7.2501529e-39
0.97138828 -0.75655597 1.9547001 7.2501529e-39
-1.0086548 -0.70435148 1.9299104 7.2501529e-39
-0.97795683 -0.69930822 1.9357067 7.2501529e-39
-0.9437362 -0.69793105 1.9521818 7.2501529e-39
-0.91280091 -0.68763107 1.9580001 7.2501529e-39
-0.97441143 -0.66960031 1.9268333 7.2501529e-39
-0.93861932 -0.65906245 1.9324766 7.2501529e-39
-0.90468436 -0.65557158 1.9494439 7.2501529e-39
-0.93182623 -0.62630129 1.9262869 7.2501529e-39
-0.90159988 -0.62174946 1.9415013 7.2501529e-39
-0.86561441 -0.61385012 1.951847 7.2501529e-39
-0.83727813 -0.60853398 1.9580001 7.2501529e-39
-0.92400002 -0.5995 1.9250001 7.2501529e-39
-0.89546955 -0.58671701 1.9261169 7.2501529e-39
-0.86222982 -0.5792526 1.9444742 7.2501529e-39
-0.82722139 -0.57652301 1.9564071 7.2501529e-39
-0.88550007 -0.55028951 1.9249996 7.2501529e-39
-0.85714072 -0.5421918 1.9330747 7.2501529e-39
-0.82006156 -0.53902346 1.9497248 7.2501529e-39
-0.79575592 -0.53406775 1.9580002 7.2501529e-39
-0.84535491 -0.49999124 1.926833 7.2501529e-39
-0.81956148 -0.50045764 1.9327021 7.2501529e-39
-0.78577238 -0.49863771 1.9530859 7.2501529e-39
-0.84149998 -0.47483334 1.9250001 7.2501529e-39
-0.81434703 -0.46792975 1.9260489 7.2501529e-39
-0.77863044 -0.45917019 1.9411668 7.2501529e-39
-0.74935186 -0.45178089 1.9580001 7.2501529e-39
-0.77203667 -0.42188737 1.9310454 7.2501529e-39
-0.74206454 -0.41773197 1.952588 7.2501529e-39
-0.71793336 -0.40838286 1.9580001 7.2501529e-39
-0.76539922 -0.38354513 1.9295613 7.2501529e-39
-0.74087924 -0.38049176 1.9455451 7.2501529e-39
-0.71103394 -0.37193015 1.955861 7.2501529e-39
-0.72978407 -0.3422887 1.9272611 7.2501529e-39
-0.70297796 -0.33867532 1.9489994 7.2501529e-39
-0.66550684 -0.32984969 1.9579999 7.2501529e-39
-0.72783333 -0.31033334 1.9249996 7.2501529e-39
-0.69680995 -0.30106965 1.9338973 7.2501529e-39
-0.66000569 -0.30009273 1.9502523 7.2501529e-39
-0.62853783 -0.28779489 1.9580001 7.2501529e-39
-0.68912041 -0.26555637 1.9264537 7.2501529e-39
-0.65636694 -0.26481804 1.9327153 7.2501529e-39
-0.62342626 -0.25888479 1.9495162 7.2501529e-39
-0.59328979 -0.25043896 1.9565336 7.2501529e-39
-0.68016672 -0.23283334 1.9250001 7.2501529e-39
-0.65123957 -0.22971842 1.9262221 7.2501529e-39
-0.61993837 -0.22149609 1.9376742 7.2501529e-39
-0.58369672 -0.21714719 1.9521022 7.2501529e-39
-0.55569905 -0.2069886 1.9580001 7.2501529e-39
-0.60793972 -0.18800756 1.9285356 7.2501529e-39
-0.57960707 -0.18097681 1.9409099 7.2501529e-39
-0.5416891 -0.17671181 1.9529488 7.2501529e-39
-0.51052028 -0.16839883 1.9560871 7.2501529e-39
-0.60500002 -0.1595 1.9250001 7.2501529e-39
-0.57095444 -0.14956167 1.9317071 7.2501529e-39
-0.54095793 -0.13974833 1.9426017 7.2501529e-39
-0.5042147 -0.13680333 1.9483596 7.2501529e-39
-0.47737905 -0.12120952 1.9580001 7.2501529e-39
-0.53473628 -0.10544304 1.9323862 7.2501529e-39
-0.49808535 -0.10112211 1.9381458 7.2501529e-39
-0.46778035 -0.097255543 1.9526963 7.2501529e-39
-0.52926928 -0.07516668 1.925 7.2501529e-39
-0.48978525 -0.064749151 1.9314606 7.2501529e-39
-0.46960917 -0.063242026 1.9384649 7.2501529e-39
-0.4834469 -0.037077338 1.9272002 7.2501529e-39
-0.47116667 -0.031166667 1.9249996 7.2501529e-39
-0.85730284 -0.44023991 1.8884164 7.2501529e-39
-0.92507118 -0.64411342 1.9358984 7.2501529e-39
-0.87117594 -0.17802094 1.746551 7.2501529e-39
-0.67758191 0.41138205 1.6165378 7.2501529e-39
0.51136088 -0.69612557 1.9662768 7.2501529e-39
0.66015607 -0.76656061 1.9879004 7.2501529e-39
0.67747325 -0.75075102 1.9789478 7.2501529e-39
0.73023021 -0.76322621 1.9885718 7.2501529e-39
0.82698005 -0.76322198 1.9690001 7.2501529e-39
0.99762672 -0.76322198 1.9690001 7.2501529e-39
-0.96747863 -0.75543255 1.9690001 7.2501529e-39
-0.93878919 -0.74306548 1.9733558 7.2501529e-39
-0.91008502 -0.73488754 1.9861406 7.2501529e-39
0.59111273 -0.75666904 1.9876366 7.2501529e-39
0.60139436 -0.75506288 1.9920001 7.2501529e-39
0.66654426 -0.75449759 1.9859632 7.2501529e-39
0.69834733 -0.75131989 1.9897015 7.2501529e-39
0.74080229 -0.74541461 1.9843233 7.2501529e-39
0.77965492 -0.7430774 1.9841092 7.2501529e-39
0.82233876 -0.74154198 1.982085 7.2501529e-39
0.85832912 -0.73583919 1.9835379 7.2501529e-39
0.90140033 -0.73055029 1.9786708 7.2501529e-39
0.94028991 -0.73946279 1.9765626 7.2501529e-39
0.97871053 -0.73973775 1.9756192 7.2501529e-39
1.0088044 -0.74360222 1.9880002 7.2501529e-39
-0.92798424 -0.70593011 1.9690007 7.2501529e-39
-0.90041673 -0.69788659 1.9785831 7.2501529e-39
-0.85802281 -0.69219548 1.9914777 7.2501529e-39
0.86378378 -0.71784967 1.9920005 7.2501529e-39
0.89335579 -0.71826285 1.9883081 7.2501529e-39
0.95020843 -0.71212375 1.9786285 7.2501529e-39
0.98002523 -0.71431744 1.9827095 7.2501529e-39
1.0113153 -0.71655166 1.9909095 7.2501529e-39
-0.89071 -0.66651654 1.9725879 7.2501529e-39
-0.85957885 -0.65876096 1.9784937 7.2501529e-39
-0.83328295 -0.64992636 1.9890002 7.2501529e-39
-0.8851124 -0.63945621 1.9690001 7.2501529e-39
-0.8568185 -0.62473005 1.9690011 7.2501529e-39
-0.82055479 -0.61805904 1.9780246 7.2501529e-39
-0.79806483 -0.60771811 1.9920003 7.2501529e-39
-0.85323334 -0.57194769 1.9690002 7.2501529e-39
-0.80946791 -0.58373821 1.9738265 7.2501529e-39
-0.7887795 -0.57620943 1.9874187 7.2501529e-39
-0.77828151 -0.54162967 1.9787077 7.2501529e-39
-0.75208467 -0.52385372 1.9872001 7.2501529e-39
-0.76928759 -0.50199002 1.9693555 7.2501529e-39
-0.74810529 -0.49885228 1.981074 7.2501529e-39
-0.76322198 -0.45943335 1.9690001 7.2501529e-39
-0.73886514 -0.46324629 1.9744834 7.2501529e-39
-0.70331955 -0.45108747 1.9890417 7.2501529e-39
-0.67728001 -0.4420343 1.9920001 7.2501529e-39
-0.72407639 -0.42544463 1.969 7.2501529e-39
-0.70110637 -0.41962785 1.9849919 7.2501529e-39
-0.66951501 -0.41309187 1.9919996 7.2501529e-39
-0.72196674 -0.39942575 1.9690001 7.2501529e-39
-0.69542718 -0.38338584 1.9749787 7.2501529e-39
-0.66301966 -0.37746099 1.9883219 7.2501529e-39
-0.63607347 -0.36366859 1.9902861 7.2501529e-39
-0.69016916 -0.34952807 1.9690005 7.2501529e-39
-0.65524906 -0.34434026 1.9737411 7.2501529e-39
-0.62411398 -0.33632937 1.9902189 7.2501529e-39
-0.64317101 -0.31050593 1.9712 7.2501529e-39
-0.6164211 -0.30315039 1.9762807 7.2501529e-39
-0.58925533 -0.29282254 1.9906362 7.2501529e-39
-0.53689146 -0.29216 1.9920001 7.2501529e-39
-0.60623908 -0.27451143 1.9730002 7.2501529e-39
-0.57770878 -0.26155072 1.9825922 7.2501529e-39
-0.54111832 -0.25126567 1.9916238 7.2501529e-39
-0.5119915 -0.24591717 1.9920005 7.2501529e-39
-0.56988454 -0.2314997 1.9713339 7.2501529e-39
-0.53965652 -0.21972716 1.9802731 7.2501529e-39
-0.5067181 -0.21781234 1.9863155 7.2501529e-39
-0.53382337 -0.19261669 1.9705003 7.2501529e-39
-0.49783826 -0.18153685 1.9787812 7.2501529e-39
-0.46934336 -0.17204577 1.9914993 7.2501529e-39
1.0249741 -0.18519555 1.9867829 7.2501529e-39
-0.48966691 -0.14585975 1.9737508 7.2501529e-39
-0.46029928 -0.13947578 1.9825815 7.2501529e-39
-0.43123242 -0.14189295 1.9900004 7.2501529e-39
-0.45772031 -0.11123081 1.9699436 7.2501529e-39
-0.05027429 0.39365715 1.9920001 7.2501529e-39
-0.05044676 0.41952732 1.9919996 7.2501529e-39
-0.032721948 0.42031536 1.9912335 7.2501529e-39
-0.83168781 -0.11101674 1.7452388 7.2501529e-39
-0.72779709 -0.066346869 1.7900324 7.2501529e-39
-0.63734716 -0.075923376 1.8447946 7.2501529e-39
-0.8026669 -0.49954766 1.942894 7.2501529e-39
-0.48976898 -0.62856352 1.987626 7.2501529e-39
-0.42038408 -0.51711369 1.9859848 7.2501529e-39
-0.62226468 -0.24007869 1.9413779 7.2501529e-39
-0.35546574 -0.49792609 1.8588796 7.2501529e-39
-0.85396785 -0.1029795 1.7309548 7.2501529e-39
-0.75101036 0.02980555 1.7422473 7.2501529e-39
-0.67982304 0.11510354 1.7440391 7.2501529e-39
-0.62133747 0.18179873 1.7494414 7.2501529e-39
-0.55691057 0.43900967 1.6601547 7.2501529e-39
-0.89947915 -0.63697636 1.9575671 7.2501529e-39
-0.89771092 -0.77281058 2.0192063 7.2501529e-39
-0.85784161 -0.77819961 2.0261905 7.2501529e-39
-0.83386612 -0.77820718 2.0373454 7.2501529e-39
-0.059089385 -0.79562604 2.0389998 7.2501529e-39
-0.006527706 -0.79585236 2.036818 7.2501529e-39
-0.0014485208 -0.7625429 2.0269375 7.2501529e-39
0.05965507 -0.79501367 2.0385866 7.2501529e-39
0.084612675 -0.76682025 2.0222116 7.2501529e-39
0.034329765 -0.71971685 2.0009618 7.2501529e-39
0.0050495085 -0.7083047 2.0056279 7.2501529e-39
0.058836058 -0.6872713 2.0068293 7.2501529e-39
0.12093791 -0.65746182 2.0000088 7.2501529e-39
0.16977653 -0.61865038 1.9837689 7.2501529e-39
0.18522011 -0.60195315 1.9783603 7.2501529e-39
0.25504416 -0.65683389 1.9871887 7.2501529e-39
0.38948721 -0.7719959 2.0134375 7.2501529e-39
0.45912808 -0.77137262 2.0162637 7.2501529e-39
0.50021136 -0.77147061 2.0168359 7.2501529e-39
0.54018521 -0.77283001 2.0147562 7.2501529e-39
0.57171571 -0.77120358 2.0121522 7.2501529e-39
0.62389344 -0.76395255 2.0068395 7.2501529e-39
0.65280974 -0.76510113 2.0054002 7.2501529e-39
0.69564509 -0.76368344 2.0030003 7.2501529e-39
0.72680283 -0.76113999 2.003 7.2501529e-39
1.0351793 -0.76361471 2.0045002 7.2501529e-39
1.0457398 -0.76438731 2.0115716 7.2501529e-39
-0.89289802 -0.74026781 2.00862 7.2501529e-39
-0.85697472 -0.74186933 2.0139813 7.2501529e-39
-0.82230526 -0.73321915 2.0342388 7.2501529e-39
0.34371716 -0.75928479 2.039 7.2501529e-39
0.38255525 -0.75928485 2.039 7.2501529e-39
0.42629671 -0.75655961 2.0300004 7.2501529e-39
0.4636938 -0.75864595 2.033 7.2501529e-39
0.4861235 -0.75799024 2.039 7.2501529e-39
0.53604096 -0.75732481 2.003 7.2501529e-39
0.58366019 -0.74840689 2.0190673 7.2501529e-39
0.62004316 -0.75240016 2.0267155 7.2501529e-39
0.66104591 -0.74154264 2.0225267 7.2501529e-39
0.70307457 -0.74316901 2.0268209 7.2501529e-39
0.73732233 -0.73471028 2.0274241 7.2501529e-39
0.78022224 -0.7284435 2.0247502 7.2501529e-39
0.81732363 -0.72640359 2.0231085 7.2501529e-39
0.85637689 -0.72271854 2.021667 7.2501529e-39
0.90792054 -0.72299349 2.0167146 7.2501529e-39
0.93833816 -0.72536957 2.0145383 7.2501529e-39
1.0286123 -0.74244946 2.0083327 7.2501529e-39
1.0467268 -0.73797834 2.0164115 7.2501529e-39
-0.88732928 -0.7106275 2.0084188 7.2501529e-39
-0.85556924 -0.70412982 2.0053563 7.2501529e-39
-0.81995755 -0.69847035 2.0154579 7.2501529e-39
-0.79126185 -0.69054735 2.0339684 7.2501529e-39
0.78727174 -0.71251333 2.0338571 7.2501529e-39
0.82105523 -0.71010768 2.0355392 7.2501529e-39
0.86393064 -0.70815802 2.0294011 7.2501529e-39
0.90075094 -0.70325094 2.0250707 7.2501529e-39
0.93936473 -0.70031685 2.019326 7.2501529e-39
0.98100734 -0.69930744 2.0237989 7.2501529e-39
1.0176864 -0.69866377 2.0220077 7.2501529e-39
1.0476992 -0.70540631 2.0259566 7.2501529e-39
-0.84459829 -0.6729126 2.003 7.2501529e-39
-0.81832522 -0.66262132 2.0087149 7.2501529e-39
-0.78217459 -0.65825319 2.0241423 7.2501529e-39
0.98140198 -0.67767692 2.0345001 7.2501529e-39
1.016021 -0.67540193 2.0347648 7.2501529e-39
-0.80956411 -0.63494366 2.0030003 7.2501529e-39
-0.78041714 -0.62130678 2.0130465 7.2501529e-39
-0.74871093 -0.61395186 2.0323119 7.2501529e-39
-0.71073711 -0.6000486 2.039 7.2501529e-39
-0.77123797 -0.5827654 2.0042193 7.2501529e-39
-0.73994374 -0.57917684 2.0230334 7.2501529e-39
-0.70376831 -0.57668096 2.0376678 7.2501529e-39
-0.76241171 -0.54812258 2.0030003 7.2501529e-39
-0.73796707 -0.54054242 2.0081587 7.2501529e-39
-0.7029478 -0.5392369 2.0287287 7.2501529e-39
-0.73027492 -0.50344139 2.0070901 7.2501529e-39
-0.69996583 -0.49910641 2.0169158 7.2501529e-39
-0.66140705 -0.4964551 2.0372641 7.2501529e-39
-0.72680283 -0.47690475 2.0030003 7.2501529e-39
-0.70015711 -0.46422446 2.00348 7.2501529e-39
-0.660734 -0.4598164 2.0214775 7.2501529e-39
-0.62849307 -0.45537809 2.0381873 7.2501529e-39
-0.70467454 -0.4292143 2.003 7.2501529e-39
-0.654576 -0.42408454 2.0063598 7.2501529e-39
-0.62217277 -0.41813937 2.0255139 7.2501529e-39
-0.59228098 -0.4058581 2.039 7.2501529e-39
-0.64851421 -0.38953578 2.0029993 7.2501529e-39
-0.61868727 -0.38134062 2.0150893 7.2501529e-39
-0.58200711 -0.37643686 2.0375214 7.2501529e-39
-0.54004377 -0.37303984 2.0390007 7.2501529e-39
-0.60847265 -0.34774128 2.0061572 7.2501529e-39
-0.57898426 -0.34040442 2.0193825 7.2501529e-39
-0.53870249 -0.33953229 2.0319479 7.2501529e-39
-0.50893003 -0.33197778 2.036819 7.2501529e-39
1.0531597 -0.34242254 2.0389998 7.2501529e-39
-0.57568073 -0.30502859 2.0063157 7.2501529e-39
-0.53896248 -0.29850098 2.0109653 7.2501529e-39
-0.50465387 -0.29847911 2.0330701 7.2501529e-39
-0.47170633 -0.28740191 2.0390003 7.2501529e-39
1.0379694 -0.2950902 2.0252862 7.2501529e-39
1.0447459 -0.30005127 2.024081 7.2501529e-39
-0.5627476 -0.27278951 2.003 7.2501529e-39
-0.53864825 -0.26944545 2.0048451 7.2501529e-39
-0.4973239 -0.26195624 2.0183456 7.2501529e-39
-0.46543482 -0.25816709 2.0352108 7.2501529e-39
1.0304492 -0.24704695 2.0351822 7.2501529e-39
1.0471921 -0.26043808 2.0300641 7.2501529e-39
-0.48872602 -0.22327711 2.0088859 7.2501529e-39
-0.45917052 -0.21943213 2.0249491 7.2501529e-39
-0.43161392 -0.21769772 2.0390007 7.2501529e-39
1.0286556 -0.21838824 2.0239999 7.2501529e-39
1.0459527 -0.22471394 2.0258005 7.2501529e-39
-0.48453525 -0.19648476 2.003 7.2501529e-39
-0.45558667 -0.18470195 2.0148444 7.2501529e-39
-0.42174122 -0.17878534 2.0316057 7.2501529e-39
-0.39514935 -0.18369767 2.0349998 7.2501529e-39
1.0211341 -0.19283316 2.0154614 7.2501529e-39
-0.44322762 -0.15666191 2.006 7.2501529e-39
-0.42527935 -0.15678 2.0094616 7.2501529e-39
-0.052593239 0.3039889 2.039001 7.2501529e-39
-0.036896192 0.30876285 2.039 7.2501529e-39
-0.055342991 0.33811322 2.0258117 7.2501529e-39
-0.025790574 0.34521356 2.0368011 7.2501529e-39
-0.053246722 0.37895879 2.007627 7.2501529e-39
-0.019986756 0.38041392 2.0264485 7.2501529e-39
0.0068849348 0.38855743 2.0390003 7.2501529e-39
-0.058583815 0.40719563 2.0073638 7.2501529e-39
-0.013311755 0.41709968 2.0185997 7.2501529e-39
0.017443333 0.42168236 2.0311735 7.2501529e-39
0.041786809 0.42363992 2.0338573 7.2501529e-39
-0.043875236 0.44066 2.003 7.2501529e-39
-0.0081308568 0.44234917 2.0318 7.2501529e-39
0.0057952385 0.44165689 2.0310001 7.2501529e-39
-0.80731064 0.020304784 1.7048569 7.2501529e-39
-0.71295094 -0.27067363 1.8917357 7.2501529e-39
-0.6835981 -0.34761652 1.9389319 7.2501529e-39
-0.78929073 -0.80750233 2.0715001 7.2501529e-39
-0.98424923 -0.68028104 1.9150002 7.2501529e-39
-0.68975973 -0.47060078 1.9595852 7.2501529e-39
-0.56368703 -0.6508249 2.0313334 7.2501529e-39
-0.52237904 -0.49676296 2.001019 7.2501529e-39
-0.45850307 -0.47157583 2.0023847 7.2501529e-39
-0.34171978 -0.68858457 1.983021 7.2501529e-39
-0.31584427 -0.74774748 2.0036254 7.2501529e-39
-0.16680221 -0.79590505 2.049139 7.2501529e-39
-0.37329167 -0.77811307 2.0470974 7.2501529e-39
-0.38813129 -0.73724234 2.023421 7.2501529e-39
-0.27636272 -0.73014581 2.0374842 7.2501529e-39
-0.25443909 -0.70932841 2.0293634 7.2501529e-39
-0.19801417 -0.6838913 2.0350072 7.2501529e-39
-0.065436669 -0.80379671 2.0510001 7.2501529e-39
-0.029300002 -0.80282003 2.0510004 7.2501529e-39
-0.86581498 -0.79500675 2.0510004 7.2501529e-39
-0.81716228 -0.78079396 2.0591624 7.2501529e-39
-0.78762776 -0.78049707 2.0721617 7.2501529e-39
-0.37725112 -0.79786468 2.0711253 7.2501529e-39
-0.34349051 -0.79750603 2.0727501 7.2501529e-39
-0.29567143 -0.79611683 2.0742669 7.2501529e-39
-0.25127393 -0.79793644 2.0708001 7.2501529e-39
-0.2172128 -0.79167235 2.0638633 7.2501529e-39
-0.18192686 -0.79578757 2.0668578 7.2501529e-39
-0.139838 -0.7915647 2.0650964 7.2501529e-39
-0.097633198 -0.79264891 2.0686221 7.2501529e-39
-0.058209497 -0.78339404 2.0588248 7.2501529e-39
-0.021510588 -0.7869308 2.0618818 7.2501529e-39
0.022577666 -0.78031093 2.0607214 7.2501529e-39
0.057886813 -0.78160167 2.0612428 7.2501529e-39
0.097787067 -0.77162141 2.063575 7.2501529e-39
0.13944827 -0.76916426 2.0669699 7.2501529e-39
0.18057726 -0.77035433 2.063508 7.2501529e-39
0.22073261 -0.77031958 2.064142 7.2501529e-39
0.25568807 -0.76866692 2.0591028 7.2501529e-39
0.29958218 -0.76586467 2.058305 7.2501529e-39
0.33663514 -0.76516086 2.0575144 7.2501529e-39
0.38075823 -0.76240969 2.0579474 7.2501529e-39
0.40989068 -0.76293713 2.0578575 7.2501529e-39
0.46163779 -0.76375335 2.0510001 7.2501529e-39
0.50591338 -0.76375335 2.0510004 7.2501529e-39
0.53872132 -0.76379633 2.0520005 7.2501529e-39
0.56442386 -0.76494336 2.0527146 7.2501529e-39
-0.84384006 -0.75398672 2.0510001 7.2501529e-39
-0.81637418 -0.74985689 2.0517833 7.2501529e-39
-0.7799294 -0.73749906 2.0633981 7.2501529e-39
-0.75460958 -0.72824764 2.0760002 7.2501529e-39
0.1146743 -0.75724578 2.0760002 7.2501529e-39
0.13246858 -0.75724578 2.0760002 7.2501529e-39
0.18276711 -0.75376588 2.0760002 7.2501529e-39
0.21946287 -0.75516456 2.0760002 7.2501529e-39
0.26684871 -0.74747473 2.0704706 7.2501529e-39
0.29854342 -0.75112814 2.0717516 7.2501529e-39
0.3397283 -0.75230426 2.0692019 7.2501529e-39
0.3793605 -0.75250733 2.0671916 7.2501529e-39
0.42154756 -0.74458635 2.0629127 7.2501529e-39
0.46043169 -0.74468523 2.0602553 7.2501529e-39
0.50076044 -0.74695218 2.0630467 7.2501529e-39
0.54041719 -0.74448383 2.0626597 7.2501529e-39
0.57971597 -0.73948687 2.0599244 7.2501529e-39
0.62171453 -0.73187453 2.0559638 7.2501529e-39
0.65456676 -0.73237705 2.0606453 7.2501529e-39
0.70187944 -0.73009127 2.0560009 7.2501529e-39
0.74145484 -0.72411186 2.0554545 7.2501529e-39
0.77768862 -0.72190166 2.0560832 7.2501529e-39
0.81063336 -0.72078001 2.0510001 7.2501529e-39
-0.7768997 -0.70346874 2.0549641 7.2501529e-39
-0.74484581 -0.69333816 2.0674715 7.2501529e-39
0.59967339 -0.71492004 2.0510001 7.2501529e-39
0.62063581 -0.71538335 2.0693333 7.2501529e-39
0.67365432 -0.71616834 2.0602503 7.2501529e-39
0.69672006 -0.71562141 2.0632 7.2501529e-39
0.73919809 -0.70795393 2.0687931 7.2501529e-39
0.77937073 -0.70700592 2.0695307 7.2501529e-39
0.81939656 -0.70090371 2.0679498 7.2501529e-39
0.86236095 -0.69430816 2.0604193 7.2501529e-39
0.90159076 -0.6890682 2.0669446 7.2501529e-39
0.9393037 -0.68754768 2.0647154 7.2501529e-39
0.96955192 -0.68318856 2.0525002 7.2501529e-39
1.0040133 -0.68171334 2.0510001 7.2501529e-39
1.0664502 -0.69378495 2.066601 7.2501529e-39
1.0814974 -0.69397724 2.0760002 7.2501529e-39
-0.76592368 -0.66413337 2.0510001 7.2501529e-39
-0.7420994 -0.66078925 2.0585797 7.2501529e-39
-0.70156986 -0.65558714 2.0719101 7.2501529e-39
-0.67816007 -0.65048009 2.0760002 7.2501529e-39
0.91146296 -0.67288768 2.0760002 7.2501529e-39
0.94172764 -0.67116338 2.0702975 7.2501529e-39
0.98100019 -0.66930318 2.0690019 7.2501529e-39
1.0167444 -0.66970098 2.0648763 7.2501529e-39
1.0603535 -0.67537576 2.0719094 7.2501529e-39
1.0814973 -0.67222863 2.0760002 7.2501529e-39
-0.73231113 -0.62412173 2.0510011 7.2501529e-39
-0.69891286 -0.62123585 2.0572784 7.2501529e-39
-0.67421907 -0.61620969 2.0704288 7.2501529e-39
-0.7254681 -0.59889203 2.0510004 7.2501529e-39
-0.68839943 -0.5842979 2.0512671 7.2501529e-39
-0.66514266 -0.58023834 2.0655611 7.2501529e-39
-0.68490976 -0.54107344 2.0509999 7.2501529e-39
-0.66006863 -0.540299 2.0572574 7.2501529e-39
-0.63099617 -0.53494489 2.071476 7.2501529e-39
1.074083 -0.52740288 2.0760002 7.2501529e-39
-0.68483871 -0.51607066 2.0510004 7.2501529e-39
-0.65366912 -0.50423908 2.0509996 7.2501529e-39
-0.62305391 -0.49799457 2.0628431 7.2501529e-39
-0.59583902 -0.48655698 2.0760002 7.2501529e-39
-0.55557716 -0.48396069 2.0760002 7.2501529e-39
1.0730238 -0.50473642 2.0760002 7.2501529e-39
-0.64655334 -0.47075334 2.0510001 7.2501529e-39
-0.61217982 -0.46361461 2.0553603 7.2501529e-39
-0.58839613 -0.45212898 2.0738349 7.2501529e-39
-0.55297309 -0.45633429 2.0760009 7.2501529e-39
1.0646558 -0.45626935 2.072752 7.2501529e-39
-0.60675418 -0.42826828 2.0510004 7.2501529e-39
-0.58076024 -0.41912106 2.0571125 7.2501529e-39
-0.54156518 -0.417761 2.0667975 7.2501529e-39
-0.5199886 -0.41124576 2.0760002 7.2501529e-39
1.0582029 -0.4186981 2.064975 7.2501529e-39
-0.56867212 -0.38556284 2.0509994 7.2501529e-39
-0.53540254 -0.38490093 2.0565181 7.2501529e-39
-0.50344706 -0.37688476 2.0736768 7.2501529e-39
-0.47451431 -0.3637943 2.0760002 7.2501529e-39
1.030861 -0.37407055 2.0721602 7.2501529e-39
1.0555209 -0.38111982 2.0642836 7.2501529e-39
-0.56060666 -0.35745999 2.0510001 7.2501529e-39
-0.55670011 -0.35355335 2.0510001 7.2501529e-39
-0.49372318 -0.34279644 2.0633428 7.2501529e-39
-0.46973088 -0.33375451 2.076 7.2501529e-39
1.0351275 -0.33859026 2.0700574 7.2501529e-39
1.052191 -0.34122056 2.0587578 7.2501529e-39
-0.48896924 -0.31145653 2.0549283 7.2501529e-39
-0.45811799 -0.30114508 2.0668736 7.2501529e-39
-0.43268692 -0.28630286 2.0732145 7.2501529e-39
1.0297966 -0.30070812 2.0714717 7.2501529e-39
1.0444145 -0.3002328 2.0584638 7.2501529e-39
-0.44861314 -0.26582921 2.0561254 7.2501529e-39
-0.42281887 -0.25830904 2.0702491 7.2501529e-39
-0.38735893 -0.25312403 2.0745561 7.2501529e-39
1.0219953 -0.26058242 2.0664546 7.2501529e-39
1.0438744 -0.27069294 2.0530002 7.2501529e-39
-0.4138788 -0.22091073 2.0625844 7.2501529e-39
-0.37905672 -0.22008826 2.0688796 7.2501529e-39
-0.33901706 -0.21064287 2.0720437 7.2501529e-39
0.99713922 -0.21353143 2.0760002 7.2501529e-39
1.0166223 -0.22053041 2.0651922 7.2501529e-39
-0.40434003 -0.19533335 2.0510004 7.2501529e-39
-0.38250729 -0.19532748 2.054158 7.2501529e-39
-0.3333151 -0.19919126 2.0708001 7.2501529e-39
1.0139569 -0.19847706 2.0633752 7.2501529e-39
-0.19573715 0.017794287 2.0760002 7.2501529e-39
-0.05783144 0.19030003 2.0760002 7.2501529e-39
-0.052916437 0.22265223 2.0750387 7.2501529e-39
-0.037565719 0.23231432 2.0760002 7.2501529e-39
-0.05376054 0.26110682 2.0635641 7.2501529e-39
-0.025976095 0.26432908 2.0735416 7.2501529e-39
-0.064327314 0.29649401 2.053401 7.2501529e-39
-0.01971915 0.30073097 2.0642636 7.2501529e-39
0.0042367349 0.30702206 2.0760002 7.2501529e-39
-0.01168349 0.33386061 2.0519421 7.2501529e-39
0.017158551 0.34314814 2.0623231 7.2501529e-39
0.041520003 0.35094291 2.0760002 7.2501529e-39
-0.0019533334 0.36332002 2.0510001 7.2501529e-39
0.022604533 0.37747723 2.0560126 7.2501529e-39
0.056131139 0.38789126 2.0679095 7.2501529e-39
0.081062868 0.39147434 2.0760002 7.2501529e-39
0.029310338 0.40612581 2.0515714 7.2501529e-39
0.052876148 0.40997064 2.0602164 7.2501529e-39
-0.49164504 0.3260411 1.7536836 7.2501529e-39
-0.49694124 -0.25153148 1.9408894 7.2501529e-39
-0.5746488 -0.56609058 2.0145001 7.2501529e-39
-0.73191094 -0.78492713 2.0772004 7.2501529e-39
-0.6930877 -0.77333051 2.0717399 7.2501529e-39
-0.64387935 -0.75935894 2.0742009 7.2501529e-39
-0.59475058 -0.75389236 2.0778947 7.2501529e-39
-0.54165781 -0.80687231 2.1017494 7.2501529e-39
-0.50176769 -0.78943402 2.0926433 7.2501529e-39
-0.45892695 -0.79361606 2.0945308 7.2501529e-39
-0.42359087 -0.80842233 2.0967448 7.2501529e-39
-0.37903288 -0.80259025 2.0963571 7.2501529e-39
-0.33072659 -0.80188817 2.0945001 7.2501529e-39
-0.31815144 -0.80238193 2.1010001 7.2501529e-39
-0.26149714 -0.8013944 2.0880001 7.2501529e-39
-0.18096001 -0.80139434 2.0880001 7.2501529e-39
-0.76862729 -0.78034848 2.0908594 7.2501529e-39
-0.74001259 -0.77984762 2.101249 7.2501529e-39
-0.71219862 -0.78038323 2.1107492 7.2501529e-39
-0.57276928 -0.79639262 2.1109049 7.2501529e-39
-0.53722453 -0.7982868 2.1140003 7.2501529e-39
-0.49981001 -0.79929346 2.1140001 7.2501529e-39
-0.45087636 -0.79916304 2.1121433 7.2501529e-39
-0.4084191 -0.79175651 2.109211 7.2501529e-39
-0.38184103 -0.79337913 2.1069081 7.2501529e-39
-0.34045553 -0.79319203 2.1085472 7.2501529e-39
-0.29888466 -0.79038191 2.1035149 7.2501529e-39
-0.26022491 -0.79097706 2.1047387 7.2501529e-39
-0.22215568 -0.7765643 2.1024258 7.2501529e-39
-0.17979689 -0.77984458 2.1028042 7.2501529e-39
-0.14075531 -0.77456802 2.1017914 7.2501529e-39
-0.099785931 -0.77750397 2.1016178 7.2501529e-39
-0.061074466 -0.76840407 2.0957031 7.2501529e-39
-0.018383915 -0.76989734 2.0924022 7.2501529e-39
0.018475806 -0.76803166 2.0950902 7.2501529e-39
0.061065026 -0.76716971 2.0931993 7.2501529e-39
0.090588242 -0.76627606 2.0936525 7.2501529e-39
0.14459756 -0.76219106 2.0880003 7.2501529e-39
0.16505143 -0.76162291 2.0880001 7.2501529e-39
0.24658287 -0.76162291 2.0880001 7.2501529e-39
-0.76249236 -0.74418509 2.0892999 7.2501529e-39
-0.74072987 -0.73959184 2.0935304 7.2501529e-39
-0.70043457 -0.73854554 2.1017787 7.2501529e-39
-0.67849344 -0.73553777 2.1140003 7.2501529e-39
-0.23958667 -0.75902671 2.1140001 7.2501529e-39
-0.16871734 -0.756208 2.1140001 7.2501529e-39
-0.15272573 -0.75787628 2.1140003 7.2501529e-39
-0.056953184 -0.75312978 2.1079755 7.2501529e-39
-0.018670278 -0.7562874 2.1090293 7.2501529e-39
0.015083751 -0.75483525 2.11075 7.2501529e-39
0.062857412 -0.75162578 2.1062548 7.2501529e-39
0.10164067 -0.74975991 2.1047132 7.2501529e-39
0.13985679 -0.7528922 2.1029489 7.2501529e-39
0.17971112 -0.74559528 2.0991418 7.2501529e-39
0.22007562 -0.74588442 2.0969992 7.2501529e-39
0.25819266 -0.74017566 2.0975063 7.2501529e-39
0.30082074 -0.73707688 2.1050394 7.2501529e-39
0.33844629 -0.73484904 2.1023135 7.2501529e-39
0.3808364 -0.73857516 2.1035991 7.2501529e-39
0.41719845 -0.7310546 2.102772 7.2501529e-39
0.46014124 -0.72710764 2.0948815 7.2501529e-39
0.50110275 -0.72947979 2.0963106 7.2501529e-39
0.54119903 -0.72713047 2.1000929 7.2501529e-39
0.5775044 -0.72729552 2.0991793 7.2501529e-39
0.60651428 -0.72185153 2.0880001 7.2501529e-39
0.66011679 -0.72360808 2.0923333 7.2501529e-39
0.70764738 -0.72440821 2.0879998 7.2501529e-39
0.74400979 -0.72298777 2.0880003 7.2501529e-39
-0.73259753 -0.70540816 2.0889282 7.2501529e-39
-0.6991877 -0.70077664 2.0941372 7.2501529e-39
-0.6660679 -0.69662577 2.1111555 7.2501529e-39
0.34025335 -0.71876007 2.1140001 7.2501529e-39
0.42660263 -0.71645343 2.1118336 7.2501529e-39
0.45778051 -0.71168941 2.110749 7.2501529e-39
0.50138152 -0.71555263 2.1090686 7.2501529e-39
0.5401445 -0.71414405 2.1125939 7.2501529e-39
0.58615828 -0.71431094 2.1073239 7.2501529e-39
0.61885333 -0.7090103 2.096272 7.2501529e-39
0.66042906 -0.71070808 2.1061993 7.2501529e-39
0.69882393 -0.70541209 2.0979314 7.2501529e-39
0.73860896 -0.70217562 2.0983989 7.2501529e-39
0.77992713 -0.69341516 2.0945001 7.2501529e-39
0.8192398 -0.69187719 2.0970747 7.2501529e-39
0.85622472 -0.69085211 2.0914333 7.2501529e-39
0.89822125 -0.68471181 2.0930557 7.2501529e-39
0.92468572 -0.68208003 2.0880001 7.2501529e-39
1.07184 -0.68208003 2.0880001 7.2501529e-39
-0.72582865 -0.67810285 2.0880001 7.2501529e-39
-0.6894778 -0.67148489 2.0886192 7.2501529e-39
-0.66089445 -0.65870774 2.0993085 7.2501529e-39
-0.63621336 -0.64426672 2.1140001 7.2501529e-39
0.83380026 -0.6755532 2.0945003 7.2501529e-39
0.8599239 -0.67353606 2.1025851 7.2501529e-39
0.90443236 -0.67193341 2.1017027 7.2501529e-39
0.94301808 -0.65858066 2.0988324 7.2501529e-39
0.97607821 -0.65213907 2.098273 7.2501529e-39
1.0219483 -0.65715969 2.1088536 7.2501529e-39
1.0613616 -0.66424936 2.1018214 7.2501529e-39
1.0885003 -0.6553455 2.1082792 7.2501529e-39
-0.65715569 -0.62311769 2.0934556 7.2501529e-39
-0.62904364 -0.61803907 2.1036975 7.2501529e-39
0.95230669 -0.63822669 2.1140001 7.2501529e-39
0.98308206 -0.63563812 2.1140003 7.2501529e-39
1.0046533 -0.63822669 2.1140001 7.2501529e-39
1.0896014 -0.61872441 2.1074994 7.2501529e-39
-0.64802569 -0.58215445 2.0880003 7.2501529e-39
-0.62260586 -0.57965922 2.0978124 7.2501529e-39
-0.59074444 -0.5681439 2.11075 7.2501529e-39
1.0731066 -0.5717867 2.1140001 7.2501529e-39
1.0906533 -0.5816685 2.1094892 7.2501529e-39
-0.64628571 -0.5587886 2.0880001 7.2501529e-39
-0.61488026 -0.54115891 2.0900128 7.2501529e-39
-0.58232844 -0.53959614 2.1065304 7.2501529e-39
-0.55293459 -0.52584612 2.1140003 7.2501529e-39
1.0686946 -0.53296959 2.1042497 7.2501529e-39
1.0859365 -0.54908508 2.0964503 7.2501529e-39
-0.60986346 -0.51357472 2.0880001 7.2501529e-39
-0.58131582 -0.50237 2.0935476 7.2501529e-39
-0.54122883 -0.49927327 2.103987 7.2501529e-39
-0.51742667 -0.48320001 2.1140001 7.2501529e-39
1.0348535 -0.49125332 2.1140001 7.2501529e-39
1.0620532 -0.49953556 2.1068144 7.2501529e-39
1.0837715 -0.49316573 2.0880001 7.2501529e-39
-0.57973975 -0.46681723 2.0879991 7.2501529e-39
-0.53496248 -0.46267861 2.0904481 7.2501529e-39
-0.50771737 -0.45502979 2.1047449 7.2501529e-39
1.0318317 -0.45520228 2.1127415 7.2501529e-39
1.0501996 -0.46088606 2.1009989 7.2501529e-39
-0.52697146 -0.43509945 2.0880001 7.2501529e-39
-0.50040781 -0.42046338 2.0960929 7.2501529e-39
-0.46425968 -0.41063112 2.1135352 7.2501529e-39
1.0301399 -0.415582 2.1105115 7.2501529e-39
