# .PCD v0.7 - Point Cloud Data file format
VERSION 0.7
FIELDS x y z rgb
SIZE 4 4 4 4
TYPE F F F F
COUNT 1 1 1 1
WIDTH 268
HEIGHT 1
VIEWPOINT 0 0 0 1 0 0 0
POINTS 268
DATA ascii
-0.31518954 0.22951338 0.51900005 9.9553246e-39
-0.048344161 -0.093728006 0.54874039 8.1143337e-39
-0.023966324 -0.090733401 0.54920977 8.2162753e-39
0.0053679473 -0.084680036 0.55050009 7.2885527e-39
-0.084449194 -0.044406097 0.55285513 1.2246519e-38
-0.061100207 -0.058168318 0.54646087 8.295834e-39
-0.014079468 -0.06057778 0.5483278 9.5117085e-39
0.0057256715 -0.072055891 0.55018139 1.4477985e-38
-0.092906266 -0.016444866 0.54785639 1.2337997e-38
-0.06176975 -0.019112248 0.54780817 9.4936051e-39
-0.029606121 -0.037287883 0.55643141 9.6971858e-39
-0.10131635 0.0033887054 0.55687326 1.1600425e-38
-0.30242535 0.14005882 0.54636461 1.3086384e-38
-0.32246149 0.1846984 0.53739738 9.3077957e-39
-0.29887956 0.18597122 0.54276019 1.0229398e-38
-0.27218589 0.19402148 0.55615771 1.069001e-38
-0.32216835 0.20894517 0.54495662 9.3103125e-39
-0.29721573 0.21840478 0.53732038 9.5843868e-39
-0.27134174 0.20344034 0.54703766 7.8326769e-39
-0.29324868 0.24110644 0.53467214 9.7673334e-39
-0.069855429 -0.080687046 0.56860006 1.992182e-38
-0.087832719 -0.057511359 0.57793993 1.3722381e-38
-0.072380729 -0.069442943 0.56730223 1.1417504e-38
-0.015313461 -0.043643795 0.58268684 1.6400403e-38
-0.095586315 -0.017506385 0.57670885 1.2706782e-38
-0.059403252 -0.021759933 0.5712896 8.2046992e-39
-0.026269941 -0.020192608 0.58323091 1.2531417e-38
-0.097067654 0.021410022 0.57199585 1.5009147e-38
-0.05618985 0.024633292 0.59041029 1.2155032e-38
-0.029638264 0.02064997 0.59334201 1.6949223e-38
-0.091471277 0.056357313 0.57083398 1.1601871e-38
-0.060882203 0.059232984 0.57966894 1.685234e-38
-0.032581419 0.050262168 0.59457278 1.7317284e-38
-0.086335406 0.09734118 0.59120637 9.6668434e-39
-0.067509413 0.095980264 0.59023631 1.3259955e-38
-0.081768259 0.12075081 0.59900004 8.5605043e-39
-0.076900192 0.12082688 0.59900004 9.57358e-39
-0.25590846 0.19515856 0.56439161 1.2163704e-38
-0.23531856 0.19910063 0.57741183 1.2532503e-38
-0.28160962 0.21173511 0.56508112 9.675865e-39
-0.25546291 0.21670954 0.57230419 9.399997e-39
-0.22543553 0.21975839 0.58618855 1.004465e-38
-0.24158846 0.2449508 0.58855563 7.4606475e-39
-0.22948471 0.2421719 0.58829874 6.7256091e-39
-0.0087104132 -0.10446735 0.60623616 7.0123343e-39
0.0022995241 -0.10305953 0.60450006 1.23604e-38
-0.084655009 -0.0091243051 0.60907161 9.2055066e-39
-0.072041057 -0.0056885793 0.6140269 7.087528e-39
-0.039428573 -0.0022857143 0.60000002 7.3673519e-39
-0.083688028 0.0091135222 0.60331404 9.8487096e-39
-0.069377974 0.013013636 0.60700738 8.0069564e-39
-0.019986978 0.019206997 0.60179603 2.0823959e-38
-0.043650482 0.076859728 0.60170603 1.8789168e-38
-0.030813478 0.063567914 0.60289043 1.9350273e-38
-0.092401743 0.11413769 0.60301203 1.0403336e-38
-0.050729055 0.1045749 0.61032194 1.7221842e-38
-0.03784829 0.09252777 0.61767054 1.79605e-38
-0.091951735 0.14112127 0.61329508 8.9300043e-39
-0.061181482 0.13927276 0.61740381 1.418119e-38
-0.039557148 0.13327715 0.63900006 1.639103e-38
-0.093063809 0.17925821 0.62759393 7.9165712e-39
-0.064179018 0.17921244 0.62758017 1.2153969e-38
-0.2167272 0.23574828 0.60092306 1.1517984e-38
-0.088230565 0.21006356 0.63549131 7.8240169e-39
-0.06910079 0.21074091 0.63515419 9.6668476e-39
0.19686356 0.27416489 0.6383487 8.9281994e-39
0.2187718 0.26896048 0.63587964 1.0679198e-38
0.24620192 0.27242598 0.63688093 1.5104582e-38
0.19490841 0.28310534 0.63715804 8.2839104e-39
0.21959418 0.28231576 0.63341278 9.6675609e-39
0.24986959 0.28301403 0.63688415 1.4090429e-38
-0.042420421 0.14912499 0.6441263 1.7496265e-38
-0.037514757 0.14794019 0.65027279 1.7042165e-38
-0.11060069 0.18648119 0.64349151 8.8385317e-39
-0.04460039 0.18139824 0.64644331 1.7312958e-38
-0.0362342 0.18056731 0.66056639 1.6024739e-38
-0.12005715 0.20554289 0.66000003 1.492811e-38
-0.10217018 0.22292992 0.64873552 7.916574e-39
-0.055278506 0.22378984 0.64802384 1.2706784e-38
-0.034644842 0.22019652 0.66996211 1.6299527e-38
0.19526076 0.23786353 0.67445451 1.1601138e-38
0.22112669 0.23537706 0.67146927 1.3167384e-38
0.25439221 0.23573042 0.6734522 1.657754e-38
-0.096805289 0.25799116 0.66268337 7.2722836e-39
-0.059564158 0.25904924 0.66102582 9.0214796e-39
-0.035100307 0.25260699 0.67395121 1.335107e-38
0.15454784 0.27270356 0.67348868 1.0126374e-38
0.18112817 0.26039693 0.65861732 1.0402601e-38
0.22012435 0.24935047 0.65053558 1.2521663e-38
0.26101822 0.25709108 0.65338451 1.7777534e-38
0.29400247 0.26451123 0.66777802 2.0821071e-38
-0.08698374 0.28476825 0.67519367 6.350693e-39
-0.064019985 0.28596401 0.67453736 6.8102279e-39
0.14911813 0.29004437 0.67034072 8.9285539e-39
0.17329484 0.28560555 0.65109569 8.5604931e-39
0.26935366 0.28459007 0.64388871 1.6671902e-38
0.30170721 0.28886068 0.66275108 1.8975714e-38
0.32475272 0.29776523 0.67731905 1.7039604e-38
-0.027146125 0.22508712 0.68322062 1.5561951e-38
0.15247533 0.23129418 0.71409225 1.114016e-38
0.18138857 0.22489813 0.70419556 1.1968482e-38
0.21914375 0.21782811 0.70081896 1.3442892e-38
0.25941834 0.22108659 0.70020115 1.6761211e-38
0.2938897 0.23059854 0.70630026 1.9896228e-38
0.32115334 0.23898192 0.71900004 2.0448708e-38
-0.10329181 0.27876991 0.68040007 7.6407116e-39
-0.040920004 0.27864572 0.68200004 9.7579615e-39
-0.017829262 0.26478052 0.70333958 1.0217855e-38
0.014309664 0.26874074 0.71638507 1.0034183e-38
0.11966667 0.27899334 0.71800005 9.1129494e-39
0.14282821 0.26082537 0.70031643 1.0494792e-38
0.1689776 0.24581732 0.68756402 1.1231633e-38
0.27856192 0.24094382 0.68100005 1.9343768e-38
0.30688074 0.25143623 0.69315976 2.0727794e-38
0.33421785 0.26626834 0.70676732 2.0176061e-38
-0.094412647 0.2996527 0.69140434 6.7205518e-39
-0.056006018 0.29935768 0.68573946 6.7187469e-39
-0.019008121 0.29798689 0.70446759 8.006606e-39
0.012126295 0.29508671 0.71480662 7.9144076e-39
0.11284968 0.3031224 0.71130747 8.3746627e-39
0.12950949 0.29301706 0.69390523 9.1122249e-39
0.31927618 0.28041905 0.68000001 2.0544845e-38
0.33901596 0.29110813 0.69158 1.8607653e-38
-0.10132001 0.32028005 0.71400005 6.262819e-39
-0.00068285712 0.32026002 0.71700001 5.1517855e-39
0.0027347619 0.32048336 0.71750003 4.8759133e-39
0.10202952 0.32115334 0.71900004 7.0871567e-39
0.18552953 0.15954095 0.75800002 1.5651994e-38
0.025875114 0.19373319 0.75145638 1.279609e-38
0.060089327 0.19104719 0.74956071 1.3809882e-38
0.098894641 0.19128039 0.7535935 1.3441455e-38
0.14276202 0.18449566 0.74877262 1.2059963e-38
0.1800278 0.18140016 0.741822 1.399427e-38
0.21938795 0.18341634 0.74077803 1.5376123e-38
0.25707841 0.18965721 0.74390095 1.7772486e-38
0.28950968 0.1959419 0.75316489 1.8695161e-38
-0.013871314 0.22300392 0.73979652 1.1044373e-38
0.019786021 0.22011556 0.7345041 1.1322398e-38
0.059861694 0.22008604 0.73462069 1.2245078e-38
0.099358819 0.21982595 0.74221927 1.1139807e-38
0.13716519 0.21797062 0.73530769 1.0310046e-38
0.17566137 0.20526595 0.72317541 1.2705331e-38
0.2210997 0.20130244 0.72133762 1.4363049e-38
0.26401344 0.20467427 0.7264356 1.7681728e-38
0.30254123 0.21352349 0.73674941 1.9434167e-38
0.33714834 0.22644669 0.74433482 1.9988427e-38
0.36882731 0.23393613 0.75352216 1.8699127e-38
-0.012604153 0.24659894 0.72384733 1.0123856e-38
0.023626056 0.25320613 0.72259182 1.0310046e-38
0.059361693 0.2596111 0.7274546 8.9285553e-39
0.10175279 0.26063174 0.73953164 6.9013333e-39
0.12653129 0.25402504 0.72753364 8.7441655e-39
0.34709242 0.25287655 0.72868931 1.8884602e-38
0.36555919 0.25298646 0.73898804 1.7225079e-38
-0.11072436 0.31796932 0.72723806 7.5474342e-39
0.029554287 0.30385771 0.72552025 5.9797413e-39
0.05800518 0.29716712 0.7377544 5.2428965e-39
0.09770368 0.29845229 0.73864359 6.1644899e-39
-0.11016964 0.32261527 0.72660613 8.0055326e-39
0.018426701 0.32389948 0.73122817 3.1270844e-39
0.079920009 0.32688001 0.75600004 4.6918864e-39
0.088144213 0.3257488 0.74169445 5.7967864e-39
0.38733205 -0.0087243859 0.79024744 6.5404849e-39
0.35832995 0.037450206 0.79785717 1.0403694e-38
0.38114908 0.026056629 0.79260987 1.1048347e-38
0.35384116 0.063337766 0.79371893 9.6675637e-39
0.37547624 0.059477106 0.785276 1.0405136e-38
0.35284454 0.098551452 0.79326153 6.4446823e-39
0.37571681 0.099900208 0.78406841 6.6308813e-39
0.071607009 0.15543666 0.79369861 1.3993547e-38
0.1027955 0.14845137 0.78570497 1.3625486e-38
0.14054704 0.14234045 0.78127486 1.4363051e-38
0.17860189 0.14351261 0.77822715 1.6113682e-38
0.21743849 0.15078408 0.78162754 1.6666136e-38
0.2519531 0.15594064 0.79205388 1.6389911e-38
0.35675853 0.1231304 0.79668003 5.9844231e-39
0.37863207 0.13272497 0.79087001 6.3535741e-39
-0.0045112632 0.19681887 0.77130437 1.2705335e-38
0.021056233 0.18281195 0.77319831 1.3441099e-38
0.060118027 0.17147276 0.77446932 1.4270136e-38
0.099974766 0.17137668 0.76704681 1.3441097e-38
0.13360333 0.166907 0.76290119 1.2888646e-38
0.17867297 0.161044 0.76055557 1.5008059e-38
0.22331552 0.1634168 0.76468319 1.6389556e-38
0.26255384 0.17048897 0.77519763 1.7219675e-38
0.29914418 0.18156892 0.77882558 1.7866843e-38
0.334932 0.19235519 0.78831995 1.980331e-38
0.36678827 0.1991995 0.79761547 1.8513648e-38
-0.01855636 0.20696013 0.76370019 1.2059968e-38
0.00072380959 0.20049526 0.76000005 1.2151075e-38
0.31563318 0.20090123 0.76154548 1.9247985e-38
0.34569472 0.20880866 0.77154368 1.9617483e-38
0.37613031 0.21584097 0.77917415 1.9066109e-38
0.40026906 0.21418524 0.79750001 1.8143795e-38
0.078430653 0.31603241 0.76968753 2.6657503e-39
0.08303757 0.31123316 0.76200014 3.2189171e-39
0.072182432 0.3361792 0.77903581 3.7717293e-39
0.080460325 0.32931915 0.76111114 4.5085741e-39
0.39039186 -0.086411305 0.83900005 4.8838573e-39
0.41348338 -0.082236975 0.83100003 4.4250441e-39
0.35803622 -0.042088095 0.83775008 3.0406579e-39
0.38350329 -0.056818526 0.82670432 4.1444831e-39
0.40563452 -0.061476279 0.82029432 4.1437671e-39
0.35269481 -0.014004647 0.83140165 4.9738823e-39
0.37722927 -0.022567539 0.81437695 7.1829704e-39
0.40203163 -0.033491116 0.80650014 1.0865381e-38
0.34520712 0.021834008 0.82004529 9.5750122e-39
0.37246624 0.011397651 0.80347335 1.0126744e-38
0.31901285 0.069525711 0.83719999 1.0035976e-38
0.33506384 0.059183717 0.81716037 9.4835312e-39
0.11776381 0.11871276 0.82660002 1.4455606e-38
0.14247832 0.11500121 0.81867224 1.4731833e-38
0.17456792 0.11436679 0.81807613 1.5561595e-38
0.31687823 0.10436854 0.83596873 1.0678826e-38
0.33368033 0.10026793 0.81654435 8.0091214e-39
0.064950429 0.14977597 0.81225353 1.3994626e-38
0.099143773 0.13239494 0.81534064 1.417866e-38
0.13581514 0.1225346 0.80569905 1.491658e-38
0.18484662 0.1244017 0.80661982 1.6666495e-38
0.219779 0.13675176 0.81388593 1.5560866e-38
0.26124135 0.14785381 0.81772065 1.4363402e-38
0.30318004 0.14460941 0.8283484 1.2521653e-38
0.33943668 0.13910525 0.82282305 1.0402961e-38
0.36906502 0.147361 0.81694096 1.0957574e-38
0.037175648 0.16696098 0.8084287 1.3996777e-38
0.045801837 0.16243856 0.8068462 1.417902e-38
0.30579165 0.16467623 0.80663401 1.639243e-38
0.34265774 0.17498064 0.81569463 1.8513291e-38
0.37684631 0.18552318 0.8213349 1.8974272e-38
0.40994972 0.19618732 0.82883358 1.8052676e-38
0.39132598 0.20466976 0.80308318 1.906575e-38
0.40480381 0.20505217 0.81165922 1.823599e-38
0.38963416 -0.08497753 0.84218407 4.423235e-39
0.34610975 -0.050526887 0.85927892 3.0392202e-39
0.36444169 -0.05950718 0.84291977 3.1324934e-39
0.31468147 -0.0092652086 0.87551105 1.0584842e-38
0.33632064 -0.020891193 0.85751134 6.2602939e-39
0.31219178 0.02134019 0.86447656 1.1323124e-38
0.32840183 0.015907949 0.85410619 1.0770669e-38
0.31336749 0.062231604 0.8612448 1.1601144e-38
0.32139122 0.048266731 0.84499979 1.0956136e-38
0.27835199 0.11891391 0.87560004 1.2890434e-38
0.30296245 0.10139757 0.85827827 1.1877005e-38
0.095313333 0.12735143 0.84100002 1.3900266e-38
0.23029856 0.13258237 0.86743778 1.3443253e-38
0.2621257 0.13213685 0.85896128 1.3075189e-38
0.29219121 0.12902735 0.84964085 1.2061395e-38
0.37999472 0.15893184 0.84100002 1.9160101e-38
0.38733897 0.17194933 0.8473056 1.9803668e-38
0.41527712 0.18534321 0.85976893 1.7683173e-38
0.44083336 0.19083335 0.87500006 1.6853055e-38
0.33236316 -0.049430892 0.89200008 3.776065e-39
0.30967623 -0.0052380948 0.88000005 8.6584565e-39
0.32529145 -0.032969106 0.88657779 3.8678991e-39
0.30839476 0.02391082 0.90131122 6.53868e-39
0.30494654 0.058445521 0.89346558 9.6700804e-39
0.22279859 0.11777387 0.89471638 1.3997886e-38
0.26860577 0.11485321 0.89422756 1.2614576e-38
0.29043865 0.09742099 0.89115971 1.1970643e-38
0.22251868 0.12418133 0.88576347 1.3442893e-38
0.2515955 0.12273339 0.88564396 1.3167745e-38
0.4296926 0.18309021 0.88726985 1.6761214e-38
0.44493172 0.18606319 0.89136595 1.5748144e-38
0.16223013 0.25894862 0.69062197 1.436702e-38
0.16972168 0.1489009 0.72006136 1.1880979e-38
-0.01499214 0.12894362 0.76581544 1.4186954e-38
-0.00053783477 0.15321553 0.78960395 1.1235252e-38
-0.024894513 0.17932078 0.66770589 1.4092248e-38
