# .PCD v0.7 - Point Cloud Data file format
VERSION 0.7
FIELDS x y z rgb
SIZE 4 4 4 4
TYPE F F F F
COUNT 1 1 1 1
WIDTH 1015
HEIGHT 1
VIEWPOINT 0 0 0 1 0 0 0
POINTS 1015
DATA ascii
-0.86268395 -0.53118211 1.914489 1.9095543e-38
-0.92625672 -0.51379001 1.8830003 1.9095543e-38
-0.89693552 -0.50037217 1.8847468 1.9095543e-38
-0.85939795 -0.49973726 1.9011678 1.9095543e-38
-0.83670968 -0.50090206 1.9111502 1.9095543e-38
-0.88790494 -0.47233158 1.8834398 1.9095543e-38
-0.8590889 -0.46128339 1.8880327 1.9095543e-38
-0.82507861 -0.45665306 1.9063075 1.9095543e-38
-0.85740554 -0.42649314 1.8830011 1.9095543e-38
-0.8184911 -0.42118129 1.8977159 1.9095543e-38
-0.79090083 -0.41107795 1.914242 1.9095543e-38
-0.8134259 -0.38044739 1.8860344 1.9095543e-38
-0.78414685 -0.37935525 1.9064803 1.9095543e-38
-0.81005913 -0.35349771 1.8829999 1.9095543e-38
-0.77823168 -0.34258947 1.8991525 1.9095543e-38
-0.74902713 -0.33494571 1.912462 1.9095543e-38
-0.77109241 -0.30571863 1.8898239 1.9095543e-38
-0.74447221 -0.29901385 1.9072299 1.9095543e-38
-0.70078319 -0.29162085 1.9150007 1.9095543e-38
-0.76366115 -0.26870114 1.8830001 1.9095543e-38
-0.73860228 -0.26374382 1.892949 1.9095543e-38
-0.69984806 -0.25812685 1.9082732 1.9095543e-38
-0.66560519 -0.25197259 1.9147617 1.9095543e-38
-0.73132145 -0.22861414 1.8829997 1.9095543e-38
-0.6997273 -0.22304143 1.8940619 1.9095543e-38
-0.66280305 -0.21842958 1.9082483 1.9095543e-38
-0.63234085 -0.20452723 1.9150002 1.9095543e-38
-0.69648588 -0.18135086 1.8829999 1.9095543e-38
-0.65467167 -0.18181257 1.8945471 1.9095543e-38
-0.62326175 -0.17817041 1.9109173 1.9095543e-38
-0.69521564 -0.15841112 1.8830001 1.9095543e-38
-0.64743984 -0.15165043 1.8862085 1.9095543e-38
-0.61656106 -0.14030671 1.8978696 1.9095543e-38
-0.58271933 -0.13488421 1.9128792 1.9095543e-38
-0.54167145 -0.12949048 1.9150001 1.9095543e-38
-0.60650712 -0.11179239 1.8902725 1.9095543e-38
-0.57941037 -0.099453762 1.8994517 1.9095543e-38
-0.54258877 -0.096295707 1.9113727 1.9095543e-38
-0.51477027 -0.087998822 1.9150004 1.9095543e-38
-0.57125759 -0.063687488 1.8903457 1.9095543e-38
-0.53947502 -0.059337232 1.9005405 1.9095543e-38
-0.50379324 -0.055502459 1.9082551 1.9095543e-38
-0.47911087 -0.049194667 1.9128001 1.9095543e-38
-0.56490004 -0.036763337 1.8830001 1.9095543e-38
-0.53884429 -0.02889494 1.8846614 1.9095543e-38
-0.50115025 -0.021019638 1.8931638 1.9095543e-38
-0.47734785 -0.029330287 1.9 1.9095543e-38
-0.52664226 0.0041844444 1.8830001 1.9095543e-38
-0.50253832 0.0057270974 1.8829997 1.9095543e-38
-0.58903873 0.3408787 1.6861414 1.9095543e-38
-0.77853566 -0.042622585 1.7394134 1.9095543e-38
-0.8603074 -0.44286343 1.8813384 1.9095543e-38
-1.0566112 -0.75594455 1.9250001 1.9095543e-38
-1.0176229 -0.74264085 1.9254599 1.9095543e-38
-0.98304325 -0.737921 1.9442503 1.9095543e-38
-0.94916385 -0.72332048 1.9579999 1.9095543e-38
0.63961333 -0.7589581 1.9580001 1.9095543e-38
0.66049874 -0.75746626 1.9580001 1.9095543e-38
0.74704713 -0.75701982 1.9513216 1.9095543e-38
0.78166568 -0.75331408 1.9510521 1.9095543e-38
0.82569337 -0.75302505 1.9480991 1.9095543e-38
0.85949707 -0.74678075 1.9468975 1.9095543e-38
0.89890844 -0.74753493 1.9415637 1.9095543e-38
0.94098651 -0.74997562 1.9503672 1.9095543e-38
0.96843237 -0.75185043 1.9545861 1.9095543e-38
-1.0065001 -0.71059996 1.9250001 1.9095543e-38
-0.97851002 -0.70114195 1.9343653 1.9095543e-38
-0.94629157 -0.69687396 1.9522309 1.9095543e-38
-0.91453254 -0.68223649 1.9580002 1.9095543e-38
0.94170481 -0.71793336 1.9580001 1.9095543e-38
-0.96648002 -0.66983348 1.9269129 1.9095543e-38
-0.93930709 -0.65872085 1.9330102 1.9095543e-38
-0.90438777 -0.65600127 1.9522306 1.9095543e-38
-0.86252415 -0.64563805 1.9580001 1.9095543e-38
-0.93488163 -0.62619895 1.9286679 1.9095543e-38
-0.90219659 -0.62178355 1.9422306 1.9095543e-38
-0.86313748 -0.61971432 1.9522369 1.9095543e-38
-0.83603495 -0.60356128 1.9580001 1.9095543e-38
-0.92216671 -0.5995 1.9250001 1.9095543e-38
-0.89736879 -0.58211082 1.9264755 1.9095543e-38
-0.85836053 -0.57975477 1.935762 1.9095543e-38
-0.82721925 -0.57932228 1.9562331 1.9095543e-38
-0.89047903 -0.5513106 1.9253788 1.9095543e-38
-0.85519499 -0.54706258 1.9271441 1.9095543e-38
-0.82217884 -0.53863913 1.9476072 1.9095543e-38
-0.79576832 -0.5262382 1.957353 1.9095543e-38
-0.8427223 -0.4992778 1.9250001 1.9095543e-38
-0.82029986 -0.50098193 1.9371296 1.9095543e-38
-0.79064107 -0.49724528 1.9538928 1.9095543e-38
-0.81069684 -0.46763501 1.9267603 1.9095543e-38
-0.78058815 -0.45889571 1.9428868 1.9095543e-38
-0.75383008 -0.44521192 1.9580001 1.9095543e-38
-0.71700096 -0.44474572 1.9580001 1.9095543e-38
-0.80116671 -0.43266666 1.9250001 1.9095543e-38
-0.77484637 -0.42252642 1.9301904 1.9095543e-38
-0.74727541 -0.41677514 1.9538141 1.9095543e-38
-0.71488202 -0.41414669 1.9580001 1.9095543e-38
-0.76404393 -0.38542277 1.9336433 1.9095543e-38
-0.74129963 -0.38030562 1.9500589 1.9095543e-38
-0.70456409 -0.37684885 1.9530574 1.9095543e-38
-0.73088652 -0.34214276 1.9285727 1.9095543e-38
-0.69911772 -0.34022412 1.9449583 1.9095543e-38
-0.66681689 -0.33028224 1.9579999 1.9095543e-38
-0.72657287 -0.30307296 1.9249995 1.9095543e-38
-0.69571841 -0.3021661 1.9319825 1.9095543e-38
-0.66076511 -0.2997945 1.9517423 1.9095543e-38
-0.63186741 -0.28416106 1.9580001 1.9095543e-38
-0.69437498 -0.27591667 1.9250001 1.9095543e-38
-0.65524381 -0.26494965 1.9324257 1.9095543e-38
-0.62491781 -0.25828037 1.9511606 1.9095543e-38
-0.59487832 -0.24793713 1.9573888 1.9095543e-38
-0.64587075 -0.22918209 1.9269412 1.9095543e-38
-0.61984223 -0.2219266 1.9402126 1.9095543e-38
-0.5821197 -0.21686657 1.9536215 1.9095543e-38
-0.54979581 -0.21161982 1.9564288 1.9095543e-38
-0.60744756 -0.18653993 1.9295832 1.9095543e-38
-0.57986945 -0.18020619 1.9412519 1.9095543e-38
-0.53924131 -0.17800058 1.9487218 1.9095543e-38
-0.51312029 -0.17093651 1.9580001 1.9095543e-38
-0.60500002 -0.15766667 1.9250001 1.9095543e-38
-0.57302999 -0.14956592 1.9303925 1.9095543e-38
-0.53893107 -0.14018117 1.938128 1.9095543e-38
-0.50462979 -0.13607867 1.9508986 1.9095543e-38
-0.46679339 -0.1225038 1.9570001 1.9095543e-38
-0.56283337 -0.11916667 1.9250001 1.9095543e-38
-0.5333876 -0.1134158 1.9300537 1.9095543e-38
-0.49833798 -0.10143253 1.9374001 1.9095543e-38
-0.47202662 -0.10386875 1.9498285 1.9095543e-38
-0.49316698 -0.071041085 1.9319348 1.9095543e-38
-0.47553527 -0.072243825 1.9360002 1.9095543e-38
-0.78549737 -0.42773476 1.7819563 1.9095543e-38
-0.9329409 -0.6620515 1.9363049 1.9095543e-38
-0.62092203 0.18299961 1.7452312 1.9095543e-38
-0.63137925 0.19446218 1.7341796 1.9095543e-38
-0.77842033 -0.032292373 1.6795182 1.9095543e-38
0.5404945 -0.68943042 1.9625306 1.9095543e-38
0.64972663 -0.76252401 1.9818751 1.9095543e-38
0.70013726 -0.764 1.9794873 1.9095543e-38
0.73891395 -0.7647897 1.9915719 1.9095543e-38
0.76378977 -0.76227206 1.9920002 1.9095543e-38
0.99387622 -0.76322198 1.9690001 1.9095543e-38
-0.96610487 -0.74947029 1.9690003 1.9095543e-38
-0.93735355 -0.74235064 1.9721136 1.9095543e-38
-0.91032404 -0.73562229 1.9859999 1.9095543e-38
0.62677664 -0.75256062 1.9898129 1.9095543e-38
0.6626547 -0.75325161 1.9836504 1.9095543e-38
0.69665039 -0.75271934 1.9906042 1.9095543e-38
0.74035281 -0.74752975 1.9914994 1.9095543e-38
0.78070354 -0.74209917 1.984673 1.9095543e-38
0.82200933 -0.73981428 1.980669 1.9095543e-38
0.86080557 -0.72982323 1.979485 1.9095543e-38
0.89968729 -0.7315836 1.9831766 1.9095543e-38
0.93835872 -0.73741323 1.9772922 1.9095543e-38
0.98013055 -0.73672146 1.9740468 1.9095543e-38
1.0157605 -0.74661523 1.9861367 1.9095543e-38
-0.93044561 -0.70561939 1.9692211 1.9095543e-38
-0.90180844 -0.69886804 1.9793507 1.9095543e-38
-0.86009723 -0.6923061 1.9892308 1.9095543e-38
0.77213717 -0.71901715 1.9920001 1.9095543e-38
0.83094859 -0.71901715 1.9920001 1.9095543e-38
0.85774571 -0.7173571 1.9920005 1.9095543e-38
0.89165723 -0.71901715 1.9920003 1.9095543e-38
0.95020163 -0.71025115 1.9802932 1.9095543e-38
0.97973442 -0.71491641 1.981355 1.9095543e-38
1.0151296 -0.71411628 1.9920005 1.9095543e-38
-0.89459586 -0.66870981 1.9690009 1.9095543e-38
-0.85819381 -0.66268116 1.9747707 1.9095543e-38
-0.83226681 -0.64984965 1.985 1.9095543e-38
-0.84674209 -0.62762785 1.9690007 1.9095543e-38
-0.82268131 -0.61905122 1.9768825 1.9095543e-38
-0.79869717 -0.60139436 1.9920001 1.9095543e-38
-0.80894637 -0.5807727 1.9743342 1.9095543e-38
-0.789832 -0.57430047 1.9867222 1.9095543e-38
-0.80260199 -0.54944479 1.9690001 1.9095543e-38
-0.77795011 -0.5406931 1.9764439 1.9095543e-38
-0.74461222 -0.52735066 1.9882501 1.9095543e-38
-0.77231395 -0.50356829 1.9703919 1.9095543e-38
-0.74467087 -0.49794763 1.9850726 1.9095543e-38
-0.71408457 -0.49173948 1.9920005 1.9095543e-38
-0.7652415 -0.46895382 1.9690001 1.9095543e-38
-0.74113357 -0.46142915 1.9727411 1.9095543e-38
-0.70534497 -0.45616966 1.9872719 1.9095543e-38
-0.67728001 -0.4420343 1.9920001 1.9095543e-38
-0.73193222 -0.42396462 1.9690009 1.9095543e-38
-0.69869488 -0.42088762 1.9845288 1.9095543e-38
-0.66832137 -0.41115299 1.9920002 1.9095543e-38
-0.68907487 -0.38431513 1.9755098 1.9095543e-38
-0.66354841 -0.37601006 1.9883528 1.9095543e-38
-0.63743997 -0.36235431 1.9920001 1.9095543e-38
-0.68221164 -0.3551701 1.9690001 1.9095543e-38
-0.65520132 -0.3431983 1.976023 1.9095543e-38
-0.62760645 -0.33454099 1.989817 1.9095543e-38
-0.6445381 -0.31109622 1.9710002 1.9095543e-38
-0.61914498 -0.30154434 1.9796456 1.9095543e-38
-0.58725202 -0.29140073 1.9913514 1.9095543e-38
-0.5551514 -0.28907716 1.9920005 1.9095543e-38
-0.60882336 -0.27155986 1.9716194 1.9095543e-38
-0.57971865 -0.2615549 1.984177 1.9095543e-38
-0.54204226 -0.2578651 1.9873846 1.9095543e-38
-0.51210219 -0.24650213 1.9920006 1.9095543e-38
-0.57153565 -0.23408335 1.9738405 1.9095543e-38
-0.5364815 -0.22302896 1.9800762 1.9095543e-38
-0.50778002 -0.21703662 1.9871644 1.9095543e-38
-0.52723211 -0.19438468 1.9701 1.9095543e-38
-0.49887529 -0.18067096 1.9791255 1.9095543e-38
-0.46445027 -0.17173234 1.9904754 1.9095543e-38
-0.49105382 -0.1466756 1.9733552 1.9095543e-38
-0.46260685 -0.14316668 1.97496 1.9095543e-38
-0.059028238 0.3877219 1.9920002 1.9095543e-38
-0.055929698 0.42139623 1.9870852 1.9095543e-38
-0.028179511 0.41676989 1.9919996 1.9095543e-38
-0.062982857 0.44465145 1.9800001 1.9095543e-38
-0.72415411 0.10489173 1.7186016 1.9095543e-38
-0.66692716 0.11699805 1.7470747 1.9095543e-38
-0.72748864 -0.21526277 1.8631124 1.9095543e-38
0.85774571 -0.7173571 1.9920005 1.9095543e-38
0.36814988 -0.73300344 1.9989501 1.9095543e-38
-0.5010255 -0.61590159 2.0033455 1.9095543e-38
-0.54030353 -0.48913619 1.9928236 1.9095543e-38
-0.51300418 -0.34262684 1.9006442 1.9095543e-38
-0.45799673 -0.41968122 1.87793 1.9095543e-38
-0.58319402 0.22207379 1.7461317 1.9095543e-38
-0.52299494 0.32627052 1.7383785 1.9095543e-38
-0.31642044 0.138575 1.8021966 1.9095543e-38
-0.39286467 0.53792292 1.7276282 1.9095543e-38
-0.96821928 -0.21791498 1.7040544 1.9095543e-38
-0.93939447 -0.75589484 1.9901097 1.9095543e-38
-0.89805704 -0.75658661 2.0023355 1.9095543e-38
-0.86204672 -0.77677828 2.0273821 1.9095543e-38
-0.83340085 -0.77805656 2.0389998 1.9095543e-38
-0.13399144 -0.79812282 2.039 1.9095543e-38
-0.057868768 -0.79695773 2.0389998 1.9095543e-38
-0.012155269 -0.63229865 2.0295331 1.9095543e-38
-0.015880408 -0.75122267 2.0219698 1.9095543e-38
0.065576799 -0.79418015 2.0381434 1.9095543e-38
0.075199395 -0.7534247 2.0226986 1.9095543e-38
0.092967458 -0.7297951 2.0109987 1.9095543e-38
0.12559436 -0.7074303 2.0057833 1.9095543e-38
0.21984805 -0.78593004 2.0276818 1.9095543e-38
0.20427056 -0.68733394 2.0047488 1.9095543e-38
0.23037392 -0.75333184 2.0051434 1.9095543e-38
0.28025571 -0.74710357 2.0065346 1.9095543e-38
0.38021845 -0.7763887 2.0199525 1.9095543e-38
0.40085495 -0.76465541 2.0148087 1.9095543e-38
0.45923761 -0.77187842 2.0149996 1.9095543e-38
0.49877617 -0.77114725 2.0145617 1.9095543e-38
0.54051089 -0.77000487 2.0095193 1.9095543e-38
0.57943022 -0.77253461 2.0102286 1.9095543e-38
0.61334735 -0.7660231 2.0037994 1.9095543e-38
0.71726471 -0.77067816 2.003 1.9095543e-38
0.74842256 -0.76241171 2.0030003 1.9095543e-38
0.76113999 -0.76113999 2.003 1.9095543e-38
-0.89518726 -0.74141306 2.0035286 1.9095543e-38
-0.85974258 -0.7408064 2.0117278 1.9095543e-38
-0.82396179 -0.73124766 2.0335667 1.9095543e-38
0.34460098 -0.75829518 2.0371537 1.9095543e-38
0.37581116 -0.75783575 2.0345793 1.9095543e-38
0.42860618 -0.75873005 2.039 1.9095543e-38
0.45445743 -0.75846821 2.036818 1.9095543e-38
0.49579868 -0.75774258 2.0201428 1.9095543e-38
0.535335 -0.75744486 2.0203331 1.9095543e-38
0.58285195 -0.75531757 2.0206249 1.9095543e-38
0.62325132 -0.75013298 2.0190644 1.9095543e-38
0.65984863 -0.73891169 2.0200593 1.9095543e-38
0.70220059 -0.73747718 2.0218253 1.9095543e-38
0.73841912 -0.73261774 2.0214088 1.9095543e-38
0.77547449 -0.73008841 2.018259 1.9095543e-38
0.81767875 -0.7252937 2.0215454 1.9095543e-38
0.85000741 -0.72456831 2.0270004 1.9095543e-38
0.90289617 -0.72219449 2.0210001 1.9095543e-38
0.93776345 -0.72324729 2.0219092 1.9095543e-38
1.0282506 -0.74139613 2.0041425 1.9095543e-38
1.0473801 -0.73580146 2.0169351 1.9095543e-38
-0.89108253 -0.71401066 2.003 1.9095543e-38
-0.85695016 -0.70703131 2.0034056 1.9095543e-38
-0.82117218 -0.69872081 2.0163877 1.9095543e-38
-0.79293275 -0.69067681 2.0314004 1.9095543e-38
0.79025227 -0.71547651 2.020647 1.9095543e-38
0.81644046 -0.7108494 2.0349028 1.9095543e-38
0.86124909 -0.70655864 2.0229993 1.9095543e-38
0.90007389 -0.70379037 2.029845 1.9095543e-38
0.94077229 -0.70011783 2.0260618 1.9095543e-38
0.98058873 -0.69804984 2.0209401 1.9095543e-38
1.0148073 -0.69816679 2.0214436 1.9095543e-38
1.0485365 -0.70631707 2.0285654 1.9095543e-38
-0.84126008 -0.67338955 2.003 1.9095543e-38
-0.81688994 -0.66269082 2.0099552 1.9095543e-38
-0.78306317 -0.65800452 2.0243745 1.9095543e-38
-0.74337041 -0.65366417 2.0390007 1.9095543e-38
0.90169114 -0.67643017 2.039 1.9095543e-38
0.97649527 -0.67604482 2.034579 1.9095543e-38
1.0185289 -0.67772478 2.039 1.9095543e-38
-0.80703521 -0.62546462 2.0055108 1.9095543e-38
-0.77985817 -0.61980325 2.0122643 1.9095543e-38
-0.73996943 -0.61795801 2.0320072 1.9095543e-38
-0.71607733 -0.6117 2.0389998 1.9095543e-38
-0.77298295 -0.583547 2.0047903 1.9095543e-38
-0.73987985 -0.58032078 2.0206141 1.9095543e-38
-0.70866984 -0.57717615 2.0372553 1.9095543e-38
-0.76218051 -0.5478335 2.0030003 1.9095543e-38
-0.74009538 -0.54154438 2.0033839 1.9095543e-38
-0.70441717 -0.53872842 2.0247374 1.9095543e-38
-0.73779064 -0.51040262 2.0029993 1.9095543e-38
-0.6980747 -0.50110883 2.0191107 1.9095543e-38
-0.66064405 -0.49786696 2.037745 1.9095543e-38
-0.63500285 -0.4951857 2.039 1.9095543e-38
-0.69144005 -0.46895242 2.0051529 1.9095543e-38
-0.6606636 -0.45991817 2.0225129 1.9095543e-38
-0.63083965 -0.44939306 2.0381114 1.9095543e-38
-0.65641069 -0.42433289 2.0067143 1.9095543e-38
-0.62136132 -0.41794708 2.0281577 1.9095543e-38
-0.58082378 -0.40663481 2.0390003 1.9095543e-38
-0.64897209 -0.38813683 2.0029993 1.9095543e-38
-0.61980444 -0.38093749 2.015728 1.9095543e-38
-0.57855499 -0.37854534 2.0357392 1.9095543e-38
-0.54525954 -0.37681678 2.0388134 1.9095543e-38
1.0563962 -0.36702001 2.039 1.9095543e-38
-0.61297721 -0.34472612 2.0052931 1.9095543e-38
-0.57909393 -0.34048891 2.0150003 1.9095543e-38
-0.54044884 -0.33991322 2.0297952 1.9095543e-38
-0.51295429 -0.33250865 2.0355721 1.9095543e-38
1.038919 -0.32235616 2.039 1.9095543e-38
1.0504445 -0.33767661 2.0350008 1.9095543e-38
-0.57943016 -0.30593652 2.0035212 1.9095543e-38
-0.53877479 -0.30125797 2.013128 1.9095543e-38
-0.50512755 -0.29750326 2.03262 1.9095543e-38
-0.47236833 -0.28570274 2.0389998 1.9095543e-38
1.0366399 -0.29819512 2.0270002 1.9095543e-38
1.0445952 -0.29822811 2.0222003 1.9095543e-38
-0.52753377 -0.27054796 2.0080767 1.9095543e-38
-0.49744678 -0.26150107 2.0176537 1.9095543e-38
-0.46526399 -0.25766468 2.0340686 1.9095543e-38
1.0354494 -0.25753108 2.0368187 1.9095543e-38
1.0459086 -0.26051205 2.0275221 1.9095543e-38
-0.49058852 -0.22450511 2.0077991 1.9095543e-38
-0.46024197 -0.21957418 2.022547 1.9095543e-38
-0.43343931 -0.21109758 2.0333531 1.9095543e-38
1.0335388 -0.23304649 2.0364738 1.9095543e-38
1.0447638 -0.23132004 2.0239999 1.9095543e-38
-0.48644286 -0.19266953 2.003 1.9095543e-38
-0.45823207 -0.18987107 2.0136662 1.9095543e-38
-0.43490875 -0.19608125 2.0270004 1.9095543e-38
-0.050125409 0.30585009 2.0390005 1.9095543e-38
-0.055663273 0.34167755 2.0257747 1.9095543e-38
-0.025394693 0.34477305 2.0369055 1.9095543e-38
-0.055775248 0.37502155 2.0083683 1.9095543e-38
-0.020082733 0.38073525 2.0239446 1.9095543e-38
0.0066024759 0.38915762 2.0390003 1.9095543e-38
-0.061043818 0.41449842 2.0030003 1.9095543e-38
-0.015998503 0.41697201 2.0089097 1.9095543e-38
0.01489988 0.41328576 2.0290959 1.9095543e-38
-0.71813661 -0.31091425 1.9132982 1.9095543e-38
-0.72443014 -0.44052017 1.9709913 1.9095543e-38
-0.79113972 -0.80582708 2.0760002 1.9095543e-38
-0.68685186 -0.75389642 2.0327802 1.9095543e-38
-0.62250835 -0.73161602 2.0369217 1.9095543e-38
-0.67964828 -0.55933696 1.9880151 1.9095543e-38
-0.56355888 -0.57327372 2.0124183 1.9095543e-38
-0.45428744 -0.66448969 2.0429416 1.9095543e-38
-0.40653536 -0.66694498 2.0455854 1.9095543e-38
-0.32855812 -0.67789489 2.0264335 1.9095543e-38
-0.16294494 -0.7708199 2.0433168 1.9095543e-38
-0.17502664 -0.79588008 2.0550275 1.9095543e-38
-0.086084895 -0.78343129 2.0371845 1.9095543e-38
-0.27879447 -0.77689648 2.045239 1.9095543e-38
-0.26075816 -0.76007801 2.0391135 1.9095543e-38
-0.21274461 -0.72697765 2.0424552 1.9095543e-38
-0.066413336 -0.80379671 2.0510001 1.9095543e-38
-0.029300002 -0.80282003 2.0510004 1.9095543e-38
-0.84952253 -0.78825873 2.0509999 1.9095543e-38
-0.81861168 -0.77968889 2.0573273 1.9095543e-38
-0.78335834 -0.77735239 2.0731289 1.9095543e-38
-0.75658673 -0.76910871 2.0760002 1.9095543e-38
-0.40926862 -0.79678869 2.0760002 1.9095543e-38
-0.36181718 -0.79678869 2.0760002 1.9095543e-38
-0.34006861 -0.79678869 2.0760002 1.9095543e-38
-0.29657146 -0.79678869 2.0760002 1.9095543e-38
-0.25009722 -0.79648232 2.0722861 1.9095543e-38
-0.21607417 -0.79259431 2.0655103 1.9095543e-38
-0.18504471 -0.79383302 2.0643489 1.9095543e-38
-0.13903868 -0.79050165 2.0675919 1.9095543e-38
-0.099169463 -0.79187477 2.0682449 1.9095543e-38
-0.0579396 -0.78517503 2.0598803 1.9095543e-38
-0.022313058 -0.78801602 2.0607476 1.9095543e-38
0.022043651 -0.77942449 2.0614238 1.9095543e-38
0.057470541 -0.78140152 2.0611277 1.9095543e-38
0.099511772 -0.77222937 2.0619192 1.9095543e-38
0.14051329 -0.77161366 2.0631943 1.9095543e-38
0.17977509 -0.77016896 2.0647762 1.9095543e-38
0.22034843 -0.76964319 2.065738 1.9095543e-38
0.25933662 -0.77145916 2.061676 1.9095543e-38
0.30119172 -0.76424927 2.0573332 1.9095543e-38
0.32663068 -0.7648192 2.0594704 1.9095543e-38
0.39652669 -0.76375335 2.0510001 1.9095543e-38
0.41364628 -0.7628969 2.0570002 1.9095543e-38
0.45479861 -0.76290578 2.0540001 1.9095543e-38
0.50244075 -0.76418746 2.0510004 1.9095543e-38
0.53311366 -0.7631883 2.0530002 1.9095543e-38
0.56786191 -0.76486957 2.0510004 1.9095543e-38
0.6133467 -0.76375335 2.0510001 1.9095543e-38
-0.84384 -0.75594008 2.0510004 1.9095543e-38
-0.81567556 -0.74708372 2.0525858 1.9095543e-38
-0.77999568 -0.73857707 2.061573 1.9095543e-38
-0.75460595 -0.73382664 2.0707726 1.9095543e-38
0.11401525 -0.75592774 2.0760002 1.9095543e-38
0.14159387 -0.75633323 2.0760002 1.9095543e-38
0.18413793 -0.7554006 2.0760002 1.9095543e-38
0.21867205 -0.75566411 2.0760002 1.9095543e-38
0.27735215 -0.74913722 2.0727501 1.9095543e-38
0.2992557 -0.75018668 2.0704017 1.9095543e-38
0.34009719 -0.75304276 2.0664577 1.9095543e-38
0.38036597 -0.75167447 2.0631397 1.9095543e-38
0.42028245 -0.74869859 2.0656447 1.9095543e-38
0.46114507 -0.7448979 2.0607359 1.9095543e-38
0.50062829 -0.74536228 2.0608487 1.9095543e-38
0.54022974 -0.74298537 2.0610249 1.9095543e-38
0.58072805 -0.74430269 2.0603955 1.9095543e-38
0.61826736 -0.73708946 2.0582719 1.9095543e-38
0.65483481 -0.73058563 2.0607553 1.9095543e-38
0.70074886 -0.72570229 2.0558503 1.9095543e-38
0.74420667 -0.72162414 2.0554121 1.9095543e-38
0.77948397 -0.72360587 2.0639565 1.9095543e-38
0.83798003 -0.72859341 2.0510001 1.9095543e-38
0.84352869 -0.72217816 2.0550003 1.9095543e-38
-0.80282003 -0.71687335 2.0510001 1.9095543e-38
-0.77728742 -0.70164591 2.053345 1.9095543e-38
-0.74223584 -0.69769114 2.0640936 1.9095543e-38
0.62507403 -0.71547025 2.0722859 1.9095543e-38
0.6691165 -0.71619779 2.0594618 1.9095543e-38
0.6992901 -0.71398544 2.0666153 1.9095543e-38
0.73570597 -0.71548969 2.055167 1.9095543e-38
0.78468162 -0.71246225 2.0637498 1.9095543e-38
0.82292551 -0.70068097 2.0623517 1.9095543e-38
0.85981965 -0.69362247 2.0602252 1.9095543e-38
0.89598972 -0.68591213 2.0566285 1.9095543e-38
0.93691063 -0.68557626 2.0571113 1.9095543e-38
0.96792942 -0.68375736 2.0669093 1.9095543e-38
1.0239823 -0.68535358 2.0535719 1.9095543e-38
1.0617994 -0.69454229 2.0630906 1.9095543e-38
1.0814974 -0.69397724 2.0760002 1.9095543e-38
-0.76765996 -0.66804004 2.0510001 1.9095543e-38
-0.73534548 -0.66453779 2.0561206 1.9095543e-38
-0.70380473 -0.65353483 2.071866 1.9095543e-38
0.86911935 -0.67724615 2.0745556 1.9095543e-38
0.90353888 -0.67524302 2.0684328 1.9095543e-38
0.93749303 -0.67332053 2.0715008 1.9095543e-38
0.98261815 -0.66589075 2.0657418 1.9095543e-38
1.0177469 -0.66670907 2.0675414 1.9095543e-38
1.0584171 -0.6711086 2.0690432 1.9095543e-38
1.0814973 -0.66827434 2.0760002 1.9095543e-38
-0.7217567 -0.63288003 2.0510001 1.9095543e-38
-0.69872457 -0.62105358 2.0582023 1.9095543e-38
-0.67437267 -0.61051923 2.0738335 1.9095543e-38
-0.69166791 -0.58145589 2.0517509 1.9095543e-38
-0.66936672 -0.57936972 2.0656633 1.9095543e-38
-0.68578988 -0.53971452 2.0509999 1.9095543e-38
-0.6604985 -0.54053169 2.0579343 1.9095543e-38
-0.63209921 -0.53354377 2.0701613 1.9095543e-38
1.0741535 -0.53637069 2.0760002 1.9095543e-38
-0.68659675 -0.51665664 2.0510001 1.9095543e-38
-0.64908123 -0.50131726 2.0510004 1.9095543e-38
-0.62457979 -0.49777016 2.0607071 1.9095543e-38
-0.58539915 -0.48538858 2.0760002 1.9095543e-38
1.0727098 -0.50219429 2.0760007 1.9095543e-38
-0.64329785 -0.4674978 2.0510004 1.9095543e-38
-0.61652988 -0.46375775 2.0544426 1.9095543e-38
-0.58161008 -0.45933831 2.0718598 1.9095543e-38
-0.55357116 -0.45475015 2.0753343 1.9095543e-38
1.0380001 -0.46067432 2.0760002 1.9095543e-38
1.0636505 -0.45767504 2.0720813 1.9095543e-38
-0.60699838 -0.43608168 2.0510004 1.9095543e-38
-0.58027947 -0.42250553 2.0540004 1.9095543e-38
-0.54285514 -0.41812766 2.0673676 1.9095543e-38
-0.51383752 -0.4070718 2.0760002 1.9095543e-38
1.035364 -0.41137761 2.0760002 1.9095543e-38
1.0565541 -0.41847226 2.0684197 1.9095543e-38
-0.58665115 -0.39044964 2.0510004 1.9095543e-38
-0.52865022 -0.38286868 2.0592616 1.9095543e-38
-0.50316954 -0.37728241 2.0735083 1.9095543e-38
-0.47517335 -0.36313528 2.0760002 1.9095543e-38
1.0316415 -0.3766855 2.0707517 1.9095543e-38
1.0546751 -0.38172784 2.0614824 1.9095543e-38
-0.49529162 -0.34104675 2.0639703 1.9095543e-38
-0.46882248 -0.33341819 2.0760005 1.9095543e-38
1.0303414 -0.33958828 2.0687199 1.9095543e-38
1.0463947 -0.34587902 2.0555675 1.9095543e-38
-0.49031392 -0.30959043 2.0561817 1.9095543e-38
-0.45768225 -0.300001 2.0668015 1.9095543e-38
-0.42244956 -0.28701532 2.0760002 1.9095543e-38
1.0305731 -0.30365369 2.0678751 1.9095543e-38
1.0421555 -0.30710763 2.0540001 1.9095543e-38
-0.44926092 -0.26596177 2.0595613 1.9095543e-38
-0.42718473 -0.25724664 2.0624404 1.9095543e-38
1.0246534 -0.25941855 2.0648868 1.9095543e-38
1.0432887 -0.27703145 2.0630002 1.9095543e-38
-0.4434067 -0.23635335 2.0510001 1.9095543e-38
-0.42840511 -0.23072775 2.0509996 1.9095543e-38
0.98791254 -0.23528004 2.0760002 1.9095543e-38
1.0241345 -0.23496461 2.0709336 1.9095543e-38
-0.04767723 0.26750246 2.0714171 1.9095543e-38
-0.024523797 0.26560587 2.0723453 1.9095543e-38
0.0019771431 0.27482289 2.0760002 1.9095543e-38
-0.053265996 0.29457852 2.0531764 1.9095543e-38
-0.019769782 0.30056465 2.0615916 1.9095543e-38
0.0043497151 0.30250287 2.0760002 1.9095543e-38
-0.064460002 0.33011338 2.0510004 1.9095543e-38
-0.011316388 0.33368644 2.0525007 1.9095543e-38
0.017250014 0.34314525 2.0625944 1.9095543e-38
0.041520003 0.34995434 2.0760002 1.9095543e-38
-0.0019533334 0.36722669 2.0510001 1.9095543e-38
0.022426255 0.37738419 2.0556862 1.9095543e-38
0.050409328 0.3843576 2.0725346 1.9095543e-38
0.027737334 0.40199599 2.0510004 1.9095543e-38
0.042062383 0.40394908 2.0540001 1.9095543e-38
-0.57881677 -0.085454009 1.8904839 1.9095543e-38
-0.73263699 -0.5341301 2.0036817 1.9095543e-38
-0.66707516 -0.66769022 2.0318141 1.9095543e-38
-0.60714054 -0.74305737 2.0304184 1.9095543e-38
-0.5669601 -0.80717087 2.0774026 1.9095543e-38
-0.53123599 -0.80083841 2.0768805 1.9095543e-38
-0.58995003 -0.80138856 2.0893524 1.9095543e-38
-0.54114878 -0.80747902 2.0995805 1.9095543e-38
-0.51674128 -0.78405523 2.088203 1.9095543e-38
-0.46394143 -0.79308617 2.0922863 1.9095543e-38
-0.42503422 -0.80673808 2.0948091 1.9095543e-38
-0.38328058 -0.80324674 2.0961251 1.9095543e-38
-0.33623007 -0.80174714 2.0926428 1.9095543e-38
-0.31716716 -0.80188811 2.0945001 1.9095543e-38
-0.2688143 -0.80288863 2.0945003 1.9095543e-38
-0.77289146 -0.78902096 2.0880001 1.9095543e-38
-0.73994756 -0.78036356 2.0944986 1.9095543e-38
-0.71402109 -0.78148359 2.1096661 1.9095543e-38
-0.60399997 -0.7992934 2.1140001 1.9095543e-38
-0.58010507 -0.79544789 2.1097939 1.9095543e-38
-0.54158664 -0.79828674 2.1140001 1.9095543e-38
-0.50333333 -0.7992934 2.1140001 1.9095543e-38
-0.44696 -0.7992934 2.1140001 1.9095543e-38
-0.41260436 -0.79196477 2.110976 1.9095543e-38
-0.37913531 -0.79326659 2.1122658 1.9095543e-38
-0.33976865 -0.79268038 2.108484 1.9095543e-38
-0.29934353 -0.79177976 2.1046553 1.9095543e-38
-0.25807041 -0.78841025 2.1055574 1.9095543e-38
-0.2228242 -0.77893466 2.102252 1.9095543e-38
-0.17897591 -0.77854347 2.1003911 1.9095543e-38
-0.14044924 -0.77166742 2.0980127 1.9095543e-38
-0.099479266 -0.77655602 2.1024234 1.9095543e-38
-0.062306412 -0.76950079 2.0951958 1.9095543e-38
-0.017523834 -0.77337617 2.0917132 1.9095543e-38
0.017065383 -0.76709145 2.0913908 1.9095543e-38
0.061033327 -0.76623112 2.0925345 1.9095543e-38
0.093516037 -0.76713729 2.0969143 1.9095543e-38
0.16372573 -0.76294863 2.0880001 1.9095543e-38
0.25677431 -0.763363 2.0879998 1.9095543e-38
-0.76162291 -0.75366861 2.0880001 1.9095543e-38
-0.73794901 -0.74117583 2.0895362 1.9095543e-38
-0.703776 -0.73912287 2.1027918 1.9095543e-38
-0.24562666 -0.75902671 2.1140001 1.9095543e-38
-0.17134756 -0.75667828 2.1130719 1.9095543e-38
-0.15113097 -0.75642675 2.1123753 1.9095543e-38
-0.055761803 -0.75366729 2.1064734 1.9095543e-38
-0.020238405 -0.75545716 2.1052251 1.9095543e-38
0.018407404 -0.75578898 2.1074994 1.9095543e-38
0.060950968 -0.75259817 2.1060863 1.9095543e-38
0.10456729 -0.74952948 2.1043696 1.9095543e-38
0.1392886 -0.74891937 2.1004422 1.9095543e-38
0.17914869 -0.7459963 2.0954273 1.9095543e-38
0.22022602 -0.74742442 2.0978944 1.9095543e-38
0.25984892 -0.74562877 2.0948157 1.9095543e-38
0.29958281 -0.73364127 2.1029058 1.9095543e-38
0.3394981 -0.73617905 2.1026762 1.9095543e-38
0.37900206 -0.73728019 2.1064029 1.9095543e-38
0.4180558 -0.73219484 2.1046882 1.9095543e-38
0.45871782 -0.72995853 2.100338 1.9095543e-38
0.50016367 -0.72794169 2.0972536 1.9095543e-38
0.5415805 -0.72653055 2.0979214 1.9095543e-38
0.57944971 -0.72639447 2.0964894 1.9095543e-38
0.61102343 -0.72625309 2.098706 1.9095543e-38
0.66294616 -0.72266412 2.0903637 1.9095543e-38
0.71588576 -0.72185147 2.0880001 1.9095543e-38
0.74273145 -0.72185141 2.0880001 1.9095543e-38
0.77753145 -0.72264683 2.0880001 1.9095543e-38
0.80537146 -0.72185147 2.0880001 1.9095543e-38
-0.7255103 -0.70276105 2.0880003 1.9095543e-38
-0.70108396 -0.70026588 2.097718 1.9095543e-38
-0.66851664 -0.69400746 2.1082921 1.9095543e-38
0.29998669 -0.71714938 2.1140001 1.9095543e-38
0.34307203 -0.71755201 2.1140001 1.9095543e-38
0.38052002 -0.71876007 2.1140001 1.9095543e-38
0.41645026 -0.7178309 2.1140003 1.9095543e-38
0.47086471 -0.71467769 2.112267 1.9095543e-38
0.50217617 -0.71446639 2.1122887 1.9095543e-38
0.53929168 -0.71306205 2.1115618 1.9095543e-38
0.58319777 -0.71375632 2.110285 1.9095543e-38
0.62156624 -0.70888025 2.1039128 1.9095543e-38
0.66156471 -0.70715344 2.104249 1.9095543e-38
0.69767427 -0.70133168 2.0979655 1.9095543e-38
0.74159878 -0.7052688 2.1002922 1.9095543e-38
0.77895021 -0.70297331 2.0960464 1.9095543e-38
0.81689 -0.69438022 2.0939255 1.9095543e-38
0.85275692 -0.6913259 2.0884197 1.9095543e-38
-0.69364566 -0.66773355 2.0899999 1.9095543e-38
-0.66110677 -0.65899372 2.0999587 1.9095543e-38
-0.63621336 -0.64426672 2.1140001 1.9095543e-38
0.82956845 -0.67518288 2.0960476 1.9095543e-38
0.86036837 -0.66909003 2.0976076 1.9095543e-38
0.8991217 -0.66905111 2.1004989 1.9095543e-38
0.94045722 -0.66248524 2.0994825 1.9095543e-38
0.97642297 -0.65489393 2.0945857 1.9095543e-38
1.0200269 -0.64853287 2.0999997 1.9095543e-38
1.0602241 -0.65954328 2.1059425 1.9095543e-38
1.090579 -0.65401113 2.1104245 1.9095543e-38
-0.68208003 -0.6317029 2.0880001 1.9095543e-38
-0.65864867 -0.62315232 2.0953655 1.9095543e-38
-0.63137752 -0.6177038 2.1060865 1.9095543e-38
0.98752046 -0.63826525 2.1075001 1.9095543e-38
1.0328401 -0.63822669 2.1140001 1.9095543e-38
1.0422356 -0.63688445 2.1140001 1.9095543e-38
1.089041 -0.61759865 2.1059108 1.9095543e-38
-0.65186906 -0.58341652 2.0879993 1.9095543e-38
-0.62212199 -0.57931054 2.0983987 1.9095543e-38
-0.58944029 -0.56993431 2.1098213 1.9095543e-38
1.0771333 -0.56373334 2.1140001 1.9095543e-38
1.0877011 -0.58044285 2.1063955 1.9095543e-38
-0.64429712 -0.5587886 2.0880001 1.9095543e-38
-0.61616606 -0.54115093 2.0927398 1.9095543e-38
-0.58030087 -0.54044539 2.1021416 1.9095543e-38
-0.55251592 -0.52475423 2.1127002 1.9095543e-38
1.0661423 -0.53464097 2.1060548 1.9095543e-38
1.0836418 -0.55581748 2.0993752 1.9095543e-38
-0.61021715 -0.50832009 2.0880005 1.9095543e-38
-0.57854432 -0.50452316 2.0901935 1.9095543e-38
-0.54455662 -0.49671698 2.1022124 1.9095543e-38
1.0339587 -0.49438518 2.1139998 1.9095543e-38
1.0591615 -0.50058049 2.1068876 1.9095543e-38
-0.59458292 -0.47129148 2.0880001 1.9095543e-38
-0.53599578 -0.46330917 2.0929179 1.9095543e-38
-0.51119977 -0.45447534 2.107348 1.9095543e-38
1.0321459 -0.45637959 2.1119468 1.9095543e-38
1.0487241 -0.46088541 2.0967271 1.9095543e-38
-0.52753961 -0.43350855 2.0879998 1.9095543e-38
-0.50021869 -0.41977397 2.0953882 1.9095543e-38
-0.46538976 -0.40591899 2.1140003 1.9095543e-38
1.0315828 -0.41943109 2.1032934 1.9095543e-38
1.0449924 -0.43499461 2.0899999 1.9095543e-38
-0.48876807 -0.39080629 2.0895004 1.9095543e-38
-0.46086448 -0.37985012 2.1007192 1.9095543e-38
-0.41880998 -0.36848959 2.1136382 1.9095543e-38
-0.39662668 -0.36038667 2.1140001 1.9095543e-38
1.0214764 -0.38013151 2.1046882 1.9095543e-38
-0.45592242 -0.34440431 2.0902598 1.9095543e-38
-0.42025167 -0.33849484 2.1009986 1.9095543e-38
-0.38157323 -0.33412912 2.1132665 1.9095543e-38
-0.35394403 -0.33864269 2.1140001 1.9095543e-38
1.0171969 -0.33894676 2.103138 1.9095543e-38
-0.44444573 -0.3132 2.0880001 1.9095543e-38
-0.41952536 -0.30166799 2.0901897 1.9095543e-38
-0.37961251 -0.30207711 2.1113989 1.9095543e-38
-0.35358357 -0.30105758 2.1126316 1.9095543e-38
1.0158702 -0.29773644 2.1029294 1.9095543e-38
-0.41902044 -0.27357063 2.0880003 1.9095543e-38
0.99431109 -0.25272506 2.1045456 1.9095543e-38
1.0083138 -0.26116535 2.0956342 1.9095543e-38
0.93915862 -0.23549619 2.1062 1.9095543e-38
0.99644542 -0.23678349 2.1010003 1.9095543e-38
1.0114598 -0.23483221 2.0879998 1.9095543e-38
-0.022741428 0.19602685 2.1075001 1.9095543e-38
-0.041759998 0.23067428 2.0880001 1.9095543e-38
-0.020346295 0.22207884 2.0986776 1.9095543e-38
0.011343943 0.23377107 2.1110451 1.9095543e-38
-0.047062863 0.25122285 2.0880001 1.9095543e-38
-0.013651364 0.25046134 2.0894768 1.9095543e-38
0.018108802 0.26196077 2.1035686 1.9095543e-38
0.048521336 0.27260536 2.1139998 1.9095543e-38
-0.0019885714 0.28237715 2.0880001 1.9095543e-38
0.023233946 0.29872054 2.0956736 1.9095543e-38
0.049681995 0.29940897 2.1087992 1.9095543e-38
0.027520625 0.32708707 2.0893452 1.9095543e-38
0.05946916 0.34121189 2.0991416 1.9095543e-38
0.085561909 0.35055324 2.1102858 1.9095543e-38
0.064527579 0.37128106 2.091023 1.9095543e-38
0.088270955 0.36988068 2.1062002 1.9095543e-38
-0.6947912 -0.80707252 2.1336854 1.9095543e-38
-0.66105354 -0.80855095 2.1380877 1.9095543e-38
-0.62678218 -0.80688232 2.1379998 1.9095543e-38
-0.56314862 -0.80015719 2.1270001 1.9095543e-38
-0.53453535 -0.80294257 2.1270003 1.9095543e-38
-0.49615535 -0.80449808 2.1269999 1.9095543e-38
-0.46198204 -0.80230212 2.1270003 1.9095543e-38
-0.43451574 -0.80117011 2.1270001 1.9095543e-38
-0.69699305 -0.78208625 2.136616 1.9095543e-38
-0.66058052 -0.77828801 2.1479638 1.9095543e-38
-0.62143373 -0.78306437 2.1485479 1.9095543e-38
-0.5793736 -0.78394204 2.1393154 1.9095543e-38
-0.53928602 -0.78552496 2.1390367 1.9095543e-38
-0.50131488 -0.78950179 2.1413379 1.9095543e-38
-0.45995161 -0.78957105 2.1421664 1.9095543e-38
-0.4202098 -0.77632004 2.1391444 1.9095543e-38
-0.38069454 -0.77613658 2.1389656 1.9095543e-38
-0.34146628 -0.77385408 2.1359589 1.9095543e-38
-0.29873589 -0.77622467 2.1360791 1.9095543e-38
-0.26482475 -0.77273768 2.1348925 1.9095543e-38
-0.21873879 -0.76508081 2.138725 1.9095543e-38
-0.1950006 -0.76216447 2.138375 1.9095543e-38
-0.12786905 -0.76289111 2.1413 1.9095543e-38
-0.10153977 -0.76543224 2.140265 1.9095543e-38
-0.077447623 -0.76222908 2.1400001 1.9095543e-38
-0.68650979 -0.74175322 2.1313331 1.9095543e-38
-0.66084021 -0.74187887 2.1474068 1.9095543e-38
-0.62568814 -0.73455852 2.1530001 1.9095543e-38
-0.36703527 -0.75662571 2.1530001 1.9095543e-38
-0.35264859 -0.75738001 2.1465001 1.9095543e-38
-0.24663788 -0.75527966 2.1430001 1.9095543e-38
-0.22172672 -0.75268799 2.1510882 1.9095543e-38
-0.1801486 -0.75307429 2.144702 1.9095543e-38
-0.13839391 -0.75010866 2.1474285 1.9095543e-38
-0.10198892 -0.74788898 2.1530001 1.9095543e-38
-0.058202203 -0.74074459 2.1441598 1.9095543e-38
-0.020546142 -0.73942047 2.1412742 1.9095543e-38
0.020900238 -0.73951507 2.1414998 1.9095543e-38
0.061236959 -0.74001181 2.1424072 1.9095543e-38
0.09894716 -0.73675168 2.1376359 1.9095543e-38
0.13941972 -0.73118025 2.1339574 1.9095543e-38
0.17928402 -0.73159719 2.1338935 1.9095543e-38
0.21962163 -0.73234278 2.1343234 1.9095543e-38
0.25911781 -0.73105645 2.136313 1.9095543e-38
0.2950283 -0.72594035 2.1291671 1.9095543e-38
0.32917857 -0.72419292 2.1270001 1.9095543e-38
0.3772893 -0.72469932 2.1270001 1.9095543e-38
0.4546808 -0.72502154 2.1270003 1.9095543e-38
-0.68401623 -0.71777815 2.1270003 1.9095543e-38
-0.65296268 -0.70329994 2.1322746 1.9095543e-38
-0.62109309 -0.70113194 2.1462808 1.9095543e-38
-0.59091121 -0.69485837 2.1507714 1.9095543e-38
-0.0041009528 -0.7197172 2.1530001 1.9095543e-38
0.022555239 -0.7197172 2.1530001 1.9095543e-38
0.11482667 -0.7197172 2.1530001 1.9095543e-38
0.14203393 -0.71774626 2.1516316 1.9095543e-38
0.18016241 -0.71550786 2.1474285 1.9095543e-38
0.21594925 -0.71760452 2.1500001 1.9095543e-38
0.26231977 -0.71533573 2.1514244 1.9095543e-38
0.30092573 -0.71360999 2.1394997 1.9095543e-38
0.33983475 -0.71109778 2.1349819 1.9095543e-38
0.38135779 -0.71257222 2.142031 1.9095543e-38
0.42096135 -0.71099293 2.1391995 1.9095543e-38
0.45908993 -0.70918185 2.1397791 1.9095543e-38
0.50039023 -0.70144886 2.1417873 1.9095543e-38
0.54105949 -0.7012918 2.1429646 1.9095543e-38
0.5786013 -0.69903934 2.1413925 1.9095543e-38
0.61854184 -0.70114416 2.1472456 1.9095543e-38
0.65956783 -0.69092822 2.1373589 1.9095543e-38
0.70030153 -0.68651122 2.1361585 1.9095543e-38
0.73982406 -0.69225264 2.1354997 1.9095543e-38
0.78098184 -0.68843383 2.1381795 1.9095543e-38
0.8132695 -0.68737102 2.1378331 1.9095543e-38
-0.64397925 -0.66867638 2.1281822 1.9095543e-38
-0.6202451 -0.66052729 2.1362851 1.9095543e-38
-0.58104044 -0.6588679 2.1434944 1.9095543e-38
-0.55788738 -0.65473288 2.1530001 1.9095543e-38
0.58028477 -0.67870766 2.1530001 1.9095543e-38
0.66879833 -0.67392135 2.1519167 1.9095543e-38
0.69986272 -0.67583275 2.1504002 1.9095543e-38
0.73910737 -0.67587519 2.1489654 1.9095543e-38
0.77680981 -0.67674273 2.1496086 1.9095543e-38
0.82379478 -0.66965359 2.1421309 1.9095543e-38
0.85728079 -0.66125071 2.1381087 1.9095543e-38
0.90344501 -0.65669155 2.1368027 1.9095543e-38
0.93867147 -0.65037471 2.136616 1.9095543e-38
0.9774881 -0.64825481 2.134526 1.9095543e-38
1.0231028 -0.64447492 2.1394346 1.9095543e-38
1.0674361 -0.6478436 2.1301377 1.9095543e-38
1.0869231 -0.64363289 2.1302502 1.9095543e-38
-0.61449307 -0.62226593 2.1330512 1.9095543e-38
-0.57928032 -0.61920083 2.1348743 1.9095543e-38
-0.5477435 -0.611889 2.1503999 1.9095543e-38
0.94663835 -0.63782007 2.1455717 1.9095543e-38
0.97594261 -0.63511264 2.1416774 1.9095543e-38
1.0261561 -0.62870896 2.1437454 1.9095543e-38
1.0607404 -0.61809337 2.1357429 1.9095543e-38
1.0859306 -0.6238969 2.1286249 1.9095543e-38
-0.60703909 -0.59623528 2.1270001 1.9095543e-38
-0.57573205 -0.58346218 2.1286244 1.9095543e-38
-0.54034787 -0.57800996 2.1398568 1.9095543e-38
-0.51708847 -0.57441813 2.1492858 1.9095543e-38
1.0370792 -0.57176006 2.1447272 1.9095543e-38
1.062896 -0.57987428 2.1387315 1.9095543e-38
1.0846575 -0.58768219 2.1270001 1.9095543e-38
-0.56483668 -0.54728049 2.1270003 1.9095543e-38
-0.53844953 -0.53979301 2.130445 1.9095543e-38
-0.50486481 -0.53727698 2.1430271 1.9095543e-38
-0.47424588 -0.52931583 2.1530001 1.9095543e-38
1.0358198 -0.53739345 2.1424072 1.9095543e-38
1.0538932 -0.54457241 2.131952 1.9095543e-38
-0.52785206 -0.5052622 2.1269996 1.9095543e-38
-0.50069511 -0.49931133 2.1362078 1.9095543e-38
-0.46673673 -0.49267283 2.1479445 1.9095543e-38
1.0281832 -0.49962881 2.1354599 1.9095543e-38
1.0432429 -0.50845432 2.1270001 1.9095543e-38
-0.49358505 -0.4616091 2.1284213 1.9095543e-38
-0.46078184 -0.46050176 2.1399996 1.9095543e-38
-0.42178947 -0.45174056 2.1477997 1.9095543e-38
-0.39881763 -0.44597858 2.1530001 1.9095543e-38
-0.30142003 -0.44700381 2.1530001 1.9095543e-38
1.0213554 -0.46003681 2.132827 1.9095543e-38
-0.4822759 -0.42960733 2.1270003 1.9095543e-38
-0.45675832 -0.42438215 2.1293488 1.9095543e-38
-0.42027602 -0.41996112 2.1383746 1.9095543e-38
-0.39532095 -0.41783905 2.1470416 1.9095543e-38
1.0208989 -0.42020389 2.1320777 1.9095543e-38
1.0452687 -0.42134857 2.1270001 1.9095543e-38
-0.44588223 -0.391413 2.1270001 1.9095543e-38
-0.42098013 -0.38603386 2.1276386 1.9095543e-38
-0.38131291 -0.38137698 2.1355307 1.9095543e-38
-0.35504329 -0.37999734 2.1371109 1.9095543e-38
1.0127418 -0.38175863 2.1294372 1.9095543e-38
-0.37408197 -0.34963831 2.1269999 1.9095543e-38
-0.35666084 -0.34018499 2.1270006 1.9095543e-38
0.99600106 -0.33207038 2.1479445 1.9095543e-38
1.007292 -0.34152615 2.136533 1.9095543e-38
-0.38893718 -0.29170287 2.1270001 1.9095543e-38
-0.35652572 -0.31803715 2.1270001 1.9095543e-38
0.99152166 -0.30043647 2.1471913 1.9095543e-38
1.0039642 -0.30138808 2.1382663 1.9095543e-38
0.95158553 -0.24653801 2.1329091 1.9095543e-38
0.98235083 -0.25846928 2.132761 1.9095543e-38
1.0027328 -0.2710622 2.1307144 1.9095543e-38
0.94195718 -0.23700857 2.1270001 1.9095543e-38
0.98239917 -0.23845714 2.1400001 1.9095543e-38
-0.0020504764 0.098422855 2.1530001 1.9095543e-38
0.0079968581 0.10826515 2.1530001 1.9095543e-38
-0.0027153972 0.14251606 2.1378336 1.9095543e-38
0.013438571 0.14437959 2.1508334 1.9095543e-38
-0.0085321432 0.18122177 2.1334996 1.9095543e-38
0.019858832 0.18001996 2.1429482 1.9095543e-38
0.050252192 0.18800427 2.1504002 1.9095543e-38
-0.0051450557 0.20862933 2.1300004 1.9095543e-38
0.022093846 0.21689349 2.1361303 1.9095543e-38
0.057503141 0.22341269 2.1465843 1.9095543e-38
0.03427894 0.24969308 2.1315885 1.9095543e-38
0.063446909 0.25883198 2.1416819 1.9095543e-38
0.097085603 0.26629454 2.1530001 1.9095543e-38
0.1209781 0.26451147 2.1530001 1.9095543e-38
0.070618413 0.30156264 2.1344993 1.9095543e-38
0.099860221 0.3012566 2.1482978 1.9095543e-38
0.13248475 0.30672011 2.1518445 1.9095543e-38
0.07191287 0.32512712 2.1270003 1.9095543e-38
0.10214617 0.33996901 2.1364245 1.9095543e-38
0.13120918 0.33684924 2.1488214 1.9095543e-38
0.10525656 0.3665449 2.1277649 1.9095543e-38
0.1259843 0.36167288 2.1335001 1.9095543e-38
-0.61500198 -0.77079606 2.1749129 1.9095543e-38
-0.57753813 -0.76958352 2.1759245 1.9095543e-38
-0.54086673 -0.76990843 2.1817164 1.9095543e-38
-0.50023985 -0.77389061 2.1765542 1.9095543e-38
-0.46129769 -0.77289188 2.1797764 1.9095543e-38
-0.42507026 -0.76479876 2.1677778 1.9095543e-38
-0.38448772 -0.76526082 2.1670001 1.9095543e-38
-0.33377427 -0.76679909 2.1670001 1.9095543e-38
-0.30326214 -0.76628858 2.1690488 1.9095543e-38
-0.26859009 -0.76449412 2.1670001 1.9095543e-38
-0.6156646 -0.74612838 2.1713078 1.9095543e-38
-0.57901317 -0.73925185 2.1822848 1.9095543e-38
-0.54835087 -0.74092811 2.194 1.9095543e-38
-0.4959341 -0.75439566 2.1919689 1.9095543e-38
-0.46250802 -0.75336426 2.193037 1.9095543e-38
-0.42020851 -0.75403845 2.1831429 1.9095543e-38
-0.3790575 -0.75164151 2.181649 1.9095543e-38
-0.34203872 -0.74782372 2.1822109 1.9095543e-38
-0.29820213 -0.74896991 2.1850147 1.9095543e-38
-0.25735116 -0.74730909 2.1815832 1.9095543e-38
-0.21830581 -0.735246 2.1766834 1.9095543e-38
-0.17975613 -0.73689616 2.177335 1.9095543e-38
-0.14193431 -0.73655564 2.1786556 1.9095543e-38
-0.098120131 -0.73488516 2.179754 1.9095543e-38
-0.062281758 -0.72717601 2.1783192 1.9095543e-38
-0.02368167 -0.7220192 2.1738749 1.9095543e-38
0.022664897 -0.72177881 2.1750343 1.9095543e-38
0.059933059 -0.72550035 2.1792653 1.9095543e-38
0.097161062 -0.72395509 2.1781578 1.9095543e-38
0.1333221 -0.72026962 2.1670001 1.9095543e-38
0.23527429 -0.72026956 2.1670001 1.9095543e-38
0.24146572 -0.72026956 2.1670001 1.9095543e-38
-0.62327051 -0.71614194 2.1670001 1.9095543e-38
-0.57496446 -0.70293659 2.1742322 1.9095543e-38
-0.54523861 -0.69719124 2.1886394 1.9095543e-38
-0.51611239 -0.68327427 2.194 1.9095543e-38
-0.052760474 -0.71304995 2.194 1.9095543e-38
-0.019249439 -0.71193314 2.1910667 1.9095543e-38
0.014598731 -0.71463227 2.1891112 1.9095543e-38
0.062128522 -0.71141326 2.194 1.9095543e-38
0.10469023 -0.70655751 2.1889474 1.9095543e-38
0.14050347 -0.70183766 2.1821566 1.9095543e-38
0.17891379 -0.7002486 2.1825175 1.9095543e-38
0.21995519 -0.70220745 2.1813412 1.9095543e-38
0.25939882 -0.70066208 2.1819768 1.9095543e-38
0.30073753 -0.69805223 2.1789343 1.9095543e-38
0.34102276 -0.69514465 2.1761274 1.9095543e-38
0.38023454 -0.69455695 2.178431 1.9095543e-38
0.42050925 -0.69359219 2.1733162 1.9095543e-38
0.46021599 -0.69277072 2.1752934 1.9095543e-38
0.49758932 -0.68793422 2.1688421 1.9095543e-38
0.54074478 -0.6882264 2.1714399 1.9095543e-38
0.57933974 -0.68497533 2.169625 1.9095543e-38
0.62071973 -0.6879403 2.1762223 1.9095543e-38
0.64956057 -0.68822157 2.1812308 1.9095543e-38
-0.56479591 -0.67761749 2.1670003 1.9095543e-38
-0.53879929 -0.660501 2.1809916 1.9095543e-38
-0.50952232 -0.65193158 2.1940002 1.9095543e-38
0.26536953 -0.67700565 2.194 1.9095543e-38
0.30885929 -0.67744106 2.1922667 1.9095543e-38
0.34005305 -0.6765486 2.1915002 1.9095543e-38
0.39126337 -0.6759609 2.194 1.9095543e-38
0.41964129 -0.67749542 2.1898215 1.9095543e-38
0.46123034 -0.67753595 2.1869233 1.9095543e-38
0.49592489 -0.67343956 2.1849773 1.9095543e-38
0.54368538 -0.67709768 2.1862903 1.9095543e-38
0.58074123 -0.67476422 2.184881 1.9095543e-38
0.6173178 -0.67509365 2.1880646 1.9095543e-38
0.66507727 -0.66973668 2.1862729 1.9095543e-38
0.70072758 -0.66834581 2.1849201 1.9095543e-38
0.73973751 -0.66665298 2.1885002 1.9095543e-38
0.78027195 -0.66777879 2.1860666 1.9095543e-38
0.81980914 -0.66178328 2.1816034 1.9095543e-38
0.85729605 -0.65071702 2.1766603 1.9095543e-38
0.9010523 -0.64910239 2.1796229 1.9095543e-38
0.94509238 -0.64319336 2.17625 1.9095543e-38
1.0174582 -0.64390856 2.1670001 1.9095543e-38
-0.56290573 -0.62522 2.181 1.9095543e-38
-0.53656983 -0.62566507 2.1748438 1.9095543e-38
-0.50118268 -0.61877406 2.1900225 1.9095543e-38
-0.4764114 -0.61640954 2.1940002 1.9095543e-38
0.83521003 -0.63318467 2.1901431 1.9095543e-38
0.86302644 -0.62503678 2.1882954 1.9095543e-38
0.90400857 -0.62665671 2.1903865 1.9095543e-38
0.93996501 -0.62535417 2.1881671 1.9095543e-38
0.97914386 -0.62154317 2.1865158 1.9095543e-38
1.0181547 -0.6190232 2.1830459 1.9095543e-38
1.0440831 -0.6100381 2.1757038 1.9095543e-38
-0.4985165 -0.58101404 2.1762171 1.9095543e-38
-0.4657121 -0.57603115 2.1889219 1.9095543e-38
-0.43671048 -0.57043999 2.194 1.9095543e-38
0.97859371 -0.5996933 2.194 1.9095543e-38
1.0261364 -0.58316809 2.1860988 1.9095543e-38
1.0430676 -0.5836854 2.1700001 1.9095543e-38
-0.48918617 -0.54524994 2.1678486 1.9095543e-38
-0.45940399 -0.54129636 2.1830328 1.9095543e-38
-0.42300987 -0.5357886 2.1846669 1.9095543e-38
-0.39909905 -0.52029145 2.194 1.9095543e-38
1.0234368 -0.53992754 2.187443 1.9095543e-38
1.0421385 -0.55078244 2.1730001 1.9095543e-38
-0.4826366 -0.51270932 2.1670001 1.9095543e-38
-0.45383582 -0.50377023 2.1738725 1.9095543e-38
-0.41840693 -0.49843577 2.1721702 1.9095543e-38
-0.38293183 -0.49433085 2.1878824 1.9095543e-38
-0.35730857 -0.48476952 2.194 1.9095543e-38
1.0206021 -0.4995876 2.1830308 1.9095543e-38
-0.44825616 -0.47423175 2.1690001 1.9095543e-38
-0.41534761 -0.47065783 2.1685555 1.9095543e-38
-0.37969559 -0.46150392 2.1797981 1.9095543e-38
-0.34414932 -0.45324725 2.1889591 1.9095543e-38
-0.31407493 -0.45329776 2.1753001 1.9095543e-38
0.99325508 -0.44384685 2.1925557 1.9095543e-38
1.0159838 -0.45974118 2.1834235 1.9095543e-38
-0.37722066 -0.42286599 2.1692011 1.9095543e-38
-0.34855056 -0.42603803 2.1796591 1.9095543e-38
0.99135238 -0.42358249 2.1921945 1.9095543e-38
1.0116357 -0.41907972 2.1815701 1.9095543e-38
-0.36116666 -0.3879962 2.1670001 1.9095543e-38
-0.35468042 -0.3888807 2.1670001 1.9095543e-38
0.99309617 -0.3780047 2.1928697 1.9095543e-38
1.011345 -0.38080075 2.1816206 1.9095543e-38
0.98565 -0.33793074 2.179956 1.9095543e-38
1.0061349 -0.35358283 2.1775 1.9095543e-38
0.97981143 -0.29866508 2.1785355 1.9095543e-38
0.95267248 -0.2521649 2.1881852 1.9095543e-38
0.97151685 -0.26898754 2.178756 1.9095543e-38
-0.0020895237 0.027163809 2.194 1.9095543e-38
0.0097101405 0.031342857 2.194 1.9095543e-38
-0.0020704763 0.070389524 2.174 1.9095543e-38
0.014148409 0.062801339 2.1915286 1.9095543e-38
-0.0020638097 0.08048857 2.1670001 1.9095543e-38
0.022406653 0.098209426 2.18032 1.9095543e-38
0.050784517 0.11019966 2.194 1.9095543e-38
0.029031463 0.13449839 2.1697392 1.9095543e-38
0.056459926 0.14417693 2.1873541 1.9095543e-38
0.085670479 0.15566953 2.194 1.9095543e-38
0.039212383 0.16716859 2.1670003 1.9095543e-38
0.064798564 0.17646551 2.1775835 1.9095543e-38
0.097797208 0.18111661 2.1909306 1.9095543e-38
0.12641619 0.17760952 2.194 1.9095543e-38
0.072502501 0.21097201 2.1684737 1.9095543e-38
0.099773787 0.22074148 2.1835272 1.9095543e-38
0.13106304 0.22629134 2.190028 1.9095543e-38
0.10489538 0.25216094 2.1711364 1.9095543e-38
0.13955626 0.25945374 2.184412 1.9095543e-38
0.16611716 0.26693663 2.1940002 1.9095543e-38
0.10835001 0.28583762 2.1670001 1.9095543e-38
0.14596713 0.2945441 2.1755965 1.9095543e-38
0.17609061 0.30348754 2.191524 1.9095543e-38
0.15160099 0.34230846 2.1750607 1.9095543e-38
0.17588773 0.32997212 2.1849394 1.9095543e-38
0.14276497 0.36647189 2.1794446 1.9095543e-38
-0.53282815 -0.74174094 2.2143493 1.9095543e-38
-0.50170678 -0.73890942 2.2256305 1.9095543e-38
-0.46015352 -0.7423085 2.2268491 1.9095543e-38
-0.41950488 -0.73736119 2.2240331 1.9095543e-38
-0.3807919 -0.73468173 2.2258971 1.9095543e-38
-0.33803678 -0.73198116 2.2239573 1.9095543e-38
-0.30135879 -0.73265404 2.2231286 1.9095543e-38
-0.26458398 -0.73397851 2.2191525 1.9095543e-38
-0.22421716 -0.72338295 2.2080002 1.9095543e-38
-0.18136197 -0.72490877 2.2126877 1.9095543e-38
-0.1416166 -0.7260657 2.2080002 1.9095543e-38
-0.10067724 -0.72522765 2.2085004 1.9095543e-38
-0.075786196 -0.72419488 2.2105002 1.9095543e-38
-0.53096032 -0.70820916 2.2092001 1.9095543e-38
