# .PCD v0.7 - Point Cloud Data file format
VERSION 0.7
FIELDS x y z rgb
SIZE 4 4 4 4
TYPE F F F F
COUNT 1 1 1 1
WIDTH 284
HEIGHT 1
VIEWPOINT 0 0 0 1 0 0 0
POINTS 284
DATA ascii
-0.31551906 0.22951338 0.51900005 1.0413779e-38
-0.010124 -0.044908047 0.55152011 1.0802083e-38
0.00087597885 -0.042919792 0.55177778 6.1851058e-39
-0.040885717 -0.00050476193 0.53000003 7.9342654e-39
-0.016735906 -0.018148851 0.53153306 1.0519004e-38
0.0022295781 -0.029685004 0.54122549 1.1532074e-38
-0.041380893 0.0045514884 0.53068757 8.9419307e-39
-0.028273454 0.0060044955 0.52775741 1.0962654e-38
-0.30311644 0.13949603 0.5467962 1.3270418e-38
-0.32237509 0.18487538 0.5370937 9.4010718e-39
-0.29906145 0.18599096 0.54282755 1.0321233e-38
-0.27314481 0.19369504 0.55554336 1.0872968e-38
-0.326848 0.22140425 0.54990494 8.38728e-39
-0.29890457 0.21873245 0.53983748 9.5843882e-39
-0.27163306 0.20662494 0.54685438 8.659918e-39
-0.28987089 0.24173336 0.53730839 1.013576e-38
-0.25979072 0.24687074 0.54997379 1.2071509e-38
-0.23589805 0.25111178 0.55786365 1.2532846e-38
-0.018486157 -0.084794722 0.58692318 1.0231244e-38
-0.045083933 -0.049782965 0.59453976 7.3861461e-39
-0.023496803 -0.062220756 0.58300948 7.938608e-39
0.015821079 -0.052845951 0.59290832 9.410127e-39
-0.045056611 -0.030093011 0.59514219 4.8964998e-39
-0.034230974 -0.030237766 0.58731526 6.0028487e-39
0.013705573 -0.035866216 0.59428954 1.5491783e-38
-0.049030922 0.005554636 0.59900004 1.0317286e-38
-0.25628966 0.19552749 0.56433296 1.2255541e-38
-0.23774773 0.19863494 0.57605886 1.2809802e-38
-0.28811008 0.2229519 0.56397641 8.1074673e-39
-0.25624388 0.22024307 0.57205516 9.122694e-39
-0.22644357 0.22239488 0.58616525 1.0228684e-38
-0.24383 0.24330191 0.58765703 7.6461262e-39
-0.22923449 0.24246716 0.58963853 7.7394022e-39
-0.024521908 -0.12021714 0.62800002 2.1661658e-38
-0.040951811 -0.090961717 0.63420004 2.0468854e-38
-0.025825055 -0.10526352 0.62422961 9.5883861e-39
0.014919735 -0.083090164 0.63801873 5.4428436e-39
-0.083133444 -0.041827671 0.61221063 1.408972e-38
-0.059945438 -0.050230421 0.60267514 1.0409117e-38
-0.039625712 -0.064322859 0.60300004 9.7853765e-39
0.01561415 -0.073183902 0.62727213 9.5016023e-39
-0.090654776 -0.016678343 0.61962301 1.0679199e-38
-0.060846593 -0.021996045 0.61029458 6.8214158e-39
-0.039494291 -0.014880953 0.60100007 7.5708723e-39
-0.093607746 0.019771194 0.62474728 1.1416035e-38
-0.061142843 0.021855013 0.60566676 1.1231648e-38
-0.022063803 0.02203024 0.60885113 1.5656327e-38
-0.086840332 0.055174008 0.61917353 9.9405507e-39
-0.061096564 0.060917303 0.61385244 1.4826199e-38
-0.038959496 0.072152384 0.63586664 2.2842535e-38
-0.082063682 0.086832985 0.63331258 1.233295e-38
-0.060004082 0.090002544 0.6289714 1.1969938e-38
-0.038900152 0.087478757 0.6374616 2.0816035e-38
-0.20736958 0.23622322 0.60194737 1.087623e-38
-0.0015661473 -0.084976979 0.64609098 1.5768725e-38
0.011608621 -0.088852756 0.64271575 1.4477271e-38
-0.0017331748 -0.074566424 0.64216673 4.1625739e-39
0.0083519118 -0.074488714 0.64087635 5.080203e-39
-0.082043193 -0.0096820556 0.65531582 7.8225749e-39
-0.076410219 -0.012625987 0.65574765 8.4690359e-39
-0.097591601 0.013106443 0.64505887 1.2150387e-38
-0.078567311 0.001036508 0.65300006 1.0402262e-38
-0.026982771 0.037592739 0.66339999 2.0173557e-38
-0.044975251 0.052806333 0.65529943 1.7769963e-38
-0.031220954 0.055816837 0.66044104 1.9802609e-38
-0.082402758 0.1108345 0.65420842 9.7583174e-39
-0.05988007 0.10991438 0.64825785 1.3259235e-38
-0.036386885 0.086368941 0.64353448 2.1005481e-38
-0.085591964 0.14358863 0.66775841 9.1140312e-39
-0.061643511 0.13922988 0.66178685 1.2890812e-38
-0.085557535 0.17606282 0.67505664 8.1002436e-39
-0.066580251 0.17712763 0.67350888 1.0403335e-38
0.19069451 0.2709569 0.67277586 9.8487138e-39
0.2194825 0.26626116 0.66882211 1.1968134e-38
0.25554967 0.2699621 0.6720022 1.7407674e-38
0.2809585 0.27785489 0.67880005 1.9990592e-38
0.18480828 0.29030308 0.67054051 8.6519726e-39
0.22006831 0.28826481 0.66090739 1.0219296e-38
0.26055515 0.28945181 0.66643393 1.5841067e-38
0.28653744 0.294018 0.67705101 1.8145237e-38
-0.0957928 0.15639335 0.68422222 1.0125326e-38
-0.04356188 0.15394318 0.68462509 1.8233834e-38
-0.096171618 0.18683134 0.68760085 8.6541349e-39
-0.04864933 0.1845911 0.68707961 1.611478e-38
-0.035809483 0.18671055 0.70698524 1.5837826e-38
-0.095934652 0.22007002 0.69504207 8.3764704e-39
-0.059775136 0.21966107 0.68965083 1.1784829e-38
-0.035359334 0.21943013 0.71089023 1.6943819e-38
0.19632567 0.23864068 0.71661109 1.1875923e-38
0.22107565 0.23626216 0.71204948 1.32585e-38
0.25272429 0.23682693 0.71332496 1.6299514e-38
-0.095329724 0.2580924 0.70509064 8.0080508e-39
-0.059720114 0.25938714 0.70207053 9.7583244e-39
-0.035968781 0.25504583 0.71580619 1.4087915e-38
0.152905 0.27149361 0.70886689 1.095433e-38
0.17903899 0.25843337 0.69761544 1.1139083e-38
0.21936576 0.24706785 0.69172651 1.3350697e-38
0.26194188 0.25139758 0.69375592 1.7960119e-38
0.29542747 0.26506573 0.70145106 2.0819272e-38
0.32211474 0.27634701 0.71646667 2.0636674e-38
-0.087437741 0.28702322 0.71476418 7.0868133e-39
-0.062879384 0.28882128 0.71434408 7.5470712e-39
0.14419734 0.2976501 0.70291966 9.2962575e-39
0.16537525 0.29182443 0.68378359 9.1125879e-39
0.30603904 0.29360116 0.68973112 1.9712201e-38
0.33632553 0.30300382 0.70799172 1.8329627e-38
0.12656224 0.32085559 0.71833342 8.4668639e-39
0.35572726 0.32080096 0.71300012 1.5934344e-38
0.21920832 0.19978841 0.75781816 1.5192089e-38
-0.026754148 0.22927447 0.73195374 1.4824027e-38
0.15052681 0.22764634 0.75122827 1.1691896e-38
0.18094741 0.2224272 0.74281359 1.2612415e-38
0.21925588 0.21772178 0.73935747 1.408682e-38
0.25941807 0.2223489 0.73871368 1.703636e-38
0.29495531 0.23137559 0.74527925 1.9525645e-38
0.32226479 0.23935524 0.75700003 2.0538725e-38
-0.1088678 0.27474517 0.72546512 8.0998849e-39
-0.024032397 0.26182047 0.73289466 1.2981922e-38
0.017751262 0.27808052 0.75789732 9.4802914e-39
0.04437308 0.27437201 0.75799996 9.1111459e-39
0.11911429 0.27721146 0.75800002 8.557982e-39
0.14057998 0.25967523 0.73951775 1.0585912e-38
0.16935125 0.24539323 0.72611654 1.1599339e-38
0.2784 0.24068573 0.72000003 1.8973189e-38
0.30680984 0.24988337 0.73059267 2.0725992e-38
0.33759812 0.26314703 0.7444272 2.0081707e-38
0.36860555 0.27392703 0.75441873 1.6302405e-38
-0.094524831 0.3006278 0.72798353 7.1800908e-39
-0.056978259 0.30729449 0.72599781 7.0860945e-39
-0.019522307 0.30010852 0.7440486 8.2831901e-39
0.018110599 0.29839712 0.7552188 8.4668597e-39
0.042736765 0.28327543 0.75799996 8.4668611e-39
0.11237529 0.30527422 0.74489236 8.6505293e-39
0.1265281 0.29490501 0.72985464 9.6643183e-39
0.34895012 0.29048586 0.72999972 1.888388e-38
0.36699033 0.29176548 0.74029672 1.6394957e-38
-0.09013702 0.32797608 0.745125 6.5358046e-39
-0.058930386 0.32596153 0.73689204 5.7971563e-39
-0.0182635 0.32783294 0.74883676 6.9006186e-39
0.0085806316 0.32737982 0.75505197 6.4396391e-39
0.10447209 0.32657301 0.74411136 7.8218476e-39
0.12207017 0.32132858 0.72144443 8.2831873e-39
0.036005143 0.19902001 0.79759997 1.3439663e-38
0.061620627 0.19588403 0.7943638 1.3900997e-38
0.10238563 0.19178089 0.79377574 1.3164512e-38
0.14226113 0.18445653 0.78664559 1.2796091e-38
0.17972682 0.18149722 0.7796706 1.4546005e-38
0.21900268 0.18429938 0.77858597 1.6020413e-38
0.25634012 0.18980773 0.78474593 1.777105e-38
0.28895336 0.19604065 0.79409093 1.8049079e-38
-0.010444459 0.23225269 0.79074335 1.0674873e-38
0.021953931 0.22268692 0.78264707 1.1505351e-38
0.060002759 0.21955043 0.77591974 1.2520226e-38
0.099543959 0.219686 0.77810973 1.215216e-38
0.13540117 0.21694128 0.7731629 1.0585554e-38
0.17374398 0.20262538 0.76132178 1.3164871e-38
0.22254448 0.20112999 0.76025015 1.5467957e-38
0.26480487 0.20528527 0.76701909 1.83253e-38
0.30211803 0.21394363 0.77750301 1.9063585e-38
0.33714458 0.22697341 0.7813502 1.9893712e-38
0.37179103 0.23521389 0.79156452 1.9066108e-38
-0.010410252 0.25723514 0.77206743 9.4784907e-39
0.019979339 0.25907931 0.76516479 9.8483494e-39
0.060633782 0.25854367 0.76253766 1.0033464e-38
0.10072473 0.25998271 0.7694537 7.8229294e-39
0.12439646 0.25309306 0.76522696 8.2839062e-39
0.34967789 0.24845687 0.76567137 1.9803318e-38
0.37735054 0.25415838 0.77481771 1.7960482e-38
0.40026906 0.24152811 0.79750001 1.8421098e-38
-0.012021857 0.28241488 0.76035005 6.9935359e-39
0.033769883 0.30515233 0.76051337 7.2690382e-39
0.059698444 0.29883569 0.76551533 6.5318333e-39
0.097365953 0.29814178 0.77143282 5.7038719e-39
-0.10810485 0.33947948 0.77210009 9.576094e-39
0.025711007 0.33296853 0.76578635 4.5978929e-39
0.059922386 0.33025926 0.7802403 3.5866206e-39
0.086904719 0.33188546 0.77514833 5.5198422e-39
0.39131868 -0.0064218538 0.83526081 8.2885991e-39
0.40964928 -0.015158247 0.83333731 1.0773555e-38
0.3587724 0.034359049 0.83900011 1.1415688e-38
0.38272592 0.020796377 0.82832676 9.666849e-39
0.40437776 0.022643624 0.81966662 9.2109254e-39
0.35397044 0.065828182 0.832344 1.0034908e-38
0.37902778 0.059776261 0.81737632 1.114054e-38
0.40371051 0.05863905 0.81275898 1.2245809e-38
0.35046679 0.09973231 0.82746172 7.9176488e-39
0.37936467 0.10060092 0.81150556 8.2882404e-39
0.4028931 0.098597027 0.80956966 1.0311142e-38
0.10617871 0.15199889 0.82802665 1.3901713e-38
0.14098993 0.14559835 0.82213801 1.4638918e-38
0.17853881 0.14551286 0.81898856 1.6297714e-38
0.21707617 0.15271474 0.82560331 1.657322e-38
0.24505062 0.15795974 0.83415401 1.5560865e-38
0.35304585 0.13117675 0.82955205 6.8113027e-39
0.37936044 0.13887645 0.81534618 5.7082033e-39
0.40382385 0.1454874 0.81323296 7.8312293e-39
0.03032206 0.19353032 0.81541252 1.3809163e-38
0.061863471 0.18087077 0.81881601 1.4085744e-38
0.097836234 0.17262444 0.81110173 1.3440378e-38
0.13435973 0.16605209 0.80383211 1.3624772e-38
0.18523249 0.16129425 0.80066645 1.6112962e-38
0.22334057 0.16448995 0.8064974 1.6573943e-38
0.26241824 0.1722066 0.81677806 1.6666137e-38
0.29987597 0.18333821 0.81933045 1.6944166e-38
0.33472624 0.1915192 0.8304162 1.9526005e-38
0.38651052 0.1643942 0.82966679 1.1604035e-38
0.40150002 0.16107143 0.82500005 1.6586197e-38
-0.014547932 0.22416708 0.80737448 1.1875216e-38
0.01154953 0.20682086 0.80878872 1.2888287e-38
0.31566748 0.20226507 0.80211115 1.9064668e-38
0.34468257 0.20945002 0.81489217 1.989371e-38
0.38015923 0.21939631 0.81912893 1.8972833e-38
0.40817261 0.22593349 0.82551408 1.7866848e-38
0.4007619 0.23999999 0.80000001 1.8511853e-38
0.07241305 0.34828395 0.80959302 2.6671867e-39
0.067907058 0.3649039 0.82077289 2.576433e-39
0.38872996 -0.052822679 0.86770898 3.5001969e-39
0.41327381 -0.055798072 0.85459507 3.5923954e-39
0.35611004 -0.0091871526 0.87311232 3.6849483e-39
0.37817797 -0.020997981 0.85794282 5.2493902e-39
0.40903232 -0.033465698 0.8454566 7.8254532e-39
0.3499248 0.023860978 0.86013567 8.6541391e-39
0.36508191 0.011506715 0.84741354 1.0219656e-38
0.33851004 0.058920205 0.85714078 9.9434289e-39
0.1580762 0.11876191 0.86000001 1.4268014e-38
0.3157936 0.11032087 0.8748554 1.1968124e-38
0.33113796 0.099890165 0.85657609 9.4828081e-39
0.075616583 0.15765764 0.85059267 1.4085746e-38
0.10061664 0.14412819 0.85154307 1.4270498e-38
0.14028478 0.12746079 0.85211772 1.4731833e-38
0.18073341 0.12670183 0.84959316 1.5653067e-38
0.21562047 0.1421183 0.85085356 1.5284638e-38
0.26167515 0.15431209 0.86249101 1.3718039e-38
0.3047311 0.14482348 0.86651111 1.2060676e-38
0.33658624 0.14140393 0.8524043 9.6653973e-39
0.36316887 0.15670156 0.84583998 8.5579721e-39
0.037706986 0.18316984 0.84233332 1.4181185e-38
0.063989058 0.16684605 0.84909731 1.4086106e-38
0.2720547 0.1619201 0.84472215 1.427085e-38
0.30293778 0.16549852 0.849011 1.3626563e-38
0.34177238 0.17395943 0.84980679 1.5838896e-38
0.37716481 0.18303798 0.85884011 1.8051953e-38
0.40689412 0.19452585 0.87558335 1.7866122e-38
0.38752577 0.20324627 0.84636462 1.8788439e-38
0.41793633 0.20940058 0.85784209 1.7498425e-38
0.44083336 0.20750001 0.87500006 1.7130725e-38
0.3895137 -0.083627634 0.91659993 6.1735437e-39
0.40824002 -0.081479996 0.88200003 7.7178335e-39
0.35311484 -0.044571258 0.89727789 3.315091e-39
0.37530431 -0.061215173 0.89753336 3.5002011e-39
0.40515825 -0.077453434 0.88077778 4.4228959e-39
0.31976667 -0.0025857145 0.90500003 1.2610963e-38
0.34400362 -0.018703174 0.89466095 5.2475881e-39
0.36229727 -0.032921825 0.88111407 2.8559093e-39
0.31716308 0.023749517 0.90230268 1.1139453e-38
0.33355483 0.017034158 0.89216924 1.076959e-38
0.31666017 0.064520389 0.90714467 1.1510033e-38
0.3235721 0.057688247 0.88955897 1.1691545e-38
0.30873916 0.10114561 0.89809591 1.2153237e-38
0.32102489 0.084638201 0.88200003 1.1785174e-38
0.23233445 0.14231461 0.90340012 1.3350699e-38
0.26077569 0.14140688 0.89691925 1.3351057e-38
0.29389933 0.13162765 0.89368105 1.2521297e-38
0.42122161 0.19478211 0.89668077 1.7128557e-38
0.45056748 0.19926558 0.91081816 1.5378998e-38
0.43299466 0.20315248 0.88553834 1.6668308e-38
0.44687963 0.2032685 0.89277786 1.629988e-38
0.3870903 -0.083057761 0.92287517 3.6781576e-39
0.38197666 -0.076509379 0.92110735 3.5009158e-39
0.34005669 -0.031227048 0.92814273 3.960452e-39
0.31681654 0.03050505 0.93329012 5.5266917e-39
0.32119167 0.030804524 0.92812508 8.658818e-39
0.31506628 0.054753285 0.9271903 7.6453877e-39
0.30229372 0.10044283 0.9270559 1.1325643e-38
0.22539492 0.1319458 0.92379367 1.4643618e-38
0.26224706 0.13080972 0.9245249 1.2981926e-38
0.28537792 0.12369683 0.9258709 1.2428026e-38
0.4345243 0.1911865 0.9218049 1.6484994e-38
0.45275024 0.19580825 0.92336655 1.5194616e-38
0.45824763 0.20064762 0.92000002 1.5195692e-38
0.044552084 0.23418252 0.70303166 1.1508595e-38
0.1102609 0.22354282 0.72724217 1.2063208e-38
0.013385084 0.10878149 0.93135983 1.2807278e-38
0.033769883 0.30515233 0.76051337 7.2690382e-39
