# .PCD v0.7 - Point Cloud Data file format
VERSION 0.7
FIELDS x y z rgb
SIZE 4 4 4 4
TYPE F F F F
COUNT 1 1 1 1
WIDTH 1026
HEIGHT 1
VIEWPOINT 0 0 0 1 0 0 0
POINTS 1026
DATA ascii
0.16626418 -0.058972698 2.3886662 5.2805691e-39
0.15613715 -0.038468573 2.3760002 5.2805691e-39
0.18342207 -0.020474559 2.3886976 5.2805691e-39
0.20803568 -0.015582174 2.3919995 5.2805691e-39
0.18910743 0.016827179 2.3798916 5.2805691e-39
0.2130031 0.023353707 2.3902597 5.2805691e-39
0.19686858 0.045257147 2.3760002 5.2805691e-39
0.22529778 0.055601917 2.3833327 5.2805691e-39
0.24704681 0.066064768 2.392 5.2805691e-39
0.23589639 0.099754162 2.3770666 5.2805691e-39
0.25507441 0.10355838 2.386879 5.2805691e-39
0.28020576 0.11618286 2.3920002 5.2805691e-39
0.23760001 0.12672001 2.3760002 5.2805691e-39
0.26325619 0.13531655 2.3816464 5.2805691e-39
0.28951976 0.14368966 2.3898661 5.2805691e-39
0.27833146 0.16518858 2.3760002 5.2805691e-39
0.29761404 0.18080972 2.3875191 5.2805691e-39
0.32931137 0.19313186 2.3920002 5.2805691e-39
0.30777696 0.21706069 2.3837941 5.2805691e-39
0.33475757 0.22334902 2.3917081 5.2805691e-39
0.36221716 0.23464383 2.3920002 5.2805691e-39
0.31544232 0.24665144 2.3760002 5.2805691e-39
0.34357896 0.25833684 2.3848882 5.2805691e-39
0.36351898 0.26783895 2.3920002 5.2805691e-39
0.35059637 0.28958184 2.3796923 5.2805691e-39
0.37274355 0.29010367 2.3919992 5.2805691e-39
0.62481058 -0.64316481 2.4090002 5.2805691e-39
0.65983659 -0.64056462 2.4090002 5.2805691e-39
0.70434582 -0.64010572 2.4090004 5.2805691e-39
0.73933357 -0.6406793 2.4090002 5.2805691e-39
0.77956003 -0.64468306 2.4113183 5.2805691e-39
0.82317269 -0.64172971 2.4114289 5.2805691e-39
0.85888499 -0.6423896 2.4107003 5.2805691e-39
0.89623243 -0.64162374 2.4108891 5.2805691e-39
0.93415666 -0.6416353 2.4090004 5.2805691e-39
0.97276771 -0.64009088 2.4114289 5.2805691e-39
0.076245718 -0.60303432 2.4260001 5.2805691e-39
0.09911824 -0.61529708 2.4123378 5.2805691e-39
0.1395404 -0.60938305 2.4136751 5.2805691e-39
0.18140805 -0.61738473 2.415633 5.2805691e-39
0.21744031 -0.61577684 2.4186337 5.2805691e-39
0.26335618 -0.61816168 2.4178863 5.2805691e-39
0.30127299 -0.61681885 2.4133081 5.2805691e-39
0.3387458 -0.61390859 2.4133961 5.2805691e-39
0.37902361 -0.61331326 2.411967 5.2805691e-39
0.41927913 -0.61590701 2.4135659 5.2805691e-39
0.45987913 -0.6153639 2.4136653 5.2805691e-39
0.50051153 -0.61827689 2.4154222 5.2805691e-39
0.53972781 -0.61630774 2.4154327 5.2805691e-39
0.57829195 -0.62009555 2.4170277 5.2805691e-39
0.61800998 -0.6293785 2.4190936 5.2805691e-39
0.66143662 -0.62896931 2.4174993 5.2805691e-39
0.69874519 -0.62360579 2.4154086 5.2805691e-39
0.73976165 -0.62821925 2.414525 5.2805691e-39
0.77399367 -0.6324867 2.415 5.2805691e-39
0.8210873 -0.63321382 2.4208262 5.2805691e-39
0.85660011 -0.63219154 2.4138572 5.2805691e-39
0.90223283 -0.63343525 2.4186084 5.2805691e-39
0.94037658 -0.63158298 2.4172261 5.2805691e-39
0.98175341 -0.6298483 2.4172692 5.2805691e-39
1.0221871 -0.62512285 2.4140995 5.2805691e-39
1.0616223 -0.61879832 2.4151542 5.2805691e-39
1.0815264 -0.6098212 2.4090002 5.2805691e-39
0.11783429 -0.59841335 2.4260001 5.2805691e-39
0.12476572 -0.59841335 2.4260001 5.2805691e-39
0.33039811 -0.59841335 2.4260001 5.2805691e-39
0.38122857 -0.59841335 2.4260001 5.2805691e-39
0.42281717 -0.59841335 2.4260001 5.2805691e-39
1.0661316 -0.57756853 2.4169576 5.2805691e-39
1.0806086 -0.59651434 2.4090002 5.2805691e-39
1.0590137 -0.54296207 2.4137712 5.2805691e-39
-0.010368811 -0.49242052 2.4217503 5.2805691e-39
1.0393115 -0.49877778 2.4090002 5.2805691e-39
1.0466465 -0.49995214 2.4134076 5.2805691e-39
-0.0084285727 -0.47372386 2.4146669 5.2805691e-39
0.0023104763 -0.45285335 2.4260001 5.2805691e-39
1.0294532 -0.45810679 2.4171593 5.2805691e-39
1.0467042 -0.46115145 2.4090002 5.2805691e-39
1.0144334 -0.42128152 2.4149115 5.2805691e-39
0.99304277 -0.37060043 2.4260004 5.2805691e-39
1.0141333 -0.37957004 2.4144826 5.2805691e-39
0.98493862 -0.33597386 2.4168198 5.2805691e-39
1.0064952 -0.34815431 2.416286 5.2805691e-39
0.98090607 -0.30268636 2.4139264 5.2805691e-39
1.0026031 -0.30743429 2.4090004 5.2805691e-39
0.11321335 -0.24260001 2.4260001 5.2805691e-39
0.98655307 -0.2782616 2.4146669 5.2805691e-39
1.1173172 -0.27760857 2.4090002 5.2805691e-39
1.1219058 -0.27760857 2.4090002 5.2805691e-39
0.10920706 -0.22004315 2.4137218 5.2805691e-39
0.12630603 -0.20909809 2.4260006 5.2805691e-39
0.11242002 -0.19113165 2.4090004 5.2805691e-39
0.1401405 -0.18055831 2.4174991 5.2805691e-39
0.16404381 -0.17328572 2.4260001 5.2805691e-39
0.15269747 -0.14369026 2.4090002 5.2805691e-39
0.17031014 -0.13561553 2.4186335 5.2805691e-39
0.18282102 -0.097915679 2.4160829 5.2805691e-39
0.20794286 -0.080866672 2.4260001 5.2805691e-39
0.18636157 -0.06046854 2.4096925 5.2805691e-39
0.21351056 -0.05961806 2.4181218 5.2805691e-39
0.19272001 -0.039002858 2.4090002 5.2805691e-39
0.22439338 -0.021064812 2.4140539 5.2805691e-39
0.24590069 -0.0062712934 2.4260004 5.2805691e-39
0.23053321 0.016399892 2.4090002 5.2805691e-39
0.25479189 0.024172202 2.4174995 5.2805691e-39
0.26599962 0.058473133 2.4131625 5.2805691e-39
0.2942591 0.064571813 2.4240575 5.2805691e-39
0.27093428 0.090937153 2.4090004 5.2805691e-39
0.29689771 0.099711061 2.4145725 5.2805691e-39
0.3059338 0.13602468 2.4106991 5.2805691e-39
0.32623926 0.15202935 2.4260004 5.2805691e-39
0.31485704 0.17450069 2.4090002 5.2805691e-39
0.34083417 0.1811 2.4157405 5.2805691e-39
0.36576369 0.18801816 2.4214671 5.2805691e-39
0.35156554 0.21471818 2.4090002 5.2805691e-39
0.3747355 0.22272472 2.4194896 5.2805691e-39
0.38273218 0.25833488 2.4128625 5.2805691e-39
0.40879509 0.2679064 2.4250557 5.2805691e-39
0.39023718 0.29012287 2.4090004 5.2805691e-39
0.40802062 0.29115948 2.4126432 5.2805691e-39
0.88794285 -0.64428568 2.46 5.2805691e-39
0.076779999 -0.60260665 2.4430001 5.2805691e-39
0.095348887 -0.60399544 2.4486668 5.2805691e-39
0.14818971 -0.60343891 2.4464002 5.2805691e-39
0.18005913 -0.60562402 2.4493752 5.2805691e-39
0.22150023 -0.607072 2.4496975 5.2805691e-39
0.25759128 -0.60767102 2.4514999 5.2805691e-39
0.30002037 -0.60237509 2.451 5.2805691e-39
0.34115997 -0.60265142 2.4515002 5.2805691e-39
0.37570962 -0.60247242 2.4476364 5.2805691e-39
0.42371431 -0.60240978 2.4498003 5.2805691e-39
0.46032375 -0.60425282 2.4523187 5.2805691e-39
0.49913719 -0.60615498 2.4556904 5.2805691e-39
0.54113609 -0.60600686 2.450129 5.2805691e-39
0.58306062 -0.608845 2.4500003 5.2805691e-39
0.62189394 -0.61351424 2.4550154 5.2805691e-39
0.66003245 -0.6131314 2.4568324 5.2805691e-39
0.69955891 -0.60718101 2.4547317 5.2805691e-39
0.74081302 -0.61168635 2.4602826 5.2805691e-39
0.78027219 -0.61702985 2.4585528 5.2805691e-39
0.81957865 -0.61833358 2.4649889 5.2805691e-39
0.85941052 -0.61737525 2.463944 5.2805691e-39
0.89841944 -0.61796051 2.4608204 5.2805691e-39
0.93814397 -0.61457473 2.4558756 5.2805691e-39
0.97970408 -0.61492985 2.4521749 5.2805691e-39
1.0193177 -0.61189711 2.4544485 5.2805691e-39
1.0555583 -0.60947198 2.4524443 5.2805691e-39
0.074023664 -0.59142399 2.4676671 5.2805691e-39
0.10074028 -0.59174174 2.4681103 5.2805691e-39
0.13945751 -0.5855642 2.4674337 5.2805691e-39
0.17943218 -0.58735651 2.4706662 5.2805691e-39
0.21924578 -0.58608305 2.4708614 5.2805691e-39
0.25992927 -0.58903033 2.4691906 5.2805691e-39
0.29868728 -0.59050989 2.4739082 5.2805691e-39
0.34067971 -0.58880627 2.47421 5.2805691e-39
0.37918675 -0.58810931 2.4702172 5.2805691e-39
0.42075977 -0.58717591 2.4681921 5.2805691e-39
0.45795891 -0.58650059 2.4717686 5.2805691e-39
0.5033623 -0.59315687 2.4758403 5.2805691e-39
0.54011327 -0.58728158 2.4683783 5.2805691e-39
0.58102947 -0.58941227 2.4685709 5.2805691e-39
0.61903715 -0.59204066 2.4725454 5.2805691e-39
0.65791559 -0.59367114 2.4780004 5.2805691e-39
0.70049262 -0.59654373 2.4732003 5.2805691e-39
0.74182671 -0.59487742 2.4780004 5.2805691e-39
0.77836978 -0.59276783 2.4772506 5.2805691e-39
0.82010007 -0.59707999 2.4780002 5.2805691e-39
0.86061341 -0.59314668 2.4780004 5.2805691e-39
0.90104812 -0.59566402 2.4780004 5.2805691e-39
0.94331622 -0.59319729 2.4724617 5.2805691e-39
0.97828114 -0.59449607 2.4722142 5.2805691e-39
1.0235676 -0.58283257 2.467859 5.2805691e-39
1.0534093 -0.58342993 2.4513397 5.2805691e-39
-0.00236 -0.52156007 2.4780002 5.2805691e-39
0.023363998 -0.52746004 2.4780004 5.2805691e-39
0.040120002 -0.52392006 2.4780002 5.2805691e-39
1.0255593 -0.53831112 2.4665468 5.2805691e-39
1.0486807 -0.54284525 2.4515002 5.2805691e-39
-0.0059186085 -0.50112653 2.4508462 5.2805691e-39
0.019730262 -0.49826917 2.4686141 5.2805691e-39
0.051843863 -0.49521941 2.4779997 5.2805691e-39
1.0223728 -0.49998853 2.4623528 5.2805691e-39
1.0437427 -0.50442141 2.4430006 5.2805691e-39
-0.0023266666 -0.46998668 2.4430001 5.2805691e-39
0.022812087 -0.46011651 2.4581697 5.2805691e-39
0.05900532 -0.46169826 2.4740331 5.2805691e-39
0.096760005 -0.44132 2.4780002 5.2805691e-39
0.98978412 -0.45296285 2.4779999 5.2805691e-39
1.013863 -0.46237856 2.4633276 5.2805691e-39
0.027663697 -0.43419376 2.4549997 5.2805691e-39
0.054591909 -0.43423387 2.4735005 5.2805691e-39
0.09499003 -0.41960803 2.4779992 5.2805691e-39
0.98618692 -0.41944733 2.4749613 5.2805691e-39
1.0050383 -0.42099446 2.4603031 5.2805691e-39
0.102424 -0.396952 2.4780004 5.2805691e-39
0.13452001 -0.36580002 2.4780004 5.2805691e-39
0.95344007 -0.36108002 2.4780002 5.2805691e-39
0.98173517 -0.37938565 2.4642587 5.2805691e-39
1.0078697 -0.38347697 2.4430003 5.2805691e-39
0.13789144 -0.34557143 2.4780004 5.2805691e-39
0.95255506 -0.34013501 2.4780004 5.2805691e-39
0.97125787 -0.34183979 2.4631796 5.2805691e-39
0.1428044 -0.29726475 2.4729757 5.2805691e-39
0.17003243 -0.29140383 2.4780004 5.2805691e-39
0.94635975 -0.29897717 2.4718027 5.2805691e-39
0.97097909 -0.29872265 2.4581158 5.2805691e-39
0.11772933 -0.25453734 2.4430001 5.2805691e-39
0.14110507 -0.26088098 2.460088 5.2805691e-39
0.17565791 -0.25799429 2.4772928 5.2805691e-39
0.94454902 -0.26638186 2.4725204 5.2805691e-39
0.97787243 -0.27150956 2.4643445 5.2805691e-39
0.14182419 -0.22186108 2.4454727 5.2805691e-39
0.17888714 -0.22060212 2.4675381 5.2805691e-39
0.20739681 -0.21230556 2.4780004 5.2805691e-39
0.89349604 -0.20532 2.4780004 5.2805691e-39
0.15588666 -0.19311334 2.4430001 5.2805691e-39
0.18106513 -0.18029708 2.4558122 5.2805691e-39
0.21515357 -0.17779526 2.4717383 5.2805691e-39
0.89680004 -0.18880001 2.4780004 5.2805691e-39
0.18981591 -0.14297658 2.4517429 5.2805691e-39
0.22090021 -0.14050601 2.4644306 5.2805691e-39
0.24730319 -0.13377474 2.4780004 5.2805691e-39
0.19605714 -0.10676842 2.4458337 5.2805691e-39
0.21990119 -0.10130513 2.452657 5.2805691e-39
0.25516847 -0.095072538 2.4719994 5.2805691e-39
0.23209339 -0.06291905 2.4470003 5.2805691e-39
0.25893697 -0.060875051 2.4683073 5.2805691e-39
0.29309821 -0.058979653 2.4768739 5.2805691e-39
0.23565811 -0.030911431 2.4430001 5.2805691e-39
0.26217726 -0.023189943 2.4540007 5.2805691e-39
0.29700416 -0.017759556 2.4705873 5.2805691e-39
0.32332003 -0.0047200001 2.4780002 5.2805691e-39
0.27129555 0.012967485 2.4446197 5.2805691e-39
0.30027679 0.02059317 2.4591429 5.2805691e-39
0.33461812 0.020932527 2.4776158 5.2805691e-39
0.30831733 0.055585403 2.4443605 5.2805691e-39
0.33963978 0.058602817 2.4707994 5.2805691e-39
0.36462 0.062540002 2.4780002 5.2805691e-39
0.79063851 0.07338962 2.4714549 5.2805691e-39
0.80004007 0.066080004 2.4780002 5.2805691e-39
0.31668517 0.094359271 2.4430001 5.2805691e-39
0.33977735 0.10029969 2.4640477 5.2805691e-39
0.36242858 0.10417715 2.4780004 5.2805691e-39
0.78747499 0.10374383 2.4743452 5.2805691e-39
0.80004007 0.10148001 2.4780002 5.2805691e-39
0.34251612 0.13881209 2.4537776 5.2805691e-39
0.37905273 0.13920429 2.4673519 5.2805691e-39
0.40960905 0.14583522 2.4765005 5.2805691e-39
0.78162408 0.13720299 2.468148 5.2805691e-39
0.35194188 0.16430928 2.4472501 5.2805691e-39
0.38319671 0.1768306 2.4534614 5.2805691e-39
0.41668755 0.18141557 2.4727628 5.2805691e-39
0.44499117 0.19063558 2.4780004 5.2805691e-39
0.77349699 0.18523498 2.4722402 5.2805691e-39
0.38967699 0.21400844 2.4438951 5.2805691e-39
0.41961649 0.21909003 2.4677641 5.2805691e-39
0.45390162 0.22227018 2.4769988 5.2805691e-39
0.76900542 0.21584679 2.4768753 5.2805691e-39
0.42616659 0.25742263 2.4528444 5.2805691e-39
0.46049377 0.25998044 2.472626 5.2805691e-39
0.48852003 0.26697499 2.4780004 5.2805691e-39
0.43075788 0.29224333 2.4510953 5.2805691e-39
0.46038541 0.29260901 2.4604688 5.2805691e-39
0.49944487 0.29320261 2.469399 5.2805691e-39
0.52575564 0.29290229 2.4780004 5.2805691e-39
0.60211432 0.3069143 2.46 5.2805691e-39
0.68326443 0.28773114 2.4430003 5.2805691e-39
0.82391781 -0.60141718 2.4960001 5.2805691e-39
0.89855999 -0.60141718 2.4960001 5.2805691e-39
0.072179347 -0.58313495 2.5070772 5.2805691e-39
0.10213093 -0.57719356 2.5047274 5.2805691e-39
0.13840456 -0.56855392 2.5055997 5.2805691e-39
0.17890762 -0.57016945 2.5067999 5.2805691e-39
0.21903405 -0.57296538 2.5062857 5.2805691e-39
0.25908047 -0.57698703 2.5035 5.2805691e-39
0.30159199 -0.57678974 2.5033123 5.2805691e-39
0.33900005 -0.57341868 2.5032001 5.2805691e-39
0.38048893 -0.56886935 2.5038753 5.2805691e-39
0.41751468 -0.57182699 2.5031998 5.2805691e-39
0.46281847 -0.57233894 2.5049996 5.2805691e-39
0.5008235 -0.57956779 2.506125 5.2805691e-39
0.53887773 -0.57453156 2.5031998 5.2805691e-39
0.57936102 -0.57616973 2.5062001 5.2805691e-39
0.62109768 -0.58197075 2.5089374 5.2805691e-39
0.66182643 -0.58171117 2.5060973 5.2805691e-39
0.69832444 -0.5879727 2.5047696 5.2805691e-39
0.73877132 -0.58720726 2.5050001 5.2805691e-39
0.77885336 -0.58643281 2.5045714 5.2805691e-39
0.81789654 -0.59088063 2.5038002 5.2805691e-39
0.85949337 -0.58558291 2.5021579 5.2805691e-39
0.89796221 -0.5892055 2.5013998 5.2805691e-39
0.93548548 -0.58893865 2.5077 5.2805691e-39
0.99109966 -0.5852682 2.5083752 5.2805691e-39
1.0120008 -0.57651544 2.5060468 5.2805691e-39
0.028525718 -0.53802669 2.4960003 5.2805691e-39
0.050510269 -0.53605443 2.5073333 5.2805691e-39
0.13647428 -0.5578686 2.5140002 5.2805691e-39
0.37111428 -0.5578686 2.5140002 5.2805691e-39
0.98405147 -0.54110861 2.5140002 5.2805691e-39
1.0123205 -0.54346818 2.5074151 5.2805691e-39
0.066966236 -0.50680625 2.5025458 5.2805691e-39
0.091144234 -0.49662212 2.5115173 5.2805691e-39
0.99280649 -0.49733573 2.5077691 5.2805691e-39
1.0054542 -0.50225586 2.4993329 5.2805691e-39
0.074555852 -0.45144108 2.4960003 5.2805691e-39
0.097100206 -0.45848751 2.5024004 5.2805691e-39
0.12210857 -0.45252001 2.5140002 5.2805691e-39
0.97767925 -0.46059519 2.5053606 5.2805691e-39
0.07498806 -0.43155953 2.4960003 5.2805691e-39
0.11027878 -0.42406166 2.4959993 5.2805691e-39
0.12776777 -0.41704109 2.5140002 5.2805691e-39
0.95532006 -0.41421148 2.5140002 5.2805691e-39
0.97023231 -0.41951632 2.5052197 5.2805691e-39
0.11489525 -0.39539808 2.4960001 5.2805691e-39
0.14080307 -0.38360366 2.5056922 5.2805691e-39
0.16041715 -0.37111431 2.5140002 5.2805691e-39
0.94871205 -0.37836111 2.5058184 5.2805691e-39
0.96630859 -0.38539428 2.4959998 5.2805691e-39
0.1489183 -0.33684403 2.4977999 5.2805691e-39
0.17334633 -0.33328456 2.5140004 5.2805691e-39
0.94398248 -0.34014359 2.5050006 5.2805691e-39
0.15292953 -0.31457525 2.4960003 5.2805691e-39
0.18520842 -0.30277506 2.5064209 5.2805691e-39
0.93431634 -0.30252498 2.5046084 5.2805691e-39
0.19278286 -0.26736099 2.4990001 5.2805691e-39
0.21041548 -0.25237074 2.5057497 5.2805691e-39
0.90639329 -0.25035903 2.5140002 5.2805691e-39
0.93112153 -0.25759238 2.5078287 5.2805691e-39
0.22497028 -0.22275487 2.5052309 5.2805691e-39
0.24421716 -0.20351431 2.5140002 5.2805691e-39
0.87710667 -0.21628383 2.5140004 5.2805691e-39
0.89345521 -0.21964924 2.5073028 5.2805691e-39
0.92180008 -0.23464002 2.5140002 5.2805691e-39
0.23270524 -0.18751667 2.4975002 5.2805691e-39
0.25233486 -0.17651318 2.5113001 5.2805691e-39
0.28492001 -0.16041715 2.5140002 5.2805691e-39
0.87870288 -0.16520573 2.5140002 5.2805691e-39
0.89042199 -0.18759456 2.5100868 5.2805691e-39
0.26398245 -0.14057158 2.5040526 5.2805691e-39
0.28274339 -0.14039221 2.5140002 5.2805691e-39
0.8689025 -0.13504788 2.5112309 5.2805691e-39
0.88349152 -0.1532343 2.5140002 5.2805691e-39
0.26945573 -0.10856216 2.4982498 5.2805691e-39
0.29538491 -0.094840907 2.5054736 5.2805691e-39
0.32322857 -0.083800003 2.5140002 5.2805691e-39
0.8550418 -0.10774286 2.5140002 5.2805691e-39
0.31211889 -0.062994294 2.4959996 5.2805691e-39
0.32878259 -0.053530131 2.5131819 5.2805691e-39
0.82219785 -0.04261829 2.5140002 5.2805691e-39
0.31404698 -0.026676828 2.4960001 5.2805691e-39
0.3371667 -0.018233715 2.5042806 5.2805691e-39
0.36153716 -0.0023942858 2.5140002 5.2805691e-39
0.81829321 -0.024863739 2.5140004 5.2805691e-39
0.35453486 0.01632762 2.4984 5.2805691e-39
0.36739737 0.023100192 2.5104003 5.2805691e-39
0.35894856 0.052297141 2.4960001 5.2805691e-39
0.38114741 0.061702564 2.5066786 5.2805691e-39
0.40559202 0.072307438 2.5140002 5.2805691e-39
0.78773975 0.072181985 2.507077 5.2805691e-39
0.38280904 0.09934859 2.4997904 5.2805691e-39
0.41183355 0.10433566 2.5092001 5.2805691e-39
0.78129965 0.098925926 2.5019994 5.2805691e-39
0.80347437 0.092708573 2.4960003 5.2805691e-39
0.38430476 0.12123429 2.4960001 5.2805691e-39
0.42633685 0.13743906 2.5014422 5.2805691e-39
0.44874606 0.1468208 2.5123637 5.2805691e-39
0.77745068 0.14525145 2.5062857 5.2805691e-39
0.43596801 0.17020342 2.4960001 5.2805691e-39
0.45913273 0.18183872 2.5070322 5.2805691e-39
0.75419998 0.18472835 2.5140004 5.2805691e-39
0.77175367 0.17567694 2.5056925 5.2805691e-39
0.47228926 0.21353288 2.49825 5.2805691e-39
0.49657568 0.22335654 2.5087318 5.2805691e-39
0.52674294 0.23703431 2.5140002 5.2805691e-39
0.75154358 0.22631291 2.5069287 5.2805691e-39
0.76801276 0.21610287 2.5004997 5.2805691e-39
0.50547904 0.25599897 2.5037148 5.2805691e-39
0.53112805 0.26349983 2.5120714 5.2805691e-39
0.7407285 0.25461304 2.5063338 5.2805691e-39
0.76543999 0.24484573 2.4960003 5.2805691e-39
0.51108575 0.28288001 2.4960001 5.2805691e-39
0.54050463 0.29023629 2.5077388 5.2805691e-39
0.61061949 0.3074629 2.5104003 5.2805691e-39
0.71589154 0.28492004 2.5140004 5.2805691e-39
0.72773433 0.28238913 2.5086 5.2805691e-39
0.96457148 -0.60044575 2.5320001 5.2805691e-39
0.065607131 -0.57020223 2.5326335 5.2805691e-39
0.098265722 -0.56728858 2.5320005 5.2805691e-39
0.1380543 -0.56246573 2.5319998 5.2805691e-39
0.18218198 -0.56301504 2.5335832 5.2805691e-39
0.22092503 -0.56547678 2.5335207 5.2805691e-39
0.2601169 -0.56736767 2.5363429 5.2805691e-39
0.29968476 -0.56590492 2.5347149 5.2805691e-39
0.33788067 -0.56534016 2.5348153 5.2805691e-39
0.38517094 -0.56361669 2.5319998 5.2805691e-39
0.4207139 -0.56411356 2.5320001 5.2805691e-39
0.46273839 -0.56452173 2.5356541 5.2805691e-39
0.4990235 -0.56583691 2.5342803 5.2805691e-39
0.54267585 -0.5666129 2.534193 5.2805691e-39
0.58002901 -0.56599885 2.5328641 5.2805691e-39
0.6218769 -0.56799716 2.5345001 5.2805691e-39
0.6593284 -0.5671407 2.5353532 5.2805691e-39
0.70099163 -0.56991863 2.5395117 5.2805691e-39
0.73858368 -0.5704816 2.5362642 5.2805691e-39
0.78170079 -0.57201195 2.5420382 5.2805691e-39
0.82033944 -0.57486796 2.5403128 5.2805691e-39
0.85723191 -0.57448035 2.5410869 5.2805691e-39
0.90055114 -0.57522988 2.5405502 5.2805691e-39
0.94045007 -0.57405031 2.5419664 5.2805691e-39
0.9792093 -0.57834423 2.5346196 5.2805691e-39
1.0039581 -0.5747239 2.5319998 5.2805691e-39
0.069492973 -0.54549444 2.5320001 5.2805691e-39
0.10156725 -0.54155272 2.5385308 5.2805691e-39
0.13916585 -0.54237098 2.5472002 5.2805691e-39
0.17814799 -0.5531112 2.544893 5.2805691e-39
0.21919914 -0.54903018 2.5474658 5.2805691e-39
0.26030743 -0.55154735 2.5497334 5.2805691e-39
0.30101368 -0.54982287 2.5488892 5.2805691e-39
0.33971345 -0.55119842 2.546844 5.2805691e-39
0.37995368 -0.55102289 2.5420277 5.2805691e-39
0.42143545 -0.55061603 2.5453 5.2805691e-39
0.45700833 -0.55121762 2.5488887 5.2805691e-39
0.50425565 -0.54968786 2.543298 5.2805691e-39
0.53868562 -0.54876262 2.5468926 5.2805691e-39
0.57682174 -0.5546959 2.5443921 5.2805691e-39
0.61919147 -0.55288857 2.5488074 5.2805691e-39
0.65886688 -0.55078405 2.549161 5.2805691e-39
0.69755912 -0.55321699 2.5510001 5.2805691e-39
0.73867732 -0.5541144 2.5498824 5.2805691e-39
0.77890533 -0.55189079 2.5509996 5.2805691e-39
0.8104198 -0.55427855 2.5510004 5.2805691e-39
0.95529568 -0.5466882 2.5497336 5.2805691e-39
0.97921342 -0.54087156 2.5392859 5.2805691e-39
1.0037571 -0.54287291 2.5320001 5.2805691e-39
0.109817 -0.50296289 2.5325589 5.2805691e-39
0.14057231 -0.50009769 2.5491002 5.2805691e-39
0.16698927 -0.49351731 2.5510004 5.2805691e-39
0.95017064 -0.49658826 2.5493236 5.2805691e-39
0.97650862 -0.50195849 2.5341103 5.2805691e-39
0.11246027 -0.47461304 2.5319998 5.2805691e-39
0.14074191 -0.46065301 2.538635 5.2805691e-39
0.16742587 -0.46171516 2.5509996 5.2805691e-39
0.94441801 -0.46081054 2.5403123 5.2805691e-39
0.96744227 -0.46678361 2.5320005 5.2805691e-39
0.14639837 -0.42252636 2.534375 5.2805691e-39
0.17618915 -0.4173947 2.5486259 5.2805691e-39
0.20650953 -0.41058955 2.5510001 5.2805691e-39
0.91593057 -0.41058955 2.5510004 5.2805691e-39
0.94034445 -0.4196254 2.5442646 5.2805691e-39
0.96859044 -0.43003812 2.5319998 5.2805691e-39
0.15674286 -0.39306289 2.5320001 5.2805691e-39
0.18038099 -0.38094223 2.5403333 5.2805691e-39
0.20863536 -0.36989501 2.5510001 5.2805691e-39
0.9095794 -0.37348869 2.546114 5.2805691e-39
0.93474656 -0.38190588 2.5356381 5.2805691e-39
0.1830813 -0.34834269 2.532613 5.2805691e-39
0.2183325 -0.33937719 2.5437617 5.2805691e-39
0.24386346 -0.33557796 2.5510001 5.2805691e-39
0.90535724 -0.33931595 2.5488894 5.2805691e-39
0.92923927 -0.3419731 2.5396907 5.2805691e-39
0.21854927 -0.29932278 2.5323005 5.2805691e-39
0.25206313 -0.29931733 2.5510006 5.2805691e-39
0.90451145 -0.29957485 2.54058 5.2805691e-39
0.92946482 -0.2989355 2.533226 5.2805691e-39
0.22717373 -0.26362815 2.5330555 5.2805691e-39
0.26068485 -0.26046893 2.5482056 5.2805691e-39
0.28425428 -0.25024098 2.5510001 5.2805691e-39
0.87409931 -0.25384918 2.5498824 5.2805691e-39
0.89659786 -0.2635726 2.5373828 5.2805691e-39
0.93054348 -0.26606098 2.5319998 5.2805691e-39
0.23873143 -0.23873143 2.5320001 5.2805691e-39
0.26145518 -0.21953994 2.5383325 5.2805691e-39
0.29710364 -0.21300209 2.5486252 5.2805691e-39
0.32636607 -0.20974891 2.5510001 5.2805691e-39
0.87038708 -0.21779495 2.5446665 5.2805691e-39
0.89323342 -0.22386098 2.5320005 5.2805691e-39
0.93046695 -0.23321959 2.5320001 5.2805691e-39
0.27123329 -0.18337344 2.5320005 5.2805691e-39
0.30038509 -0.17939389 2.5416501 5.2805691e-39
0.32434145 -0.16642238 2.5510001 5.2805691e-39
0.86146444 -0.17852405 2.5451322 5.2805691e-39
0.89132434 -0.17663717 2.5320001 5.2805691e-39
0.27731428 -0.15674286 2.5320001 5.2805691e-39
0.30219546 -0.139654 2.533792 5.2805691e-39
0.33765548 -0.13718097 2.5483408 5.2805691e-39
0.36199906 -0.12390573 2.5510001 5.2805691e-39
0.83553535 -0.13318209 2.5510006 5.2805691e-39
0.85584706 -0.14260305 2.5406942 5.2805691e-39
0.89464003 -0.15674286 2.5320001 5.2805691e-39
0.30541268 -0.11061119 2.5320005 5.2805691e-39
0.34038737 -0.10179939 2.5437617 5.2805691e-39
0.37087947 -0.092405684 2.5509999 5.2805691e-39
0.82943767 -0.096699379 2.5476756 5.2805691e-39
0.84887916 -0.10094802 2.5385311 5.2805691e-39
0.34591249 -0.061759319 2.5356188 5.2805691e-39
0.37876901 -0.058362711 2.5493624 5.2805691e-39
0.40249115 -0.049400322 2.5510004 5.2805691e-39
0.79931337 -0.060738098 2.5510001 5.2805691e-39
0.8213715 -0.060114767 2.5409052 5.2805691e-39
0.84853983 -0.070546724 2.535167 5.2805691e-39
0.35592684 -0.029419431 2.5319998 5.2805691e-39
0.38017595 -0.019366074 2.5384459 5.2805691e-39
0.41019961 -0.018084953 2.549417 5.2805691e-39
0.7970683 -0.011478032 2.5459335 5.2805691e-39
0.81122512 -0.018274628 2.5349231 5.2805691e-39
0.3864862 0.01709922 2.5319996 5.2805691e-39
0.41825199 0.020780073 2.5416787 5.2805691e-39
0.44460285 0.036442861 2.5510001 5.2805691e-39
0.79159409 0.020805426 2.5446672 5.2805691e-39
0.80886179 0.013671658 2.5338101 5.2805691e-39
0.39467049 0.045013338 2.5320001 5.2805691e-39
0.42237976 0.058240157 2.5342159 5.2805691e-39
0.46012825 0.059556171 2.5506725 5.2805691e-39
0.48347527 0.070456192 2.5510001 5.2805691e-39
0.78635573 0.058478553 2.5402608 5.2805691e-39
0.80748409 0.051328976 2.5320001 5.2805691e-39
0.42962217 0.096032694 2.5327041 5.2805691e-39
0.46015066 0.09926644 2.5428181 5.2805691e-39
0.48752445 0.10527937 2.5509999 5.2805691e-39
0.75203109 0.1046182 2.5491903 5.2805691e-39
0.76982534 0.099664249 2.54036 5.2805691e-39
0.4364686 0.12298286 2.5320001 5.2805691e-39
0.46472394 0.13783164 2.5371816 5.2805691e-39
0.49802318 0.14328146 2.5483928 5.2805691e-39
0.52429128 0.15403181 2.5510004 5.2805691e-39
0.7527653 0.1408927 2.5454123 5.2805691e-39
0.76977414 0.13997085 2.5350807 5.2805691e-39
0.4719061 0.17163083 2.5320005 5.2805691e-39
0.49957803 0.17859039 2.5340352 5.2805691e-39
0.53522414 0.18415791 2.5510006 5.2805691e-39
0.56121999 0.19679144 2.5510001 5.2805691e-39
0.71670955 0.19193238 2.5510001 5.2805691e-39
0.74248153 0.17933458 2.5419664 5.2805691e-39
0.76763815 0.16478096 2.5320001 5.2805691e-39
0.50743842 0.2104677 2.533462 5.2805691e-39
0.54085821 0.21919385 2.5432127 5.2805691e-39
0.56986159 0.22416376 2.5503871 5.2805691e-39
0.7118504 0.21865717 2.5509996 5.2805691e-39
0.73638844 0.21674098 2.5342789 5.2805691e-39
0.76442289 0.20657906 2.5320001 5.2805691e-39
0.54851973 0.25705829 2.5320003 5.2805691e-39
0.57937312 0.26210469 2.5496185 5.2805691e-39
0.61201918 0.27762836 2.5510006 5.2805691e-39
0.6729781 0.27453622 2.5510001 5.2805691e-39
0.71037632 0.26108158 2.546582 5.2805691e-39
0.72670257 0.26145577 2.5328264 5.2805691e-39
0.55704004 0.29564115 2.5320001 5.2805691e-39
0.5768041 0.29638144 2.5357997 5.2805691e-39
0.6156528 0.29433358 2.5383332 5.2805691e-39
0.6729781 0.28716972 2.5510004 5.2805691e-39
0.70067155 0.29070991 2.543735 5.2805691e-39
0.72644287 0.29720855 2.5319998 5.2805691e-39
0.83463812 -0.56478816 2.5699999 5.2805691e-39
0.85946417 -0.56260288 2.5700002 5.2805691e-39
0.90165973 -0.56444788 2.5722353 5.2805691e-39
0.93244815 -0.56348336 2.5734546 5.2805691e-39
0.15637566 -0.53004551 2.5699999 5.2805691e-39
0.18129928 -0.53655893 2.5806389 5.2805691e-39
0.22006731 -0.53553867 2.575182 5.2805691e-39
0.25921187 -0.54250765 2.5786366 5.2805691e-39
0.30114689 -0.53590453 2.5812809 5.2805691e-39
0.33954456 -0.53974938 2.5794997 5.2805691e-39
0.38130322 -0.54126102 2.5791202 5.2805691e-39
0.41771805 -0.53778762 2.5785174 5.2805691e-39
0.46179867 -0.5395537 2.5800586 5.2805691e-39
0.49657363 -0.5346247 2.5791037 5.2805691e-39
0.53817731 -0.53375971 2.577862 5.2805691e-39
0.58204329 -0.54654634 2.5779674 5.2805691e-39
0.62102419 -0.54312068 2.5767417 5.2805691e-39
0.66165668 -0.53922963 2.5784442 5.2805691e-39
0.7008329 -0.54458678 2.5820332 5.2805691e-39
0.73930061 -0.5444091 2.5794995 5.2805691e-39
0.77773881 -0.53990376 2.5799994 5.2805691e-39
0.81672782 -0.54544038 2.5809393 5.2805691e-39
0.85933936 -0.55417132 2.5842505 5.2805691e-39
0.90022063 -0.55525541 2.5890005 5.2805691e-39
0.94638681 -0.54375386 2.5823715 5.2805691e-39
0.96354616 -0.53684449 2.5700002 5.2805691e-39
0.1807709 -0.49950701 2.5763335 5.2805691e-39
0.49560863 -0.51533437 2.5890005 5.2805691e-39
0.93714148 -0.49942204 2.5786359 5.2805691e-39
0.18657632 -0.45891699 2.5785801 5.2805691e-39
0.2168414 -0.45115221 2.5872734 5.2805691e-39
0.91806763 -0.44300669 2.5890002 5.2805691e-39
0.93019694 -0.45836383 2.5785172 5.2805691e-39
0.19238289 -0.43029141 2.5700002 5.2805691e-39
0.21989127 -0.41946128 2.578845 5.2805691e-39
0.24410574 -0.41670576 2.5890002 5.2805691e-39
0.91436183 -0.4175095 2.5787692 5.2805691e-39
0.92601597 -0.43486032 2.5700002 5.2805691e-39
0.22382082 -0.38431811 2.5770693 5.2805691e-39
0.25114462 -0.37030062 2.5852005 5.2805691e-39
0.89879799 -0.38112569 2.5797107 5.2805691e-39
0.26346141 -0.34006023 2.5769506 5.2805691e-39
0.28552973 -0.32794005 2.5890005 5.2805691e-39
0.8935371 -0.34254467 2.5890005 5.2805691e-39
0.27141374 -0.30486459 2.5699999 5.2805691e-39
0.28596833 -0.30103567 2.5845299 5.2805691e-39
0.87424588 -0.2873199 2.5858335 5.2805691e-39
0.88857937 -0.29932621 2.5800936 5.2805691e-39
0.29753518 -0.25518832 2.5803633 5.2805691e-39
0.32794002 -0.24993381 2.5890007 5.2805691e-39
0.86313766 -0.25973344 2.5789411 5.2805691e-39
0.88848573 -0.27168572 2.5700002 5.2805691e-39
0.30713668 -0.23191953 2.5752778 5.2805691e-39
0.33772027 -0.22081482 2.5778229 5.2805691e-39
0.83635342 -0.20601888 2.5814004 5.2805691e-39
0.85403138 -0.22128911 2.5778866 5.2805691e-39
0.34275472 -0.1820097 2.5759814 5.2805691e-39
0.37232292 -0.16602479 2.5890007 5.2805691e-39
0.82938212 -0.17905705 2.5821881 5.2805691e-39
0.84640962 -0.1870732 2.5714617 5.2805691e-39
0.35035917 -0.15489934 2.5700002 5.2805691e-39
0.37635201 -0.13892068 2.579771 5.2805691e-39
0.83081901 -0.14080939 2.5820334 5.2805691e-39
0.84225655 -0.14994536 2.5814004 5.2805691e-39
0.38499668 -0.10262321 2.5758965 5.2805691e-39
0.41393557 -0.09139815 2.5882699 5.2805691e-39
0.79396009 -0.088765718 2.5890002 5.2805691e-39
0.81653988 -0.09794905 2.5779998 5.2805691e-39
0.39896196 -0.069349214 2.5700002 5.2805691e-39
0.42094061 -0.059560224 2.5783117 5.2805691e-39
0.44136289 -0.04931429 2.5890002 5.2805691e-39
0.79110891 -0.056039043 2.5811379 5.2805691e-39
0.80438113 -0.060750972 2.5709047 5.2805691e-39
0.43074021 -0.020772005 2.5716522 5.2805691e-39
0.45241618 -0.015382598 2.5870342 5.2805691e-39
0.78661501 -0.019500613 2.5809772 5.2805691e-39
0.80200326 -0.031003175 2.5700002 5.2805691e-39
0.43714476 0.010280001 2.5700002 5.2805691e-39
0.45874169 0.019951832 2.5843546 5.2805691e-39
0.48475948 0.035013147 2.5890005 5.2805691e-39
0.77554685 0.02002831 2.5783594 5.2805691e-39
0.47565401 0.044873022 2.5700002 5.2805691e-39
0.50042808 0.058492195 2.5809772 5.2805691e-39
0.5237177 0.067067437 2.5890005 5.2805691e-39
0.75240582 0.062839098 2.5821602 5.2805691e-39
0.7706449 0.056356579 2.5732436 5.2805691e-39
0.5050953 0.097244956 2.5779161 5.2805691e-39
0.53541791 0.10557434 2.5864079 5.2805691e-39
0.56326735 0.11559303 2.5826669 5.2805691e-39
0.74424183 0.097981408 2.5758054 5.2805691e-39
0.76284134 0.082403183 2.5700002 5.2805691e-39
0.51193058 0.12883341 2.5719001 5.2805691e-39
0.54010946 0.13667777 2.5791345 5.2805691e-39
0.56711435 0.14054573 2.5890002 5.2805691e-39
0.74238425 0.14240521 2.5781431 5.2805691e-39
0.54471123 0.17316824 2.571357 5.2805691e-39
0.58028096 0.18964691 2.5812593 5.2805691e-39
0.71540952 0.19338246 2.5890005 5.2805691e-39
0.72832799 0.17792371 2.5809617 5.2805691e-39
0.58916742 0.21647462 2.5767856 5.2805691e-39
0.61618042 0.2330495 2.587945 5.2805691e-39
0.70089585 0.22616479 2.5828531 5.2805691e-39
0.5947715 0.24651022 2.5700002 5.2805691e-39
0.62227863 0.25943723 2.5758727 5.2805691e-39
0.66061318 0.26396891 2.581151 5.2805691e-39
0.69335538 0.25841752 2.5733774 5.2805691e-39
0.63882858 0.2814762 2.5700002 5.2805691e-39
0.65931809 0.29162985 2.5771248 5.2805691e-39
0.68778098 0.28777012 2.5700002 5.2805691e-39
0.19629622 -0.52925432 2.6090002 5.2805691e-39
0.21734613 -0.52834362 2.6106677 5.2805691e-39
0.26119217 -0.53105664 2.6145566 5.2805691e-39
0.29505396 -0.52883738 2.6175718 5.2805691e-39
0.34053996 -0.5283649 2.6173873 5.2805691e-39
0.37708861 -0.53056115 2.6112866 5.2805691e-39
0.42132223 -0.5282225 2.6105392 5.2805691e-39
0.46255356 -0.52830583 2.60991 5.2805691e-39
0.50440669 -0.52641463 2.6090002 5.2805691e-39
0.54349655 -0.52639723 2.6102505 5.2805691e-39
0.58315575 -0.53131932 2.615191 5.2805691e-39
0.62133998 -0.53093898 2.6152864 5.2805691e-39
0.65813321 -0.52903593 2.613517 5.2805691e-39
0.70342261 -0.5302223 2.6131186 5.2805691e-39
0.73974818 -0.52941793 2.6138654 5.2805691e-39
0.77854115 -0.52737451 2.6147149 5.2805691e-39
0.82155949 -0.52944934 2.6160274 5.2805691e-39
0.85981303 -0.53577065 2.6112227 5.2805691e-39
0.9019385 -0.5393244 2.6171634 5.2805691e-39
0.93678927 -0.53685004 2.6120775 5.2805691e-39
0.96160293 -0.53919333 2.6090002 5.2805691e-39
0.19339734 -0.5064773 2.6090007 5.2805691e-39
0.21973333 -0.50340426 2.6196442 5.2805691e-39
0.25548941 -0.50212407 2.627367 5.2805691e-39
0.3068558 -0.51300275 2.6290004 5.2805691e-39
0.33822295 -0.51265502 2.6290007 5.2805691e-39
0.38117495 -0.51196754 2.6267142 5.2805691e-39
0.4195644 -0.51284426 2.6239998 5.2805691e-39
0.46027896 -0.51163614 2.6245 5.2805691e-39
0.50423962 -0.51398742 2.61991 5.2805691e-39
0.53896159 -0.51036644 2.6233587 5.2805691e-39
0.5844726 -0.51649088 2.625 5.2805691e-39
0.62113571 -0.5124234 2.6282861 5.2805691e-39
0.66247904 -0.5167926 2.6240008 5.2805691e-39
0.70003837 -0.51538676 2.6270006 5.2805691e-39
0.73584187 -0.51606303 2.6289999 5.2805691e-39
0.78407764 -0.51636255 2.6289999 5.2805691e-39
0.82067186 -0.51636255 2.6289999 5.2805691e-39
0.85996598 -0.51576108 2.6268954 5.2805691e-39
0.91101062 -0.49720317 2.6283751 5.2805691e-39
0.92883551 -0.5043323 2.6160972 5.2805691e-39
0.19463971 -0.47293305 2.6090002 5.2805691e-39
0.22129001 -0.47005841 2.6090009 5.2805691e-39
0.25904116 -0.46028402 2.6249316 5.2805691e-39
0.28293049 -0.44985113 2.6290002 5.2805691e-39
0.87683409 -0.44718042 2.6290002 5.2805691e-39
0.9031812 -0.45966017 2.6210687 5.2805691e-39
0.92593914 -0.46728137 2.6090007 5.2805691e-39
0.23481002 -0.42986384 2.6090002 5.2805691e-39
0.26133901 -0.41974255 2.6200337 5.2805691e-39
0.29203522 -0.41768101 2.6289999 5.2805691e-39
0.87589163 -0.41960901 2.6290002 5.2805691e-39
0.89884281 -0.42167827 2.6177309 5.2805691e-39
0.26423782 -0.38274685 2.6100819 5.2805691e-39
0.29900515 -0.37919319 2.6256657 5.2805691e-39
0.32966828 -0.3684774 2.6289999 5.2805691e-39
0.86920393 -0.37866685 2.6259229 5.2805691e-39
0.88616115 -0.38118491 2.6146007 5.2805691e-39
0.2758086 -0.35283622 2.6090002 5.2805691e-39
0.30238134 -0.34074751 2.6152749 5.2805691e-39
0.33266026 -0.3385025 2.6284442 5.2805691e-39
0.86748236 -0.33786151 2.6261995 5.2805691e-39
0.88707125 -0.33747002 2.6113086 5.2805691e-39
0.30588064 -0.2977255 2.6090009 5.2805691e-39
0.33877695 -0.29971999 2.6196442 5.2805691e-39
0.36639082 -0.31130701 2.6290002 5.2805691e-39
0.83035445 -0.29203519 2.6290007 5.2805691e-39
0.85900682 -0.29965124 2.617115 5.2805691e-39
0.88457531 -0.30686811 2.6090002 5.2805691e-39
0.30740061 -0.27083907 2.6090007 5.2805691e-39
0.3415221 -0.26369825 2.6130915 5.2805691e-39
0.3755787 -0.25655144 2.6254442 5.2805691e-39
0.82753956 -0.25777024 2.6289995 5.2805691e-39
0.84675181 -0.25942254 2.6138492 5.2805691e-39
0.35532102 -0.22776985 2.6090002 5.2805691e-39
0.38066939 -0.21989624 2.6191685 5.2805691e-39
0.4067553 -0.21965241 2.6289999 5.2805691e-39
0.79871529 -0.20280859 2.6290002 5.2805691e-39
0.82207179 -0.21911877 2.6219022 5.2805691e-39
0.84331793 -0.22966692 2.6140001 5.2805691e-39
0.38366219 -0.18366522 2.6153419 5.2805691e-39
0.41788402 -0.17822666 2.6255379 5.2805691e-39
0.7941153 -0.17564519 2.6259239 5.2805691e-39
0.81081432 -0.1804972 2.6125903 5.2805691e-39
0.39452502 -0.14107926 2.6090004 5.2805691e-39
0.41876587 -0.13928816 2.6206119 5.2805691e-39
0.45280439 -0.13231674 2.6290004 5.2805691e-39
0.7853151 -0.1382564 2.6235445 5.2805691e-39
0.81656182 -0.14041363 2.612396 5.2805691e-39
0.39507717 -0.11678382 2.6090002 5.2805691e-39
0.425679 -0.10592932 2.6090009 5.2805691e-39
0.45980453 -0.099208638 2.6231663 5.2805691e-39
0.49387646 -0.085755482 2.6289999 5.2805691e-39
0.7824949 -0.099839307 2.6197929 5.2805691e-39
0.81025839 -0.10616712 2.6090009 5.2805691e-39
0.43980289 -0.072058104 2.6090002 5.2805691e-39
0.46162784 -0.059565973 2.6129289 5.2805691e-39
0.49382222 -0.056646559 2.6271818 5.2805691e-39
0.75078523 -0.051626168 2.6290007 5.2805691e-39
0.77641517 -0.061049253 2.617965 5.2805691e-39
0.46994057 -0.025248386 2.6090009 5.2805691e-39
0.50192833 -0.019981494 2.6218565 5.2805691e-39
0.52580005 -0.010641191 2.6289999 5.2805691e-39
0.74693054 -0.019119589 2.626358 5.2805691e-39
0.77083814 -0.021584788 2.6111631 5.2805691e-39
0.47831672 0.012423811 2.6090002 5.2805691e-39
0.50261569 0.019022195 2.6161697 5.2805691e-39
0.53742039 0.022727171 2.6272604 5.2805691e-39
0.56586099 0.037557144 2.6290002 5.2805691e-39
0.71859342 0.020030476 2.6290002 5.2805691e-39
0.74248731 0.020970378 2.620342 5.2805691e-39
0.76566184 0.014908573 2.6090007 5.2805691e-39
0.51765883 0.043897461 2.6090002 5.2805691e-39
0.54285836 0.058387578 2.6128302 5.2805691e-39
0.57051092 0.061164502 2.6290004 5.2805691e-39
0.71449631 0.068968587 2.6289999 5.2805691e-39
0.73777062 0.059003413 2.6193442 5.2805691e-39
0.54809707 0.090279691 2.6090009 5.2805691e-39
0.58101887 0.10002443 2.6192126 5.2805691e-39
0.60675657 0.11434065 2.6290002 5.2805691e-39
0.71218944 0.10081676 2.6258421 5.2805691e-39
0.73219502 0.099392533 2.6126847 5.2805691e-39
0.55907142 0.15405525 2.6090002 5.2805691e-39
0.58167183 0.14048527 2.6118007 5.2805691e-39
0.61501795 0.14325517 2.6284285 5.2805691e-39
0.67853242 0.15774001 2.6290002 5.2805691e-39
0.70514888 0.14239755 2.6264539 5.2805691e-39
0.73213214 0.13756612 2.6124153 5.2805691e-39
0.55907142 0.16150953 2.6090002 5.2805691e-39
0.58111584 0.17208573 2.6090009 5.2805691e-39
0.62115276 0.17918472 2.6180904 5.2805691e-39
0.65776014 0.18704383 2.6290004 5.2805691e-39
0.70074719 0.17926632 2.6207132 5.2805691e-39
0.72604752 0.16946076 2.6090004 5.2805691e-39
0.62484592 0.21549477 2.6109056 5.2805691e-39
0.66112685 0.22087544 2.6237361 5.2805691e-39
0.69295943 0.21458595 2.6142387 5.2805691e-39
0.66661191 0.24956951 2.6090007 5.2805691e-39
0.68330956 0.24102192 2.6090002 5.2805691e-39
0.668401 0.30562574 2.6090002 5.2805691e-39
0.58530289 -0.52223152 2.6490002 5.2805691e-39
0.74676573 -0.52223146 2.6490002 5.2805691e-39
0.90462458 -0.52619594 2.6490006 5.2805691e-39
0.27145946 -0.50658971 2.6490002 5.2805691e-39
0.29548812 -0.49984249 2.6567788 5.2805691e-39
0.33980039 -0.50456733 2.6553161 5.2805691e-39
0.37951902 -0.49898088 2.6586304 5.2805691e-39
0.42288017 -0.49794611 2.6567421 5.2805691e-39
0.45873529 -0.49434149 2.6602507 5.2805691e-39
0.49869579 -0.50212985 2.6617277 5.2805691e-39
0.5369879 -0.49533162 2.6593235 5.2805691e-39
0.57866681 -0.50554234 2.6599529 5.2805691e-39
0.61849469 -0.50018692 2.6575716 5.2805691e-39
0.65983468 -0.50542796 2.6602504 5.2805691e-39
0.70153892 -0.50690746 2.6578891 5.2805691e-39
0.74158889 -0.50911897 2.6570005 5.2805691e-39
0.78225958 -0.50730067 2.6567786 5.2805691e-39
0.81994587 -0.50498426 2.6590009 5.2805691e-39
0.85939091 -0.50751692 2.6601114 5.2805691e-39
0.89298874 -0.4990367 2.6554163 5.2805691e-39
0.29456928 -0.45990598 2.6558971 5.2805691e-39
0.87220794 -0.45004168 2.6590004 5.2805691e-39
0.88739485 -0.46925125 2.6556673 5.2805691e-39
0.30965945 -0.42458096 2.6520009 5.2805691e-39
0.32768583 -0.42098597 2.6671817 5.2805691e-39
0.86858422 -0.41888177 2.6590002 5.2805691e-39
0.34368747 -0.38344598 2.6616318 5.2805691e-39
0.36911136 -0.37687084 2.6689997 5.2805691e-39
0.85626096 -0.37928876 2.6674993 5.2805691e-39
0.35156816 -0.34398904 2.6556673 5.2805691e-39
0.37638834 -0.33531696 2.6653633 5.2805691e-39
0.83502579 -0.32742193 2.6650002 5.2805691e-39
0.84892273 -0.34255025 2.6572056 5.2805691e-39
0.38284451 -0.29926708 2.6599441 5.2805691e-39
0.40416288 -0.29486096 2.6690004 5.2805691e-39
0.8232286 -0.29821074 2.6586776 5.2805691e-39
0.84179342 -0.31367528 2.6490002 5.2805691e-39
0.39178574 -0.27172622 2.6540003 5.2805691e-39
0.41572624 -0.25716671 2.6625295 5.2805691e-39
0.44737524 -0.24148096 2.6690001 5.2805691e-39
0.79561621 -0.24148096 2.6690001 5.2805691e-39
0.81115258 -0.25985694 2.6568794 5.2805691e-39
0.42381725 -0.22144671 2.6499317 5.2805691e-39
0.45084506 -0.21708356 2.6631668 5.2805691e-39
0.79286987 -0.21897635 2.6647143 5.2805691e-39
0.80515683 -0.22468688 2.6566195 5.2805691e-39
0.42232633 -0.19829659 2.6490002 5.2805691e-39
0.45848221 -0.17990805 2.6578896 5.2805691e-39
0.48347029 -0.16725735 2.6690004 5.2805691e-39
0.78304327 -0.17956823 2.657649 5.2805691e-39
0.46323541 -0.14690794 2.6490014 5.2805691e-39
0.49175096 -0.13781705 2.6654286 5.2805691e-39
0.75716293 -0.12408668 2.6590002 5.2805691e-39
0.76922214 -0.14147097 2.6578891 5.2805691e-39
0.47682002 -0.11857429 2.6490002 5.2805691e-39
0.49915984 -0.10292983 2.6509621 5.2805691e-39
0.5247879 -0.10236944 2.6690006 5.2805691e-39
0.75390029 -0.10105733 2.6642945 5.2805691e-39
0.76490968 -0.10266014 2.6578896 5.2805691e-39
0.50981051 -0.067135625 2.6500008 5.2805691e-39
0.53106242 -0.058825552 2.6646523 5.2805691e-39
0.74377042 -0.059657518 2.6605151 5.2805691e-39
0.76465499 -0.076723501 2.6556668 5.2805691e-39
0.54270327 -0.020826042 2.6578894 5.2805691e-39
0.56599748 -0.011438573 2.6690004 5.2805691e-39
0.71766442 -0.0042365082 2.6690001 5.2805691e-39
0.73078793 -0.018648095 2.6604285 5.2805691e-39
0.55241835 0.0075704767 2.6510003 5.2805691e-39
0.5779193 0.023210853 2.6601112 5.2805691e-39
0.60649854 0.035078287 2.6690004 5.2805691e-39
0.71330881 0.02112487 2.661778 5.2805691e-39
0.7272709 0.013990389 2.6490002 5.2805691e-39
0.59174353 0.060238797 2.6562729 5.2805691e-39
0.61339927 0.063665882 2.6677873 5.2805691e-39
0.64310193 0.078799054 2.6690001 5.2805691e-39
0.71020675 0.060127497 2.6635945 5.2805691e-39
0.72809666 0.05398915 2.6490002 5.2805691e-39
0.59539431 0.083254293 2.6490002 5.2805691e-39
0.62403655 0.099424645 2.6558008 5.2805691e-39
0.64998585 0.10184467 2.6669998 5.2805691e-39
0.69797826 0.10082006 2.6568794 5.2805691e-39
0.6309436 0.13692234 2.6490011 5.2805691e-39
0.66006947 0.14333797 2.6538005 5.2805691e-39
0.69047999 0.13611153 2.6590002 5.2805691e-39
0.66754794 0.17609541 2.6490014 5.2805691e-39
0.6836943 0.18669143 2.6490002 5.2805691e-39
0.67696667 0.20771526 2.6490002 5.2805691e-39
0.6836943 0.20435144 2.6490002 5.2805691e-39
0.31306478 -0.4882991 2.6900003 5.2805691e-39
0.3404184 -0.4918364 2.6937692 5.2805691e-39
0.37660003 -0.49034849 2.6899996 5.2805691e-39
0.41875499 -0.48885798 2.6899996 5.2805691e-39
0.46165529 -0.48522478 2.6900003 5.2805691e-39
0.4998917 -0.48804289 2.6899998 5.2805691e-39
0.53851241 -0.4865911 2.6900001 5.2805691e-39
0.58348995 -0.48981345 2.6927385 5.2805691e-39
0.61563182 -0.4890483 2.6942003 5.2805691e-39
0.66277736 -0.48918959 2.6943235 5.2805691e-39
0.70016241 -0.49233091 2.6925008 5.2805691e-39
0.74172139 -0.49258545 2.6965625 5.2805691e-39
0.77807534 -0.49300054 2.6986737 5.2805691e-39
0.81939942 -0.4882018 2.6936207 5.2805691e-39
0.86094236 -0.49330902 2.6900005 5.2805691e-39
0.88385719 -0.49188572 2.6900001 5.2805691e-39
0.31156707 -0.46882862 2.6900003 5.2805691e-39
0.33973292 -0.46138838 2.6938188 5.2805691e-39
0.37941572 -0.46193892 2.7059999 5.2805691e-39
0.41792679 -0.46885175 2.7071421 5.2805691e-39
0.45819712 -0.46930769 2.6997676 5.2805691e-39
0.50010735 -0.47515932 2.7051194 5.2805691e-39
0.54016274 -0.47182319 2.7055995 5.2805691e-39
0.57621139 -0.47288489 2.707612 5.2805691e-39
0.61960304 -0.47105333 2.70909 5.2805691e-39
0.66145074 -0.47031969 2.7096868 5.2805691e-39
0.70221722 -0.47310489 2.7077687 5.2805691e-39
0.73383784 -0.47095463 2.7101917 5.2805691e-39
0.7849946 -0.46942866 2.7109995 5.2805691e-39
0.8229512 -0.46233884 2.7096221 5.2805691e-39
0.8583526 -0.4627744 2.6984005 5.2805691e-39
0.88385719 -0.47395238 2.6900001 5.2805691e-39
0.34800583 -0.42139196 2.6900001 5.2805691e-39
0.37813023 -0.41926277 2.7007062 5.2805691e-39
0.40374538 -0.41536394 2.7109997 5.2805691e-39
0.82644999 -0.41897586 2.708765 5.2805691e-39
0.85424817 -0.42289048 2.6932676 5.2805691e-39
0.35098094 -0.39709523 2.6900001 5.2805691e-39
0.38585591 -0.37825277 2.6900001 5.2805691e-39
0.4146505 -0.37665796 2.7098324 5.2805691e-39
0.44150573 -0.3640486 2.7110002 5.2805691e-39
0.79485786 -0.37068781 2.7110002 5.2805691e-39
0.82258636 -0.37785554 2.6984005 5.2805691e-39
0.84579456 -0.38391975 2.6900001 5.2805691e-39
0.38940951 -0.3484191 2.6899998 5.2805691e-39
0.42116898 -0.33884653 2.6965175 5.2805691e-39
0.45394582 -0.33353519 2.7109995 5.2805691e-39
0.48281622 -0.32273811 2.7110002 5.2805691e-39
0.79264486 -0.33134449 2.7110002 5.2805691e-39
0.81962454 -0.339856 2.6999002 5.2805691e-39
0.84286666 -0.34585711 2.6900001 5.2805691e-39
0.42485911 -0.30010027 2.6900008 5.2805691e-39
0.46181059 -0.29940775 2.707181 5.2805691e-39
0.49164468 -0.29708564 2.7109993 5.2805691e-39
0.7834844 -0.29965305 2.708374 5.2805691e-39
0.81140482 -0.3028909 2.6983998 5.2805691e-39
0.43235907 -0.26960284 2.6899998 5.2805691e-39
0.4620302 -0.26133972 2.7042973 5.2805691e-39
0.49476674 -0.25752655 2.7109993 5.2805691e-39
0.75649822 -0.24528097 2.7110002 5.2805691e-39
0.77891934 -0.25996608 2.6981006 5.2805691e-39
0.80563372 -0.26729208 2.6900001 5.2805691e-39
0.47127941 -0.22164625 2.6916153 5.2805691e-39
0.50048864 -0.21846722 2.7025106 5.2805691e-39
0.53542256 -0.20848882 2.7109997 5.2805691e-39
0.75254935 -0.21824689 2.7109997 5.2805691e-39
0.77514547 -0.21993858 2.6995451 5.2805691e-39
0.50116962 -0.18053611 2.6920598 5.2805691e-39
0.538441 -0.18035619 2.7049997 5.2805691e-39
0.5617488 -0.17077456 2.7110002 5.2805691e-39
0.74726939 -0.18069263 2.7078714 5.2805691e-39
0.76904637 -0.18194051 2.690618 5.2805691e-39
0.51013929 -0.14570835 2.6899998 5.2805691e-39
0.53746724 -0.13865827 2.6941257 5.2805691e-39
0.57258719 -0.13710578 2.7109993 5.2805691e-39
0.60158384 -0.13167715 2.7110002 5.2805691e-39
0.71518767 -0.12393143 2.7110002 5.2805691e-39
0.74141973 -0.137207 2.7032096 5.2805691e-39
0.76387453 -0.1456016 2.6900003 5.2805691e-39
0.54523361 -0.10006498 2.6900005 5.2805691e-39
0.57556045 -0.097727507 2.709384 5.2805691e-39
0.60416573 -0.080039054 2.7110002 5.2805691e-39
0.71297467 -0.09626817 2.711 5.2805691e-39
0.73511469 -0.099097811 2.6980503 5.2805691e-39
0.5486418 -0.063850559 2.6899998 5.2805691e-39
0.57884151 -0.058931034 2.693819 5.2805691e-39
0.61777669 -0.057527978 2.7083745 5.2805691e-39
0.64289433 -0.043892384 2.7110002 5.2805691e-39
0.71372455 -0.056817044 2.70275 5.2805691e-39
0.73380119 -0.06756372 2.6918533 5.2805691e-39
0.55593336 -0.038428575 2.6900001 5.2805691e-39
0.58307868 -0.023602223 2.690001 5.2805691e-39
0.62001967 -0.020584524 2.7012503 5.2805691e-39
0.64988071 -0.0150358 2.7109997 5.2805691e-39
0.70646811 -0.017206328 2.70344 5.2805691e-39
0.72591269 -0.030211652 2.6948464 5.2805691e-39
0.59133422 0.0081515154 2.6900005 5.2805691e-39
0.62179357 0.019141136 2.6956544 5.2805691e-39
0.66050631 0.021654904 2.7067218 5.2805691e-39
0.69607383 0.019985572 2.7013078 5.2805691e-39
0.6320585 0.056239903 2.6899996 5.2805691e-39
0.66034764 0.061453514 2.693001 5.2805691e-39
0.69314528 0.05976947 2.6963491 5.2805691e-39
0.67112428 0.098206334 2.6899998 5.2805691e-39
0.68889624 0.10042667 2.6899996 5.2805691e-39
0.67250001 0.12425239 2.6900003 5.2805691e-39
0.68768847 0.12480137 2.6900003 5.2805691e-39
0.76654142 -0.48413143 2.733 5.2805691e-39
0.42439932 -0.45105416 2.7338409 5.2805691e-39
0.462143 -0.45049021 2.7424843 5.2805691e-39
0.50055599 -0.46122 2.7416477 5.2805691e-39
0.53873152 -0.45562178 2.7446058 5.2805691e-39
0.58101374 -0.45764986 2.7416902 5.2805691e-39
0.61632329 -0.4536933 2.7440839 5.2805691e-39
0.66221309 -0.45729387 2.7438629 5.2805691e-39
0.70178849 -0.45733431 2.7459705 5.2805691e-39
0.73918176 -0.45705 2.7445865 5.2805691e-39
0.78072661 -0.45947641 2.7446055 5.2805691e-39
0.80970728 -0.44907525 2.7378464 5.2805691e-39
0.42507991 -0.42296657 2.7398257 5.2805691e-39
0.46098971 -0.41667262 2.7540002 5.2805691e-39
0.48785144 -0.40129718 2.7540002 5.2805691e-39
0.61637145 -0.43801716 2.7540002 5.2805691e-39
0.79865998 -0.42752573 2.7540002 5.2805691e-39
0.81026673 -0.4201383 2.7431827 5.2805691e-39
0.43402639 -0.38912719 2.7330005 5.2805691e-39
0.46378314 -0.38063669 2.7491872 5.2805691e-39
0.48960003 -0.38089719 2.7540007 5.2805691e-39
0.78983635 -0.37757662 2.7456005 5.2805691e-39
0.81052983 -0.39199027 2.733 5.2805691e-39
0.46819592 -0.34752053 2.7400007 5.2805691e-39
0.4970814 -0.33916393 2.7466214 5.2805691e-39
0.52194858 -0.32785717 2.7540002 5.2805691e-39
0.78505021 -0.3396073 2.7429473 5.2805691e-39
0.80428284 -0.35398859 2.733 5.2805691e-39
0.51008087 -0.29980513 2.734313 5.2805691e-39
0.5303418 -0.29393491 2.7540004 5.2805691e-39
