# .PCD v0.7 - Point Cloud Data file format
VERSION 0.7
FIELDS x y z rgb
SIZE 4 4 4 4
TYPE F F F F
COUNT 1 1 1 1
WIDTH 1021
HEIGHT 1
VIEWPOINT 0 0 0 1 0 0 0
POINTS 1021
DATA ascii
-0.24156478 -0.59393907 2.3270001 7.2574116e-39
-0.2151873 -0.58140016 2.328511 7.2574116e-39
-0.18166648 -0.57931721 2.3480415 7.2574116e-39
-0.15951334 -0.5684067 2.3590002 7.2574116e-39
0.41114005 -0.59986001 2.3590002 7.2574116e-39
0.51538539 -0.59806269 2.3590002 7.2574116e-39
0.54009873 -0.59693927 2.3590009 7.2574116e-39
0.57889116 -0.59936076 2.3590004 7.2574116e-39
0.62082893 -0.59936076 2.3590004 7.2574116e-39
0.66138417 -0.59847748 2.3590007 7.2574116e-39
0.69983673 -0.5987367 2.3590007 7.2574116e-39
0.73598164 -0.59642398 2.3590007 7.2574116e-39
0.77406311 -0.59709495 2.3590007 7.2574116e-39
0.8183493 -0.59653258 2.3574007 7.2574116e-39
0.86262679 -0.59411252 2.3540776 7.2574116e-39
0.89313352 -0.59589106 2.3546367 7.2574116e-39
0.94766927 -0.59095138 2.3472109 7.2574116e-39
0.97984767 -0.58651608 2.3469119 7.2574116e-39
1.017517 -0.57893544 2.3398001 7.2574116e-39
-0.20368809 -0.54135495 2.3269999 7.2574116e-39
-0.17983933 -0.5390147 2.3341115 7.2574116e-39
-0.15032746 -0.53528494 2.3560374 7.2574116e-39
0.9986434 -0.5395745 2.3590007 7.2574116e-39
1.0185742 -0.53936803 2.3364015 7.2574116e-39
-0.20167334 -0.51415622 2.3270001 7.2574116e-39
-0.17527488 -0.50823706 2.3279417 7.2574116e-39
-0.14326303 -0.50080448 2.3444128 7.2574116e-39
-0.11458001 -0.48528004 2.3590002 7.2574116e-39
0.99373585 -0.49746913 2.3422899 7.2574116e-39
1.0142128 -0.50367802 2.3308532 7.2574116e-39
-0.1373983 -0.46138209 2.3321023 7.2574116e-39
-0.10163252 -0.45982006 2.351229 7.2574116e-39
-0.072642229 -0.44409114 2.3590002 7.2574116e-39
0.95483339 -0.45158002 2.3590002 7.2574116e-39
0.98541719 -0.45879287 2.3432164 7.2574116e-39
1.007561 -0.46842217 2.3269999 7.2574116e-39
-0.13251688 -0.42144793 2.3292871 7.2574116e-39
-0.10069498 -0.42022687 2.3382828 7.2574116e-39
-0.06606517 -0.41743287 2.3561566 7.2574116e-39
-0.032416195 -0.40407911 2.3590002 7.2574116e-39
0.97952139 -0.42160976 2.3436239 7.2574116e-39
-0.12568967 -0.39353216 2.3270001 7.2574116e-39
-0.096234851 -0.38223442 2.3330963 7.2574116e-39
-0.060290907 -0.38010979 2.338078 7.2574116e-39
-0.032184135 -0.37727746 2.3507245 7.2574116e-39
0.94702286 -0.37614569 2.3523798 7.2574116e-39
0.96935034 -0.38157272 2.336797 7.2574116e-39
-0.089534096 -0.34513479 2.3270004 7.2574116e-39
-0.058941171 -0.34217307 2.3289664 7.2574116e-39
-0.023084039 -0.33814994 2.3529315 7.2574116e-39
0.0031453338 -0.32936138 2.3590002 7.2574116e-39
0.94405115 -0.33708385 2.344672 7.2574116e-39
0.96790904 -0.34412953 2.3343518 7.2574116e-39
-0.053538512 -0.30338484 2.3269999 7.2574116e-39
-0.020178959 -0.29941466 2.3304 7.2574116e-39
0.013747025 -0.29223534 2.3535004 7.2574116e-39
0.9170894 -0.28442806 2.3590002 7.2574116e-39
0.93567437 -0.29980093 2.3378055 7.2574116e-39
0.96847528 -0.31691524 2.3270001 7.2574116e-39
-0.010637715 -0.2659429 2.3269999 7.2574116e-39
0.01950915 -0.25919446 2.3393736 7.2574116e-39
0.049398966 -0.24963753 2.3575463 7.2574116e-39
0.91236866 -0.25978601 2.3514709 7.2574116e-39
0.93476039 -0.25907183 2.336916 7.2574116e-39
0.023905426 -0.22225602 2.3307977 7.2574116e-39
0.051626012 -0.218106 2.3507955 7.2574116e-39
0.90596008 -0.23653144 2.3430002 7.2574116e-39
0.92827433 -0.23653144 2.3430002 7.2574116e-39
0.036197778 -0.19133112 2.3270001 7.2574116e-39
0.060586721 -0.18092895 2.3391519 7.2574116e-39
0.087671451 -0.1752272 2.3544288 7.2574116e-39
0.06889721 -0.14808717 2.3281429 7.2574116e-39
0.096077017 -0.13952813 2.3453231 7.2574116e-39
0.13030668 -0.12356667 2.3590002 7.2574116e-39
0.077566676 -0.11302572 2.3270001 7.2574116e-39
0.10087935 -0.10022873 2.3317792 7.2574116e-39
0.13173836 -0.098561876 2.3547902 7.2574116e-39
0.11056211 -0.066465646 2.3315713 7.2574116e-39
0.14097808 -0.060446873 2.3493214 7.2574116e-39
0.1640067 -0.056166671 2.3590002 7.2574116e-39
0.11745811 -0.037675239 2.3270001 7.2574116e-39
0.14595847 -0.026978055 2.3278897 7.2574116e-39
0.17310855 -0.014616741 2.3505797 7.2574116e-39
0.15418355 0.0072817691 2.3270001 7.2574116e-39
0.18094483 0.019735873 2.3390524 7.2574116e-39
0.22069767 0.023834873 2.358078 7.2574116e-39
0.24039336 0.038193338 2.3590002 7.2574116e-39
0.18835242 0.056173764 2.3295953 7.2574116e-39
0.21889636 0.05971083 2.3382006 7.2574116e-39
0.24953496 0.063913792 2.3590009 7.2574116e-39
0.28083336 0.078633346 2.3590002 7.2574116e-39
0.19613285 0.086431436 2.3270001 7.2574116e-39
0.22421166 0.097042367 2.3307457 7.2574116e-39
0.25981116 0.10101874 2.3517892 7.2574116e-39
0.28308004 0.10952501 2.3590002 7.2574116e-39
0.23491621 0.12410668 2.3270001 7.2574116e-39
0.26250079 0.13879956 2.33462 7.2574116e-39
0.29188454 0.14433318 2.3590009 7.2574116e-39
0.27053761 0.17091274 2.3335454 7.2574116e-39
0.30013904 0.18208215 2.3546569 7.2574116e-39
0.32637942 0.18810728 2.3590009 7.2574116e-39
0.30287823 0.21888433 2.3362212 7.2574116e-39
0.33550081 0.22216086 2.3547904 7.2574116e-39
0.36321115 0.23290448 2.3590002 7.2574116e-39
0.30971262 0.2432269 2.3269999 7.2574116e-39
0.34335884 0.25803614 2.34425 7.2574116e-39
0.37075439 0.26317301 2.3585687 7.2574116e-39
0.35097679 0.28549469 2.3382003 7.2574116e-39
0.37770334 0.29218894 2.3553433 7.2574116e-39
-0.1781192 -0.6423282 2.3760002 7.2574116e-39
-0.15161145 -0.64038861 2.3760002 7.2574116e-39
-0.09709461 -0.64108193 2.3800001 7.2574116e-39
-0.079466671 -0.64026666 2.3840003 7.2574116e-39
-0.17360225 -0.62337863 2.3776662 7.2574116e-39
-0.14240392 -0.62428218 2.3875546 7.2574116e-39
-0.10100926 -0.6315428 2.3887992 7.2574116e-39
-0.05892051 -0.61557418 2.3847837 7.2574116e-39
-0.021787146 -0.61596233 2.3847501 7.2574116e-39
0.021474576 -0.61587447 2.3836305 7.2574116e-39
0.061414689 -0.61493987 2.3827095 7.2574116e-39
0.10138715 -0.61571407 2.3807504 7.2574116e-39
0.14125299 -0.6115222 2.3781815 7.2574116e-39
0.17854758 -0.61618513 2.3810666 7.2574116e-39
0.21579616 -0.61208177 2.3814626 7.2574116e-39
0.25776532 -0.60722345 2.3790765 7.2574116e-39
0.29972571 -0.60500574 2.3759999 7.2574116e-39
0.34367144 -0.60616291 2.3759999 7.2574116e-39
0.38016003 -0.60644567 2.3759999 7.2574116e-39
0.42496461 -0.60750175 2.3760002 7.2574116e-39
0.45996347 -0.60599315 2.3760002 7.2574116e-39
0.49735421 -0.60746622 2.3776839 7.2574116e-39
0.59965718 -0.6041829 2.3760002 7.2574116e-39
0.74900573 -0.6041829 2.3760002 7.2574116e-39
0.78068578 -0.6041829 2.3760002 7.2574116e-39
0.80331433 -0.6041829 2.3760002 7.2574116e-39
0.91645724 -0.60870862 2.3760002 7.2574116e-39
0.93093938 -0.6041829 2.3760002 7.2574116e-39
-0.1626343 -0.59102666 2.3800001 7.2574116e-39
-0.1402445 -0.57879841 2.3890455 7.2574116e-39
-0.1068535 -0.57158506 2.3919997 7.2574116e-39
-0.06118314 -0.58970135 2.3920002 7.2574116e-39
-0.031893335 -0.59913909 2.3920002 7.2574116e-39
0.021262225 -0.59800017 2.3920002 7.2574116e-39
0.055243816 -0.59856963 2.3920002 7.2574116e-39
0.10588191 -0.59925425 2.3884444 7.2574116e-39
0.13540447 -0.59884584 2.3893335 7.2574116e-39
0.16630097 -0.59913909 2.3920002 7.2574116e-39
0.2262949 -0.5978241 2.3904002 7.2574116e-39
0.26558667 -0.59594548 2.3853331 7.2574116e-39
0.29944107 -0.59351873 2.381052 7.2574116e-39
0.34137625 -0.5945338 2.3819423 7.2574116e-39
0.37976652 -0.59284532 2.3816214 7.2574116e-39
0.41886953 -0.59341538 2.3794591 7.2574116e-39
0.45939338 -0.59477764 2.3819995 7.2574116e-39
0.50014865 -0.59651506 2.3853328 7.2574116e-39
0.54107678 -0.58957392 2.3828568 7.2574116e-39
0.58117372 -0.59074485 2.3832722 7.2574116e-39
0.61855239 -0.59462094 2.3868229 7.2574116e-39
0.65712452 -0.59622431 2.3826666 7.2574116e-39
0.70192379 -0.59441358 2.3847265 7.2574116e-39
0.74046344 -0.5900079 2.3849404 7.2574116e-39
0.78118569 -0.59014499 2.3824759 7.2574116e-39
0.82307178 -0.58755255 2.3841853 7.2574116e-39
0.85757935 -0.58299923 2.3844521 7.2574116e-39
0.9000594 -0.58392429 2.3876605 7.2574116e-39
0.93774796 -0.58231372 2.3853123 7.2574116e-39
0.98211527 -0.57445788 2.3848882 7.2574116e-39
1.0044526 -0.57499892 2.3808 7.2574116e-39
-0.13327524 -0.54434264 2.3823328 7.2574116e-39
-0.10174323 -0.53857678 2.3919988 7.2574116e-39
-0.067920998 -0.53687114 2.3919995 7.2574116e-39
0.98926234 -0.5388031 2.3871422 7.2574116e-39
1.0039324 -0.54465276 2.3795559 7.2574116e-39
-0.12469225 -0.50817418 2.3805718 7.2574116e-39
-0.10004344 -0.50145435 2.3823998 7.2574116e-39
-0.061929509 -0.4945434 2.3916969 7.2574116e-39
-0.036449526 -0.48067811 2.3920002 7.2574116e-39
0.9560408 -0.4897905 2.3920002 7.2574116e-39
0.97853577 -0.49842787 2.3844573 7.2574116e-39
-0.083725713 -0.4714286 2.3760002 7.2574116e-39
-0.060582638 -0.45952481 2.3795302 7.2574116e-39
-0.029130355 -0.45778304 2.3907683 7.2574116e-39
0.9545033 -0.45882174 2.386838 7.2574116e-39
0.9734751 -0.46495897 2.3801138 7.2574116e-39
-0.051492058 -0.42742544 2.3766665 7.2574116e-39
-0.020408478 -0.42092294 2.382709 7.2574116e-39
0.0068342867 -0.40727282 2.3920002 7.2574116e-39
0.9469521 -0.41745114 2.3869328 7.2574116e-39
0.96705401 -0.42084888 2.3771849 7.2574116e-39
-0.013286955 -0.38204259 2.3791301 7.2574116e-39
0.018185165 -0.37897679 2.391212 7.2574116e-39
0.04556191 -0.36449528 2.3920002 7.2574116e-39
0.91807258 -0.37816384 2.3920002 7.2574116e-39
0.932926 -0.38198188 2.3862391 7.2574116e-39
-0.0096171442 -0.35300574 2.3759999 7.2574116e-39
0.021581011 -0.34098858 2.3834805 7.2574116e-39
0.049725324 -0.33456582 2.3919992 7.2574116e-39
0.91402256 -0.32981762 2.3920002 7.2574116e-39
0.93244696 -0.34307879 2.3885207 7.2574116e-39
0.96171433 -0.35979432 2.3760002 7.2574116e-39
0.025703743 -0.30583391 2.3759997 7.2574116e-39
0.057205141 -0.29772779 2.385103 7.2574116e-39
0.084289528 -0.28704002 2.3920002 7.2574116e-39
0.9099738 -0.2968888 2.3895991 7.2574116e-39
0.92579162 -0.3068071 2.3828573 7.2574116e-39
0.038468573 -0.27606857 2.3760002 7.2574116e-39
0.065088704 -0.26285404 2.3831103 7.2574116e-39
0.093792439 -0.25599283 2.3919992 7.2574116e-39
0.87242758 -0.25262988 2.3848889 7.2574116e-39
0.90030801 -0.2625502 2.3843801 7.2574116e-39
0.92550862 -0.2489143 2.3760002 7.2574116e-39
0.071673304 -0.22338562 2.3764846 7.2574116e-39
0.098747008 -0.2198243 2.3890901 7.2574116e-39
0.12073907 -0.20730668 2.3920002 7.2574116e-39
0.10621001 -0.18166907 2.3811057 7.2574116e-39
0.1349438 -0.17601825 2.3907914 7.2574116e-39
0.16174477 -0.16174477 2.3920002 7.2574116e-39
0.11682001 -0.1439743 2.3759999 7.2574116e-39
0.14103927 -0.14148471 2.3781335 7.2574116e-39
0.17007159 -0.1339363 2.3919992 7.2574116e-39
0.14854993 -0.10449074 2.3759997 7.2574116e-39
0.17542163 -0.098444417 2.383322 7.2574116e-39
0.21300191 -0.085428573 2.3920002 7.2574116e-39
0.18312243 -0.06173439 2.3842425 7.2574116e-39
0.21475284 -0.059350379 2.3910193 7.2574116e-39
0.18781713 -0.026621852 2.3759997 7.2574116e-39
0.21888138 -0.019469276 2.3808434 7.2574116e-39
0.24828629 -0.009432382 2.3885717 7.2574116e-39
0.21928166 0.010452248 2.3759999 7.2574116e-39
0.25723082 0.021755086 2.3845158 7.2574116e-39
0.28020579 0.03113397 2.3920002 7.2574116e-39
0.26567975 0.059129842 2.3766663 7.2574116e-39
0.29417223 0.064788789 2.3855231 7.2574116e-39
0.2647543 0.083725713 2.3760002 7.2574116e-39
0.29711878 0.10064097 2.3813329 7.2574116e-39
0.30979937 0.13689104 2.378222 7.2574116e-39
0.32973364 0.14079531 2.387692 7.2574116e-39
0.31680003 0.16405715 2.3760002 7.2574116e-39
0.34406558 0.177637 2.3821087 7.2574116e-39
0.36974478 0.18710098 2.3919997 7.2574116e-39
0.35503033 0.21163669 2.3759999 7.2574116e-39
0.37826341 0.22285697 2.3835096 7.2574116e-39
0.40474162 0.23616254 2.3920002 7.2574116e-39
0.38764128 0.25537723 2.3778281 7.2574116e-39
0.40944365 0.26407579 2.38447 7.2574116e-39
0.39600003 0.29190859 2.3760002 7.2574116e-39
0.41569248 0.29119176 2.3849597 7.2574116e-39
0.44650668 0.30526477 2.3920002 7.2574116e-39
0.48751241 0.30982095 2.3920002 7.2574116e-39
-0.13215086 -0.61486876 2.4089999 7.2574116e-39
-0.098574914 -0.61524707 2.4115174 7.2574116e-39
-0.075889528 -0.6116994 2.4146669 7.2574116e-39
-0.013025238 -0.60333669 2.4118338 7.2574116e-39
0.075711429 -0.60339713 2.4090002 7.2574116e-39
0.08288572 -0.60321569 2.4175 7.2574116e-39
0.18991545 -0.60556424 2.415072 7.2574116e-39
0.20545524 -0.60455734 2.416286 7.2574116e-39
-0.12848002 -0.59192574 2.4090002 7.2574116e-39
-0.09471634 -0.58440512 2.4102814 7.2574116e-39
-0.060349733 -0.58132952 2.4157996 7.2574116e-39
-0.020128259 -0.59353781 2.4209461 7.2574116e-39
0.019717174 -0.59355342 2.4180307 7.2574116e-39
0.059447087 -0.59580266 2.4191999 7.2574116e-39
0.10317989 -0.59613824 2.4205596 7.2574116e-39
0.13986529 -0.59506148 2.4180665 7.2574116e-39
0.17358728 -0.59497839 2.419389 7.2574116e-39
0.22521144 -0.58919835 2.4198611 7.2574116e-39
0.25969023 -0.58579254 2.420964 7.2574116e-39
0.29925096 -0.58460057 2.4188712 7.2574116e-39
0.34014156 -0.58576626 2.4201713 7.2574116e-39
0.38013899 -0.5844149 2.4208491 7.2574116e-39
0.42061543 -0.58250797 2.4203339 7.2574116e-39
0.45684698 -0.58389372 2.4224424 7.2574116e-39
0.50315857 -0.58851647 2.4200866 7.2574116e-39
0.53952008 -0.57342583 2.4162037 7.2574116e-39
0.57913202 -0.57319665 2.4171953 7.2574116e-39
0.62052524 -0.57524627 2.4147668 7.2574116e-39
0.65808272 -0.58248281 2.4185081 7.2574116e-39
0.69979841 -0.57700717 2.4179461 7.2574116e-39
0.74016535 -0.57400721 2.4158585 7.2574116e-39
0.77762789 -0.57435012 2.4196258 7.2574116e-39
0.81805629 -0.5734424 2.4152119 7.2574116e-39
0.85991299 -0.56802088 2.4089997 7.2574116e-39
0.89903212 -0.56754774 2.4113448 7.2574116e-39
0.93696648 -0.56589073 2.4090002 7.2574116e-39
0.97131723 -0.56502002 2.4090004 7.2574116e-39
-0.083219998 -0.54750007 2.4090004 7.2574116e-39
-0.05661343 -0.53974193 2.4154763 7.2574116e-39
-0.028319245 -0.53012002 2.4251053 7.2574116e-39
0.53834099 -0.5568248 2.4260001 7.2574116e-39
0.6261391 -0.5568248 2.4260001 7.2574116e-39
0.70700574 -0.55682474 2.4260001 7.2574116e-39
0.76707816 -0.55682474 2.4260001 7.2574116e-39
0.83159578 -0.55199099 2.4180002 7.2574116e-39
0.85556155 -0.55486244 2.4175 7.2574116e-39
0.90175849 -0.55441219 2.418273 7.2574116e-39
0.94345248 -0.54339236 2.4166362 7.2574116e-39
0.97172558 -0.54087794 2.4089987 7.2574116e-39
-0.080300003 -0.51392007 2.4090002 7.2574116e-39
-0.057866991 -0.50984132 2.4090002 7.2574116e-39
-0.021332484 -0.49999872 2.4176302 7.2574116e-39
0.94624537 -0.49967796 2.4150205 7.2574116e-39
0.96422571 -0.50536865 2.4090004 7.2574116e-39
-0.010330863 -0.46421865 2.4137812 7.2574116e-39
0.0029706126 -0.45318344 2.4260004 7.2574116e-39
0.9172591 -0.44130099 2.4260001 7.2574116e-39
0.93970174 -0.46009618 2.4149354 7.2574116e-39
-0.0038238098 -0.43285522 2.4090004 7.2574116e-39
0.020160971 -0.42123863 2.4202127 7.2574116e-39
0.91335541 -0.41745186 2.422909 7.2574116e-39
0.93077058 -0.4244591 2.4131551 7.2574116e-39
0.03495248 -0.39224225 2.4141004 7.2574116e-39
0.054471672 -0.37608594 2.4206872 7.2574116e-39
0.91126502 -0.37914202 2.4188421 7.2574116e-39
0.92000854 -0.37855715 2.4090002 7.2574116e-39
0.065276623 -0.34158066 2.4148619 7.2574116e-39
0.090108581 -0.32346669 2.4260004 7.2574116e-39
0.90028763 -0.34005073 2.414046 7.2574116e-39
0.92530304 -0.34220153 2.4090004 7.2574116e-39
0.07433486 -0.30697545 2.4090002 7.2574116e-39
0.094554409 -0.29770297 2.4160833 7.2574116e-39
0.87871146 -0.28219715 2.4090002 7.2574116e-39
0.89414924 -0.29947191 2.414036 7.2574116e-39
0.10909262 -0.26443568 2.4129667 7.2574116e-39
0.12399556 -0.25184193 2.4260004 7.2574116e-39
0.87443179 -0.25477064 2.4158003 7.2574116e-39
0.88841993 -0.27300364 2.4146669 7.2574116e-39
0.11700858 -0.22828145 2.4090002 7.2574116e-39
0.13886277 -0.21741533 2.4183021 7.2574116e-39
0.16536409 -0.20827296 2.4260004 7.2574116e-39
0.87336004 -0.23797905 2.4260001 7.2574116e-39
0.14916879 -0.18993555 2.4125419 7.2574116e-39
0.16843271 -0.1745875 2.4226005 7.2574116e-39
0.18514302 -0.14408672 2.415103 7.2574116e-39
0.21594065 -0.13436311 2.4259996 7.2574116e-39
0.19371413 -0.10873111 2.4118338 7.2574116e-39
0.22126389 -0.099758908 2.4183495 7.2574116e-39
0.24835604 -0.094877258 2.4253702 7.2574116e-39
0.23044828 -0.062710479 2.4090002 7.2574116e-39
0.25741047 -0.057010286 2.4229093 7.2574116e-39
0.28649902 -0.043899048 2.4260001 7.2574116e-39
0.23631144 -0.036708571 2.4090002 7.2574116e-39
0.26418173 -0.023984801 2.4187531 7.2574116e-39
0.28778261 -0.014119579 2.4260004 7.2574116e-39
0.2750594 0.0094320634 2.4090002 7.2574116e-39
0.30041423 0.020264952 2.4205792 7.2574116e-39
0.32516104 0.028803935 2.4260004 7.2574116e-39
0.30895174 0.054502223 2.4108889 7.2574116e-39
0.33243677 0.061023746 2.4260004 7.2574116e-39
0.31693923 0.096359998 2.4090002 7.2574116e-39
0.34079286 0.09999501 2.4242992 7.2574116e-39
0.37361759 0.11212605 2.4260001 7.2574116e-39
0.3466042 0.13775855 2.413975 7.2574116e-39
0.37823689 0.14212298 2.4228423 7.2574116e-39
0.4051035 0.14941081 2.4260004 7.2574116e-39
0.38546869 0.17710225 2.41502 7.2574116e-39
0.40998116 0.18637842 2.4259999 7.2574116e-39
0.3934949 0.21213159 2.4124005 7.2574116e-39
0.41964659 0.22029769 2.4227097 7.2574116e-39
0.44530582 0.22873713 2.4260004 7.2574116e-39
0.69776386 0.22642666 2.4260001 7.2574116e-39
0.42847133 0.25576085 2.4166772 7.2574116e-39
0.4567014 0.26272973 2.4254766 7.2574116e-39
0.49279156 0.27890748 2.4260004 7.2574116e-39
0.43362004 0.29031542 2.4090004 7.2574116e-39
0.46289882 0.29475522 2.4176738 7.2574116e-39
0.49887323 0.29981181 2.4231672 7.2574116e-39
0.53179461 0.30536795 2.4260006 7.2574116e-39
0.50830472 0.3211562 2.4260001 7.2574116e-39
0.53834099 0.32670137 2.4260004 7.2574116e-39
0.58917141 0.32577714 2.4260001 7.2574116e-39
0.19078667 -0.60260665 2.4430001 7.2574116e-39
0.20242 -0.60260665 2.4430001 7.2574116e-39
-0.048013948 -0.58357036 2.4430003 7.2574116e-39
-0.021321941 -0.57466364 2.4435568 7.2574116e-39
0.021614052 -0.57719582 2.4534762 7.2574116e-39
0.060442179 -0.5782156 2.4558334 7.2574116e-39
0.099647775 -0.58071506 2.4583471 7.2574116e-39
0.13988885 -0.57734513 2.4553838 7.2574116e-39
0.18020619 -0.57783616 2.454088 7.2574116e-39
0.21799941 -0.57540298 2.4557233 7.2574116e-39
0.26078981 -0.56898284 2.4545643 7.2574116e-39
0.30194157 -0.57060987 2.4546328 7.2574116e-39
0.34071502 -0.57196921 2.4581659 7.2574116e-39
0.37900212 -0.56978011 2.4441562 7.2574116e-39
0.42034349 -0.56764853 2.4444451 7.2574116e-39
0.46382782 -0.56937677 2.4487581 7.2574116e-39
0.49772888 -0.57168496 2.4498112 7.2574116e-39
0.53206146 -0.56469601 2.4467781 7.2574116e-39
0.58283007 -0.56189001 2.4430003 7.2574116e-39
0.6136055 -0.56326491 2.4430003 7.2574116e-39
0.66410851 -0.56781685 2.4474351 7.2574116e-39
0.69139385 -0.56377739 2.4469235 7.2574116e-39
0.74132717 -0.56204754 2.4447002 7.2574116e-39
0.78629863 -0.56389046 2.444308 7.2574116e-39
0.81308055 -0.56394827 2.4430006 7.2574116e-39
-0.044206668 -0.5467667 2.4430001 7.2574116e-39
-0.016980063 -0.54427481 2.4433622 7.2574116e-39
0.018802356 -0.54142022 2.4632137 7.2574116e-39
0.046505887 -0.53433186 2.4780004 7.2574116e-39
0.14105372 -0.55785668 2.4726002 7.2574116e-39
0.16284001 -0.55932003 2.4780002 7.2574116e-39
0.23010001 -0.55932003 2.4780002 7.2574116e-39
0.26432002 -0.55932003 2.4780002 7.2574116e-39
0.29950234 -0.55938232 2.4762006 7.2574116e-39
0.32332003 -0.55932003 2.4780002 7.2574116e-39
0.38351488 -0.55447125 2.4696245 7.2574116e-39
0.41772106 -0.55430835 2.470588 7.2574116e-39
0.45736679 -0.5575605 2.4730914 7.2574116e-39
0.50277883 -0.55958694 2.4702859 7.2574116e-39
0.54491419 -0.54968745 2.4669549 7.2574116e-39
0.58115518 -0.55179363 2.4671209 7.2574116e-39
0.62038726 -0.54744619 2.4652336 7.2574116e-39
0.65989739 -0.55081689 2.4683897 7.2574116e-39
0.69978023 -0.55172855 2.4666381 7.2574116e-39
0.7428177 -0.55025804 2.4728768 7.2574116e-39
0.77709699 -0.54757029 2.4698515 7.2574116e-39
0.82299995 -0.55110097 2.4661551 7.2574116e-39
0.86088353 -0.53744203 2.4632709 7.2574116e-39
0.90118462 -0.53917319 2.4669983 7.2574116e-39
0.93179506 -0.53311616 2.453234 7.2574116e-39
-0.0060493336 -0.51698536 2.4430001 7.2574116e-39
0.019668853 -0.49905777 2.4532237 7.2574116e-39
0.059754834 -0.49860227 2.4703274 7.2574116e-39
0.089478649 -0.49318582 2.4754288 7.2574116e-39
0.86297339 -0.51683998 2.4780004 7.2574116e-39
0.90104789 -0.50100982 2.4779983 7.2574116e-39
0.93063098 -0.50020319 2.4560604 7.2574116e-39
0.022519944 -0.46131805 2.4435222 7.2574116e-39
0.061138347 -0.45894456 2.4525974 7.2574116e-39
0.093375519 -0.45830449 2.4655993 7.2574116e-39
0.9037444 -0.46014893 2.4699233 7.2574116e-39
0.92639095 -0.46430025 2.4515359 7.2574116e-39
0.03761445 -0.42771894 2.4430003 7.2574116e-39
0.06009496 -0.42049265 2.4473131 7.2574116e-39
0.09786924 -0.4190366 2.4638491 7.2574116e-39
0.12642857 -0.40558293 2.4780004 7.2574116e-39
0.89939892 -0.41988418 2.4583504 7.2574116e-39
0.07004068 -0.3842209 2.4430006 7.2574116e-39
0.10012056 -0.37914023 2.4569452 7.2574116e-39
0.13697247 -0.37883595 2.4699171 7.2574116e-39
0.86868179 -0.37491307 2.4743626 7.2574116e-39
0.89630115 -0.38264981 2.4608707 7.2574116e-39
0.075849332 -0.35039601 2.4430001 7.2574116e-39
0.10208125 -0.3423762 2.4486666 7.2574116e-39
0.14053169 -0.33986363 2.4630425 7.2574116e-39
0.16567202 -0.32709605 2.4780004 7.2574116e-39
0.86486351 -0.33852598 2.4655552 7.2574116e-39
0.88743436 -0.33621904 2.4490323 7.2574116e-39
0.11354132 -0.30595666 2.4430006 7.2574116e-39
0.14025773 -0.29920509 2.4541876 7.2574116e-39
0.17569795 -0.29847977 2.4683454 7.2574116e-39
0.86263245 -0.29930988 2.4654629 7.2574116e-39
0.88635534 -0.30658627 2.4474738 7.2574116e-39
0.14201128 -0.26172885 2.4430003 7.2574116e-39
0.17765304 -0.26011199 2.4605079 7.2574116e-39
0.86247182 -0.26144055 2.4645584 7.2574116e-39
0.88104337 -0.25653666 2.4605002 7.2574116e-39
0.14836974 -0.23535131 2.4430006 7.2574116e-39
0.17972454 -0.22191523 2.4493384 7.2574116e-39
0.22034568 -0.21875538 2.4714818 7.2574116e-39
0.24693805 -0.21246684 2.4766159 7.2574116e-39
0.82246006 -0.20807335 2.4780006 7.2574116e-39
0.8511734 -0.23521337 2.4780004 7.2574116e-39
0.18625471 -0.18299477 2.4481003 7.2574116e-39
0.21958993 -0.17966902 2.4532962 7.2574116e-39
0.25688374 -0.17790085 2.4675 7.2574116e-39
0.28272805 -0.16661601 2.4780004 7.2574116e-39
0.8047601 -0.18441717 2.4780004 7.2574116e-39
0.22305652 -0.14202784 2.4430006 7.2574116e-39
0.26009211 -0.14006913 2.4575613 7.2574116e-39
0.28556001 -0.14238667 2.4780006 7.2574116e-39
0.218125 -0.113425 2.4430001 7.2574116e-39
0.26625419 -0.10163505 2.445488 7.2574116e-39
0.29814538 -0.096494026 2.4656029 7.2574116e-39
0.32520804 -0.086376004 2.4780004 7.2574116e-39
0.27150413 -0.07033693 2.4430006 7.2574116e-39
0.30058217 -0.061524995 2.4514403 7.2574116e-39
0.33499929 -0.054993402 2.4775376 7.2574116e-39
0.30355728 -0.020960027 2.4444404 7.2574116e-39
0.33880526 -0.019964268 2.4591608 7.2574116e-39
0.36563393 -0.013863929 2.4768753 7.2574116e-39
0.34347618 0.018839302 2.4468772 7.2574116e-39
0.37422004 0.022018002 2.4734993 7.2574116e-39
0.35074496 0.057972774 2.4430006 7.2574116e-39
0.37928778 0.059592519 2.4581761 7.2574116e-39
0.40979046 0.063720003 2.4780004 7.2574116e-39
0.71744001 0.077880003 2.4780002 7.2574116e-39
0.35598001 0.081433333 2.4430001 7.2574116e-39
0.38186941 0.096070156 2.4430003 7.2574116e-39
0.41445953 0.1015628 2.4584675 7.2574116e-39
0.44132 0.11564001 2.4780002 7.2574116e-39
0.71816635 0.093003184 2.4760005 7.2574116e-39
0.72413528 0.10567429 2.4660001 7.2574116e-39
0.39692935 0.12889734 2.4430001 7.2574116e-39
0.42085657 0.13906412 2.4511452 7.2574116e-39
0.45313209 0.14953686 2.4737146 7.2574116e-39
0.71118069 0.14881277 2.4683075 7.2574116e-39
0.42653507 0.17741947 2.4440413 7.2574116e-39
0.4603585 0.18035103 2.4616003 7.2574116e-39
0.48793188 0.18903308 2.4767146 7.2574116e-39
0.54138404 0.18738401 2.4780004 7.2574116e-39
0.71029019 0.17435069 2.4696174 7.2574116e-39
0.43242764 0.20441429 2.4430001 7.2574116e-39
0.46322769 0.21941276 2.4446044 7.2574116e-39
0.49472713 0.22128008 2.4618866 7.2574116e-39
0.54154652 0.23176363 2.4766672 7.2574116e-39
0.56673717 0.22959431 2.4780004 7.2574116e-39
0.69822228 0.21841848 2.4685099 7.2574116e-39
0.47231334 0.24695906 2.4430001 7.2574116e-39
0.49895146 0.25994104 2.446552 7.2574116e-39
0.54037726 0.26039377 2.4658668 7.2574116e-39
0.57514822 0.26719153 2.4767587 7.2574116e-39
0.60337341 0.27454668 2.4780002 7.2574116e-39
0.69963861 0.24381858 2.4735003 7.2574116e-39
0.51630849 0.29294848 2.4430003 7.2574116e-39
0.54174656 0.29799157 2.4472504 7.2574116e-39
0.58203131 0.29952762 2.4684546 7.2574116e-39
0.61061698 0.30200633 2.4747858 7.2574116e-39
0.65372008 0.29028001 2.4780002 7.2574116e-39
0.51884669 0.32340667 2.4430001 7.2574116e-39
0.54665244 0.32538545 2.4454288 7.2574116e-39
0.57928807 0.32754573 2.4515295 7.2574116e-39
0.61917144 0.32449239 2.4720006 7.2574116e-39
0.06598185 -0.56461048 2.5002351 7.2574116e-39
0.098582856 -0.5648495 2.5025454 7.2574116e-39
0.18303999 -0.56338286 2.4960001 7.2574116e-39
0.21015142 -0.56379569 2.5005 7.2574116e-39
0.25571269 -0.56542045 2.4960001 7.2574116e-39
0.3408823 -0.56528467 2.4960001 7.2574116e-39
0.36370286 -0.56338286 2.4960001 7.2574116e-39
0.035657145 -0.53485721 2.4960001 7.2574116e-39
0.062914811 -0.54264784 2.5010006 7.2574116e-39
0.097604327 -0.5416798 2.5109441 7.2574116e-39
0.13934919 -0.55024159 2.5059998 7.2574116e-39
0.18161336 -0.55418664 2.5067999 7.2574116e-39
0.22347401 -0.54994941 2.5086489 7.2574116e-39
0.25921515 -0.54445845 2.505132 7.2574116e-39
0.29875135 -0.54205209 2.5020015 7.2574116e-39
0.34059748 -0.54462272 2.5035241 7.2574116e-39
0.37877336 -0.54120851 2.5057206 7.2574116e-39
0.42324519 -0.53844154 2.5057201 7.2574116e-39
0.46013767 -0.54051954 2.5077007 7.2574116e-39
0.49985459 -0.5411616 2.503922 7.2574116e-39
0.53655463 -0.53900015 2.5027504 7.2574116e-39
0.58055884 -0.53377199 2.5004005 7.2574116e-39
0.61985123 -0.52934009 2.500737 7.2574116e-39
0.66215324 -0.53230232 2.5013998 7.2574116e-39
0.69870919 -0.53312182 2.5011435 7.2574116e-39
0.73730725 -0.53082687 2.4975324 7.2574116e-39
0.78105378 -0.52742463 2.4966662 7.2574116e-39
0.8198486 -0.53712845 2.5026128 7.2574116e-39
0.84714949 -0.52810955 2.5056925 7.2574116e-39
0.076068573 -0.51583999 2.4960001 7.2574116e-39
0.10609531 -0.50246531 2.5023246 7.2574116e-39
0.1319674 -0.49505392 2.5140002 7.2574116e-39
0.43815431 -0.51956004 2.5140002 7.2574116e-39
0.45092386 -0.51956004 2.5140004 7.2574116e-39
0.55102789 -0.51750779 2.5140004 7.2574116e-39
0.60336006 -0.51956004 2.5140002 7.2574116e-39
0.6625331 -0.5195601 2.5140004 7.2574116e-39
0.69314575 -0.51956004 2.5140002 7.2574116e-39
0.74227971 -0.51658136 2.5104003 7.2574116e-39
0.77957946 -0.51860231 2.5140002 7.2574116e-39
0.82124007 -0.51956004 2.5140002 7.2574116e-39
0.86522442 -0.51123828 2.5069566 7.2574116e-39
0.88521862 -0.49642098 2.5019996 7.2574116e-39
0.11248539 -0.46474123 2.5009999 7.2574116e-39
0.13708401 -0.45916629 2.5120006 7.2574116e-39
0.87166154 -0.45797107 2.5096362 7.2574116e-39
0.88667285 -0.46237653 2.4979281 7.2574116e-39
0.11410286 -0.43977144 2.4960001 7.2574116e-39
0.13905397 -0.42270607 2.5053465 7.2574116e-39
0.16440764 -0.41221619 2.5140002 7.2574116e-39
0.87282974 -0.42191797 2.5080001 7.2574116e-39
0.88537586 -0.42527413 2.4984541 7.2574116e-39
0.15624313 -0.38617769 2.4960003 7.2574116e-39
0.17638591 -0.37916028 2.5105534 7.2574116e-39
0.23224573 -0.36153716 2.5140002 7.2574116e-39
0.85859251 -0.38078266 2.5017269 7.2574116e-39
0.18210043 -0.34092015 2.5031388 7.2574116e-39
0.22107239 -0.33550704 2.5140002 7.2574116e-39
0.24601288 -0.3334043 2.5140002 7.2574116e-39
0.85119027 -0.34059635 2.5041814 7.2574116e-39
0.19635199 -0.30237255 2.4960001 7.2574116e-39
0.21975814 -0.29919675 2.5109596 7.2574116e-39
0.25140002 -0.29705849 2.5140002 7.2574116e-39
0.83292186 -0.29103041 2.5066361 7.2574116e-39
0.84583879 -0.30297667 2.5030432 7.2574116e-39
0.19730285 -0.27337146 2.4960001 7.2574116e-39
0.21974279 -0.2590951 2.5048532 7.2574116e-39
0.25734979 -0.25744241 2.5045581 7.2574116e-39
0.28108916 -0.24948458 2.5140002 7.2574116e-39
0.83053499 -0.25825101 2.5055511 7.2574116e-39
0.8459155 -0.26025316 2.4977996 7.2574116e-39
0.2173765 -0.23322412 2.4960001 7.2574116e-39
0.26357773 -0.22074014 2.4985716 7.2574116e-39
0.29158396 -0.21356954 2.5133333 7.2574116e-39
0.32322857 -0.20830287 2.5140002 7.2574116e-39
0.79729718 -0.20351431 2.5140002 7.2574116e-39
0.82360977 -0.2210668 2.5050004 7.2574116e-39
0.84721386 -0.2277303 2.4960001 7.2574116e-39
0.27337146 -0.19492571 2.4960003 7.2574116e-39
0.30271649 -0.18085757 2.508095 7.2574116e-39
0.32322857 -0.17957143 2.5140002 7.2574116e-39
0.79598075 -0.17582786 2.5117502 7.2574116e-39
0.8043406 -0.17958656 2.5024285 7.2574116e-39
0.30187204 -0.13802807 2.4992735 7.2574116e-39
0.33796084 -0.13590845 2.5099249 7.2574116e-39
0.36393145 -0.13407999 2.5140002 7.2574116e-39
0.78837925 -0.13991295 2.5076468 7.2574116e-39
0.80373859 -0.15122715 2.5005002 7.2574116e-39
0.30665144 -0.11172572 2.4960001 7.2574116e-39
0.34081191 -0.10203353 2.5041821 7.2574116e-39
0.3739439 -0.094683118 2.5140002 7.2574116e-39
0.4046343 -0.088588573 2.5140002 7.2574116e-39
0.7710591 -0.09697143 2.5039999 7.2574116e-39
0.34759361 -0.066669285 2.4997497 7.2574116e-39
0.38092297 -0.060113579 2.5109632 7.2574116e-39
0.4046343 -0.063847624 2.5140002 7.2574116e-39
0.75898862 -0.067040011 2.5140002 7.2574116e-39
0.76556706 -0.069242045 2.5075717 7.2574116e-39
0.38504696 -0.021113804 2.4979155 7.2574116e-39
0.41554326 -0.012694372 2.5123639 7.2574116e-39
0.44294289 -0.0023942858 2.5140002 7.2574116e-39
0.74542105 -0.013567622 2.5140002 7.2574116e-39
0.39275685 0.014262857 2.4959996 7.2574116e-39
0.42010325 0.019081427 2.5061262 7.2574116e-39
0.44593579 0.022147141 2.5140002 7.2574116e-39
0.74214405 0.015689144 2.4960001 7.2574116e-39
0.39698285 0.040411428 2.4960001 7.2574116e-39
0.42783517 0.056090448 2.4960005 7.2574116e-39
0.4604432 0.060712032 2.5104599 7.2574116e-39
0.48125145 0.079011433 2.5140002 7.2574116e-39
0.71564388 0.077049524 2.5020003 7.2574116e-39
0.72329789 0.059631262 2.5055292 7.2574116e-39
0.43569639 0.09406694 2.4960001 7.2574116e-39
0.46097338 0.10001018 2.4998369 7.2574116e-39
0.49739155 0.10194743 2.5110614 7.2574116e-39
0.53033435 0.11372858 2.5140002 7.2574116e-39
0.71239948 0.10206079 2.5025451 7.2574116e-39
0.7245965 0.10956468 2.4960003 7.2574116e-39
0.43977144 0.12361144 2.4960001 7.2574116e-39
0.4647831 0.13436024 2.4960005 7.2574116e-39
0.49913818 0.14128096 2.5075088 7.2574116e-39
0.54530621 0.14856192 2.5095 7.2574116e-39
0.56265718 0.15562859 2.5140002 7.2574116e-39
0.70646584 0.13977695 2.5058184 7.2574116e-39
0.72756428 0.12947504 2.4960001 7.2574116e-39
0.47780573 0.16402285 2.4960001 7.2574116e-39
0.50480235 0.17658858 2.497915 7.2574116e-39
0.53730661 0.17875998 2.5019071 7.2574116e-39
0.56630564 0.18093961 2.5140002 7.2574116e-39
0.67758286 0.17957145 2.5140004 7.2574116e-39
0.69343132 0.18199171 2.5009663 7.2574116e-39
0.72027433 0.19730285 2.4960001 7.2574116e-39
0.51324683 0.21286234 2.4960003 7.2574116e-39
0.53963268 0.21513298 2.4973097 7.2574116e-39
0.57684577 0.22052684 2.5007999 7.2574116e-39
0.61742646 0.23284428 2.5140002 7.2574116e-39
0.67214638 0.22562809 2.5077391 7.2574116e-39
0.68719918 0.21575961 2.5009654 7.2574116e-39
0.5865832 0.25241667 2.4970286 7.2574116e-39
0.62049538 0.25927737 2.5020015 7.2574116e-39
0.6637032 0.25941929 2.5066373 7.2574116e-39
0.69074756 0.25948396 2.4960003 7.2574116e-39
0.62881678 0.29952011 2.4960003 7.2574116e-39
0.65802443 0.29473847 2.4999278 7.2574116e-39
0.69080383 0.28483555 2.5040002 7.2574116e-39
0.64658284 0.3209143 2.4960001 7.2574116e-39
0.11556309 -0.53997451 2.5319998 7.2574116e-39
0.13986053 -0.53358781 2.5329261 7.2574116e-39
0.17927042 -0.5365327 2.5419998 7.2574116e-39
0.21730916 -0.53426152 2.5357251 7.2574116e-39
0.26043874 -0.52490407 2.5399172 7.2574116e-39
0.30061793 -0.52425474 2.5379999 7.2574116e-39
0.33844498 -0.5265789 2.5421791 7.2574116e-39
0.37920117 -0.52612072 2.539741 7.2574116e-39
0.41653761 -0.52535462 2.5365238 7.2574116e-39
0.47190246 -0.52454048 2.5357997 7.2574116e-39
0.49629518 -0.52380693 2.5363846 7.2574116e-39
0.53327447 -0.52414465 2.536222 7.2574116e-39
0.58115435 -0.52472693 2.5319998 7.2574116e-39
0.62318206 -0.52328008 2.5320001 7.2574116e-39
0.64867425 -0.52328002 2.5320001 7.2574116e-39
0.70654863 -0.52328002 2.5320001 7.2574116e-39
0.72101712 -0.52328002 2.5320001 7.2574116e-39
0.82671803 -0.52649528 2.5319998 7.2574116e-39
0.11816 -0.51845711 2.5320001 7.2574116e-39
0.14774022 -0.50495321 2.5320003 7.2574116e-39
0.17203026 -0.50277853 2.5459709 7.2574116e-39
0.21865715 -0.5174886 2.5510001 7.2574116e-39
0.24416715 -0.51627386 2.5510001 7.2574116e-39
0.30130535 -0.51719636 2.5472002 7.2574116e-39
0.34117457 -0.5174886 2.5510004 7.2574116e-39
0.38276935 -0.51511955 2.5498126 7.2574116e-39
0.41870505 -0.51657319 2.5465293 7.2574116e-39
0.45879108 -0.51755202 2.5434005 7.2574116e-39
0.50414264 -0.5169729 2.5442946 7.2574116e-39
0.5411191 -0.51457721 2.5446663 7.2574116e-39
0.57862365 -0.51044917 2.5472932 7.2574116e-39
0.62002945 -0.50982565 2.5466981 7.2574116e-39
0.66236931 -0.50718689 2.5425959 7.2574116e-39
0.69946736 -0.50582111 2.5435357 7.2574116e-39
0.73606038 -0.50599521 2.5431764 7.2574116e-39
0.78089589 -0.50763744 2.545959 7.2574116e-39
0.82016712 -0.51013613 2.545819 7.2574116e-39
0.8609727 -0.50426853 2.541913 7.2574116e-39
0.88141167 -0.49970028 2.5367501 7.2574116e-39
0.15513523 -0.46540573 2.5319998 7.2574116e-39
0.17429456 -0.45747709 2.5398476 7.2574116e-39
0.20165049 -0.44460285 2.5510001 7.2574116e-39
0.86363035 -0.46155724 2.5450289 7.2574116e-39
0.15674286 -0.43405718 2.5320001 7.2574116e-39
0.18256053 -0.42265254 2.5328076 7.2574116e-39
0.21194483 -0.41861811 2.544976 7.2574116e-39
0.25024098 -0.40087143 2.5510001 7.2574116e-39
0.86183131 -0.42127511 2.5458546 7.2574116e-39
0.88017148 -0.42199999 2.5320001 7.2574116e-39
0.19181819 -0.38955534 2.5319998 7.2574116e-39
0.21702474 -0.37953752 2.5387855 7.2574116e-39
0.24668317 -0.38084239 2.5500951 7.2574116e-39
0.83818573 -0.36847779 2.5510001 7.2574116e-39
0.85331362 -0.37925702 2.5456412 7.2574116e-39
0.21981101 -0.34984264 2.5320008 7.2574116e-39
0.26382384 -0.3400766 2.5412431 7.2574116e-39
0.28546906 -0.32677096 2.5510001 7.2574116e-39
0.83495796 -0.33726576 2.5498827 7.2574116e-39
0.8473919 -0.34162807 2.5405807 7.2574116e-39
0.27158362 -0.30248034 2.5342803 7.2574116e-39
0.28672281 -0.2997793 2.548625 7.2574116e-39
0.79736972 -0.28814152 2.5510004 7.2574116e-39
0.82207793 -0.29962307 2.5445406 7.2574116e-39
0.84158862 -0.31589717 2.5320001 7.2574116e-39
0.27731428 -0.27490285 2.5320001 7.2574116e-39
0.29848242 -0.25780267 2.5430465 7.2574116e-39
0.32520914 -0.24677023 2.5510004 7.2574116e-39
0.79647899 -0.26076889 2.5510006 7.2574116e-39
0.81491262 -0.26153731 2.5450399 7.2574116e-39
0.30376565 -0.22629231 2.5330853 7.2574116e-39
0.3371411 -0.21701366 2.5407395 7.2574116e-39
0.36782992 -0.20553772 2.5510004 7.2574116e-39
0.79102653 -0.21582022 2.5493717 7.2574116e-39
0.81238025 -0.22435097 2.5399675 7.2574116e-39
0.34185606 -0.1787136 2.5369251 7.2574116e-39
0.36914402 -0.17477416 2.5486245 7.2574116e-39
0.78405929 -0.17920403 2.5469692 7.2574116e-39
0.8030057 -0.18568 2.5320001 7.2574116e-39
0.34965715 -0.15323532 2.5319998 7.2574116e-39
0.37823269 -0.14181718 2.5399537 7.2574116e-39
0.7561596 -0.13105983 2.544091 7.2574116e-39
0.77386022 -0.1415187 2.5390368 7.2574116e-39
0.8030057 -0.13745143 2.5320001 7.2574116e-39
0.38375184 -0.1018247 2.540216 7.2574116e-39
0.42030892 -0.095923811 2.5456419 7.2574116e-39
0.75430775 -0.1017487 2.5460436 7.2574116e-39
0.77329922 -0.10753016 2.5453515 7.2574116e-39
0.38824001 -0.079577141 2.5320001 7.2574116e-39
0.4251844 -0.058240548 2.5436921 7.2574116e-39
0.44892207 -0.058848467 2.5509999 7.2574116e-39
0.71670955 -0.043731429 2.5510001 7.2574116e-39
0.74913567 -0.055296592 2.5456977 7.2574116e-39
0.76044095 -0.059766289 2.5510004 7.2574116e-39
0.42870018 -0.026781604 2.5373201 7.2574116e-39
0.45817006 -0.01393845 2.5461147 7.2574116e-39
0.71670955 -0.020477418 2.5510004 7.2574116e-39
0.73524988 -0.019327844 2.5419669 7.2574116e-39
0.76044095 -0.036442861 2.5510001 7.2574116e-39
0.46514517 0.019060189 2.5378056 7.2574116e-39
0.48711953 0.0352281 2.5510001 7.2574116e-39
0.71136451 0.025024096 2.5509999 7.2574116e-39
0.73489684 0.018273624 2.5404091 7.2574116e-39
0.47987431 0.047424763 2.5320001 7.2574116e-39
0.49997121 0.060977213 2.5381176 7.2574116e-39
0.52676493 0.069131002 2.5510006 7.2574116e-39
0.70850921 0.062954456 2.5487649 7.2574116e-39
0.72406763 0.054743893 2.5389097 7.2574116e-39
0.51074064 0.092598855 2.5319998 7.2574116e-39
0.53796405 0.10102285 2.5443916 7.2574116e-39
0.57295513 0.11215954 2.5501363 7.2574116e-39
0.70010734 0.098943941 2.5437615 7.2574116e-39
0.51725143 0.12901142 2.5320001 7.2574116e-39
0.53960204 0.1360603 2.533325 7.2574116e-39
0.5796653 0.1393273 2.5418801 7.2574116e-39
0.60778588 0.12997955 2.5510006 7.2574116e-39
0.67160666 0.14794022 2.5466816 7.2574116e-39
0.69494623 0.1396506 2.5417211 7.2574116e-39
0.5846948 0.17833316 2.533839 7.2574116e-39
0.61731219 0.18272574 2.5510004 7.2574116e-39
0.66528511 0.1821885 2.5455716 7.2574116e-39
0.68484569 0.16156571 2.5320001 7.2574116e-39
0.58996373 0.2111342 2.5335832 7.2574116e-39
0.61929715 0.21543823 2.5419667 7.2574116e-39
0.65925056 0.21754687 2.5422299 7.2574116e-39
0.68243432 0.20014857 2.5320001 7.2574116e-39
0.6342057 0.24355429 2.5320001 7.2574116e-39
0.65253258 0.25464687 2.5319998 7.2574116e-39
0.18520319 -0.52460641 2.5700002 7.2574116e-39
0.21930666 -0.52379054 2.5699999 7.2574116e-39
0.26597464 -0.52215874 2.5700002 7.2574116e-39
0.28392383 -0.52134287 2.5700002 7.2574116e-39
0.33532384 -0.52134287 2.5700002 7.2574116e-39
0.19051948 -0.49844578 2.5699999 7.2574116e-39
0.22140986 -0.49982935 2.5810153 7.2574116e-39
0.25911635 -0.50164407 2.5834308 7.2574116e-39
0.30142397 -0.50543821 2.5810826 7.2574116e-39
0.34061411 -0.50541639 2.5824358 7.2574116e-39
0.37886915 -0.50381863 2.5794995 7.2574116e-39
0.42118973 -0.50146574 2.5771694 7.2574116e-39
0.45856375 -0.50225872 2.5806665 7.2574116e-39
0.49878308 -0.50002754 2.581516 7.2574116e-39
0.53782451 -0.49773467 2.5793543 7.2574116e-39
0.58064699 -0.49033695 2.5743542 7.2574116e-39
0.62024188 -0.48977146 2.5705588 7.2574116e-39
0.65977722 -0.4889195 2.5758457 7.2574116e-39
0.70024729 -0.48507991 2.5750663 7.2574116e-39
0.74202979 -0.48750204 2.5786359 7.2574116e-39
0.77890623 -0.48804089 2.5758457 7.2574116e-39
0.82138276 -0.48923004 2.5748508 7.2574116e-39
0.85613686 -0.49372169 2.5711873 7.2574116e-39
0.19060835 -0.46963698 2.5699999 7.2574116e-39
0.22110169 -0.46006182 2.5700006 7.2574116e-39
0.25411409 -0.45833734 2.5794997 7.2574116e-39
0.51040286 -0.47588289 2.5890002 7.2574116e-39
0.53259432 -0.47588289 2.5890002 7.2574116e-39
0.58598512 -0.47458145 2.5860775 7.2574116e-39
0.62226629 -0.47294682 2.5804825 7.2574116e-39
0.6571129 -0.47403365 2.5890005 7.2574116e-39
0.69779724 -0.47588295 2.5890005 7.2574116e-39
0.73231715 -0.47588289 2.5890002 7.2574116e-39
0.78594649 -0.47341722 2.5890005 7.2574116e-39
0.82803321 -0.46319044 2.5849285 7.2574116e-39
0.85051328 -0.4627395 2.5763333 7.2574116e-39
0.23017414 -0.42304647 2.5699999 7.2574116e-39
0.25942537 -0.42056704 2.5745869 7.2574116e-39
0.29248065 -0.40966079 2.5890005 7.2574116e-39
0.83230811 -0.41745046 2.5784445 7.2574116e-39
0.84952801 -0.41997063 2.5699999 7.2574116e-39
0.23089206 -0.39569843 2.5700002 7.2574116e-39
0.26730573 -0.38260165 2.5699999 7.2574116e-39
0.29882371 -0.37959841 2.5845287 7.2574116e-39
0.33135408 -0.36739153 2.5890005 7.2574116e-39
0.79642576 -0.3690353 2.5890002 7.2574116e-39
0.82224256 -0.38025895 2.5792375 7.2574116e-39
0.84714818 -0.39134708 2.5699999 7.2574116e-39
0.27413335 -0.35735244 2.5700002 7.2574116e-39
0.30059329 -0.3420603 2.5722177 7.2574116e-39
0.33675966 -0.3393203 2.588999 7.2574116e-39
0.79164213 -0.34061441 2.5871909 7.2574116e-39
0.81729567 -0.34093899 2.5759072 7.2574116e-39
0.3063145 -0.29978377 2.5719485 7.2574116e-39
0.33965501 -0.30028841 2.5842505 7.2574116e-39
0.3707819 -0.29773492 2.5889997 7.2574116e-39
0.79012287 -0.2973806 2.5792117 7.2574116e-39
0.80880201 -0.30894399 2.5699999 7.2574116e-39
0.31193545 -0.2711418 2.5699999 7.2574116e-39
0.34246472 -0.26121777 2.5706451 7.2574116e-39
0.37626815 -0.26000956 2.5889993 7.2574116e-39
0.78336686 -0.25889462 2.5763333 7.2574116e-39
0.80417901 -0.25645611 2.5699999 7.2574116e-39
0.35686287 -0.22909717 2.5699999 7.2574116e-39
0.38132277 -0.22184236 2.5747499 7.2574116e-39
0.41358259 -0.21468154 2.589 7.2574116e-39
0.77520514 -0.21946482 2.5737069 7.2574116e-39
0.80771434 -0.23741907 2.5700002 7.2574116e-39
0.38758391 -0.18396834 2.5699999 7.2574116e-39
0.41971105 -0.18272229 2.5862856 7.2574116e-39
0.44136289 -0.19232574 2.5890002 7.2574116e-39
0.7537958 -0.17717279 2.5853813 7.2574116e-39
0.76458907 -0.18462256 2.5731668 7.2574116e-39
0.39733019 -0.13679472 2.5699999 7.2574116e-39
0.41963944 -0.14080727 2.575527 7.2574116e-39
0.45228243 -0.13297248 2.5890002 7.2574116e-39
0.74587572 -0.13947326 2.5813992 7.2574116e-39
0.76120967 -0.15420002 2.5700002 7.2574116e-39
0.3965143 -0.1150381 2.5700002 7.2574116e-39
0.42343807 -0.11340638 2.5699999 7.2574116e-39
0.4594132 -0.098531775 2.5779455 7.2574116e-39
0.49156219 -0.095657095 2.5889993 7.2574116e-39
0.71697503 -0.096710801 2.5890005 7.2574116e-39
0.73733532 -0.098352745 2.5771606 7.2574116e-39
0.46654877 -0.057478998 2.5711176 7.2574116e-39
0.4979946 -0.058713585 2.5876422 7.2574116e-39
0.52334791 -0.053629287 2.5890005 7.2574116e-39
0.71045184 -0.057342395 2.5812969 7.2574116e-39
0.73520499 -0.064440675 2.5723751 7.2574116e-39
0.46749523 -0.029254876 2.5699999 7.2574116e-39
0.49933118 -0.01986005 2.5748365 7.2574116e-39
0.53119487 -0.018192975 2.5889995 7.2574116e-39
0.56464863 -0.0024657145 2.5890002 7.2574116e-39
0.70900953 -0.0194185 2.5790472 7.2574116e-39
0.72204763 -0.012238096 2.5700002 7.2574116e-39
0.50115001 0.017745238 2.5700009 7.2574116e-39
0.53542072 0.021573881 2.5825222 7.2574116e-39
0.57666916 0.026138047 2.5848916 7.2574116e-39
0.6090315 0.034520004 2.5890005 7.2574116e-39
0.67807144 0.03452 2.5890002 7.2574116e-39
0.69854409 0.019785097 2.5773668 7.2574116e-39
0.72204763 0.0024476191 2.5700002 7.2574116e-39
0.5164476 0.041609526 2.5700002 7.2574116e-39
0.54395103 0.056720912 2.5794997 7.2574116e-39
0.57894826 0.059315935 2.5714195 7.2574116e-39
0.61588758 0.061181176 2.585674 7.2574116e-39
0.67806244 0.059944768 2.5868893 7.2574116e-39
0.69351614 0.057208203 2.5754282 7.2574116e-39
0.55234611 0.090153985 2.5699999 7.2574116e-39
0.5837571 0.093762629 2.5700004 7.2574116e-39
0.62042105 0.1007776 2.5735636 7.2574116e-39
0.66435444 0.10531952 2.5834382 7.2574116e-39
0.68547744 0.10294399 2.5699999 7.2574116e-39
0.59966666 0.14930476 2.5700002 7.2574116e-39
0.6238606 0.14450371 2.5700004 7.2574116e-39
0.65867239 0.13829227 2.5741458 7.2574116e-39
0.68917966 0.12762585 2.5700002 7.2574116e-39
0.63099629 0.16741715 2.5699999 7.2574116e-39
0.65351427 0.17133334 2.5699999 7.2574116e-39
0.27332383 -0.49446762 2.6090002 7.2574116e-39
0.29738259 -0.48967674 2.6132433 7.2574116e-39
0.33895969 -0.4893133 2.6232862 7.2574116e-39
0.37948102 -0.48886243 2.6190007 7.2574116e-39
0.41936329 -0.48765105 2.6176963 7.2574116e-39
0.46347147 -0.48727596 2.610429 7.2574116e-39
0.49546155 -0.4845286 2.6090002 7.2574116e-39
0.55534428 -0.48577094 2.6090002 7.2574116e-39
0.56404096 -0.48701334 2.6090002 7.2574116e-39
0.76779151 -0.4845286 2.6090002 7.2574116e-39
0.27422252 -0.46558958 2.612077 7.2574116e-39
0.29844314 -0.46192601 2.6255383 7.2574116e-39
0.32925096 -0.44943386 2.6289999 7.2574116e-39
0.4356629 -0.47822765 2.6290002 7.2574116e-39
0.46206069 -0.47478265 2.6225486 7.2574116e-39
0.501046 -0.47382987 2.6199684 7.2574116e-39
0.54059732 -0.47385237 2.6226006 7.2574116e-39
0.58294743 -0.46847793 2.6229398 7.2574116e-39
0.61928082 -0.46001694 2.6207075 7.2574116e-39
0.66372025 -0.46338975 2.6230907 7.2574116e-39
0.70142847 -0.46311834 2.6252062 7.2574116e-39
0.74146467 -0.46518406 2.6258624 7.2574116e-39
0.77986354 -0.46090552 2.623492 7.2574116e-39
0.81906635 -0.45729724 2.6165853 7.2574116e-39
0.30436802 -0.42624277 2.611501 7.2574116e-39
0.3369993 -0.41887969 2.6238143 7.2574116e-39
0.3630524 -0.40561718 2.6290002 7.2574116e-39
0.7925058 -0.42254293 2.6290004 7.2574116e-39
0.8169955 -0.42319384 2.6202722 7.2574116e-39
0.31556478 -0.39259243 2.6090002 7.2574116e-39
0.34233251 -0.38480726 2.6187444 7.2574116e-39
0.36754221 -0.37254265 2.6252503 7.2574116e-39
0.7905007 -0.37684289 2.6213531 7.2574116e-39
0.80666506 -0.38735732 2.6136158 7.2574116e-39
0.35532099 -0.34662431 2.6090002 7.2574116e-39
0.37497553 -0.33767962 2.6194999 7.2574116e-39
0.40711948 -0.32499453 2.6290002 7.2574116e-39
0.78174788 -0.33870617 2.6214445 7.2574116e-39
0.39010766 -0.30160281 2.6090009 7.2574116e-39
0.40963626 -0.29900444 2.6276209 7.2574116e-39
0.75414747 -0.28893963 2.6289999 7.2574116e-39
0.77677393 -0.30125648 2.6248486 7.2574116e-39
0.39359218 -0.26798788 2.6115003 7.2574116e-39
0.41440186 -0.25738344 2.6223333 7.2574116e-39
0.4431743 -0.24286954 2.6290002 7.2574116e-39
0.7521165 -0.26044744 2.6270647 7.2574116e-39
0.77004868 -0.2601186 2.6193037 7.2574116e-39
0.42910942 -0.2268924 2.612637 7.2574116e-39
0.45535061 -0.21531661 2.6234834 7.2574116e-39
0.48323527 -0.2053124 2.6290002 7.2574116e-39
0.74648237 -0.21584262 2.6249995 7.2574116e-39
0.7683875 -0.22681999 2.6170006 7.2574116e-39
0.43980289 -0.17144859 2.6090002 7.2574116e-39
0.46168399 -0.17864347 2.6154156 7.2574116e-39
0.4832353 -0.18277813 2.6290002 7.2574116e-39
0.71748066 -0.17498848 2.6289999 7.2574116e-39
0.73819822 -0.17987074 2.6166182 7.2574116e-39
0.46770114 -0.14442092 2.6111438 7.2574116e-39
0.49641398 -0.13553032 2.6247895 7.2574116e-39
0.53080767 -0.12268668 2.6290002 7.2574116e-39
0.71244305 -0.13488674 2.6261435 7.2574116e-39
0.72953165 -0.1423599 2.6118579 7.2574116e-39
0.51154184 -0.10375854 2.6108189 7.2574116e-39
0.53302336 -0.095568575 2.6266005 7.2574116e-39
0.58982605 -0.089779459 2.6290002 7.2574116e-39
0.70681971 -0.099734284 2.6239085 7.2574116e-39
0.51683056 -0.074542865 2.6090002 7.2574116e-39
0.54116118 -0.059365775 2.615047 7.2574116e-39
0.58175033 -0.05691614 2.6257343 7.2574116e-39
0.61287695 -0.04590318 2.6289999 7.2574116e-39
0.67853242 -0.045068577 2.6290002 7.2574116e-39
0.69691271 -0.0595093 2.6215582 7.2574116e-39
0.55146444 -0.021903176 2.6099532 7.2574116e-39
0.57980388 -0.020928413 2.6181521 7.2574116e-39
0.61202484 -0.017839642 2.6289999 7.2574116e-39
0.67178303 -0.018833004 2.6290007 7.2574116e-39
0.69364309 -0.020193957 2.6216087 7.2574116e-39
0.55617261 0.012837939 2.6090007 7.2574116e-39
0.58045399 0.013192018 2.6097701 7.2574116e-39
0.62172949 0.017693659 2.6252494 7.2574116e-39
0.66412783 0.025457706 2.6264358 7.2574116e-39
0.68784177 0.011197622 2.6140008 7.2574116e-39
0.55658668 0.042240955 2.6090002 7.2574116e-39
0.56404096 0.042240955 2.6090002 7.2574116e-39
0.6349355 0.053630572 2.6144552 7.2574116e-39
0.66339624 0.059081942 2.6217263 7.2574116e-39
0.66538918 0.092086785 2.6090009 7.2574116e-39
0.66343147 0.12175334 2.6090002 7.2574116e-39
0.34563145 -0.48461804 2.6490002 7.2574116e-39
0.38145602 -0.48287496 2.6490002 7.2574116e-39
0.41475773 -0.48337951 2.6490002 7.2574116e-39
0.30886981 -0.4660078 2.6490002 7.2574116e-39
0.34080511 -0.46354768 2.6490016 7.2574116e-39
0.37911522 -0.45995212 2.6536889 7.2574116e-39
0.42066228 -0.46118802 2.6608763 7.2574116e-39
0.45824748 -0.45843539 2.657696 7.2574116e-39
0.49766645 -0.45684704 2.6627779 7.2574116e-39
0.53942281 -0.45696393 2.6612449 7.2574116e-39
0.57847899 -0.45661968 2.6580482 7.2574116e-39
0.62031072 -0.44623438 2.6526368 7.2574116e-39
0.65972722 -0.44675595 2.6490011 7.2574116e-39
0.70103896 -0.44433817 2.6490006 7.2574116e-39
0.743402 -0.44885838 2.6490011 7.2574116e-39
0.77148974 -0.44250917 2.6490002 7.2574116e-39
0.35572287 -0.42468095 2.6490002 7.2574116e-39
