# .PCD v0.7 - Point Cloud Data file format
VERSION 0.7
FIELDS x y z rgb
SIZE 4 4 4 4
TYPE F F F F
COUNT 1 1 1 1
WIDTH 686
HEIGHT 1
VIEWPOINT 0 0 0 1 0 0 0
POINTS 686
DATA ascii
-0.72443831 -0.36501545 1.2750001 2.1321968e-38
-0.73833108 -0.36542836 1.2997777 2.1321968e-38
-0.73166293 -0.35709146 1.3110001 2.1321968e-38
-0.66069645 -0.29918379 1.3089167 2.1321968e-38
-0.76073432 -0.37587717 1.3470001 2.1321968e-38
-0.74311239 -0.37430814 1.3393115 2.1321968e-38
-0.70890152 -0.38627529 1.3490939 2.1321968e-38
-0.74101812 -0.35855716 1.3210001 2.1321968e-38
-0.70323426 -0.35554522 1.3362001 2.1321968e-38
-0.69157612 -0.30861652 1.3473794 2.1321968e-38
-0.67468268 -0.30782622 1.3260001 2.1321968e-38
-0.76713526 -0.40550476 1.396 2.1321968e-38
-0.77575076 -0.36949426 1.3917501 2.1321968e-38
-0.73842973 -0.37738222 1.3802972 2.1321968e-38
-0.71315169 -0.38102084 1.3660003 2.1321968e-38
-0.76508409 -0.35037756 1.3900001 2.1321968e-38
-0.74451178 -0.35333526 1.3806908 2.1321968e-38
-0.71046346 -0.32269964 1.3718001 2.1321968e-38
-0.72681087 -0.30175215 1.3736898 2.1321968e-38
-0.71155524 -0.30653307 1.3680335 2.1321968e-38
-0.77378285 -0.24064381 1.396 2.1321968e-38
-0.75206727 -0.24153017 1.3960001 2.1321968e-38
-0.76461363 -0.22779538 1.3926251 2.1321968e-38
-0.75678819 -0.2248385 1.3936001 2.1321968e-38
-0.77577674 -0.41349521 1.4261428 2.1321968e-38
-0.73457313 -0.41874889 1.4256672 2.1321968e-38
-0.71126533 -0.4210462 1.4330001 2.1321968e-38
-0.80833614 -0.3727054 1.4246843 2.1321968e-38
-0.78634262 -0.37449151 1.4101908 2.1321968e-38
-0.73004407 -0.38191494 1.4164335 2.1321968e-38
-0.71704745 -0.37179586 1.4145554 2.1321968e-38
-0.77065879 -0.3513844 1.427 2.1321968e-38
-0.74713963 -0.34638181 1.4223949 2.1321968e-38
-0.76213598 -0.29284281 1.4214003 2.1321968e-38
-0.75272095 -0.29426089 1.4160262 2.1321968e-38
-0.76362407 -0.25377548 1.40925 2.1321968e-38
-0.75520384 -0.25074074 1.4060001 2.1321968e-38
-0.76172042 -0.23265618 1.4106365 2.1321968e-38
-0.75583577 -0.23365416 1.4100771 2.1321968e-38
-0.73403406 -0.44480896 1.4583752 2.1321968e-38
-0.80395716 -0.41503429 1.4430001 2.1321968e-38
-0.78108376 -0.42164052 1.4475456 2.1321968e-38
-0.72802579 -0.4348 1.4455001 2.1321968e-38
-0.71600288 -0.42190576 1.4430001 2.1321968e-38
-0.76774395 -0.3670181 1.4560002 2.1321968e-38
-0.75585711 -0.36143717 1.4430001 2.1321968e-38
-0.76272863 -0.35868859 1.4430001 2.1321968e-38
-0.75173438 -0.35868859 1.4430002 2.1321968e-38
-0.79497433 -0.28082573 1.4670001 2.1321968e-38
-0.80352581 -0.27267551 1.4597145 2.1321968e-38
-0.79405034 -0.27330375 1.463539 2.1321968e-38
-0.69017148 0.030671431 1.4640001 2.1321968e-38
-0.65716481 0.026509523 1.465 2.1321968e-38
-0.80337715 -0.29059467 1.5167501 2.1321968e-38
-0.79855478 -0.28532809 1.5055001 2.1321968e-38
-0.72576332 0.038089048 1.5090001 2.1321968e-38
-0.70252526 0.034745932 1.504645 2.1321968e-38
-0.66812885 0.032867845 1.485 2.1321968e-38
-0.72951549 0.050886922 1.5163468 2.1321968e-38
-0.69704998 0.050858211 1.4980733 2.1321968e-38
-0.67403144 0.05213438 1.4918791 2.1321968e-38
-0.81241566 -0.2889761 1.5325387 2.1321968e-38
-0.81307721 -0.27931476 1.5355 2.1321968e-38
-0.73390102 0.036476195 1.5320001 2.1321968e-38
-0.70862001 0.031312026 1.5293748 2.1321968e-38
-0.73696369 0.05530414 1.5290703 2.1321968e-38
-0.7177667 0.067680955 1.5250001 2.1321968e-38
-0.82425052 -0.30226395 1.5812147 2.1321968e-38
-0.84435791 -0.05660091 1.5680498 2.1321968e-38
-0.83466744 -0.051380549 1.5670002 2.1321968e-38
-0.98482919 -0.53880101 1.6340003 2.1321968e-38
-0.8334226 -0.29360762 1.6056669 2.1321968e-38
-0.9337886 -0.26016003 1.626 2.1321968e-38
-0.90460551 -0.048761237 1.6282997 2.1321968e-38
-0.90612733 -0.036075328 1.6340002 2.1321968e-38
-0.63242346 -0.44933245 1.45216 2.1321968e-38
-1.0027173 -0.62926459 1.6682003 2.1321968e-38
-0.99529773 -0.61385125 1.6677756 2.1321968e-38
-0.99324894 -0.57924521 1.6604415 2.1321968e-38
-0.98083621 -0.53783292 1.6581813 2.1321968e-38
-0.95610315 -0.52829206 1.668556 2.1321968e-38
-0.97434878 -0.50050151 1.6516181 2.1321968e-38
-0.95730579 -0.50401056 1.6656404 2.1321968e-38
-0.96984559 -0.47496712 1.6507779 2.1321968e-38
-0.95956093 -0.47114289 1.649 2.1321968e-38
-0.96367913 -0.29372284 1.6670001 2.1321968e-38
-0.94412935 -0.29527315 1.6631621 2.1321968e-38
-0.96252859 -0.24420002 1.6650001 2.1321968e-38
-0.94274706 -0.25931051 1.6588253 2.1321968e-38
-0.9068982 -0.26206195 1.6676668 2.1321968e-38
-0.95186341 -0.23667431 1.6598573 2.1321968e-38
-0.92764461 -0.062196936 1.6650001 2.1321968e-38
-0.91687334 -0.061545715 1.6570001 2.1321968e-38
-0.65037489 -0.43132591 1.459919 2.1321968e-38
-0.81039274 -0.50237966 1.550369 2.1321968e-38
-1.0013188 -0.63104844 1.6844002 2.1321968e-38
-0.98485166 -0.61847502 1.6953281 2.1321968e-38
-0.95261371 -0.60658455 1.7030004 2.1321968e-38
-1.0010114 -0.59996003 1.6980001 2.1321968e-38
-0.97477251 -0.58068985 1.693023 2.1321968e-38
-0.94979864 -0.57924783 1.7104475 2.1321968e-38
-0.96973652 -0.55006981 1.6896111 2.1321968e-38
-0.94393355 -0.538562 1.6977705 2.1321968e-38
-0.91382045 -0.53088945 1.7063557 2.1321968e-38
-0.96444881 -0.51169848 1.688091 2.1321968e-38
-0.95345497 -0.5120126 1.6915002 2.1321968e-38
-0.90068817 -0.50905317 1.709741 2.1321968e-38
-0.94723618 -0.32007813 1.7060001 2.1321968e-38
-0.97158349 -0.28821608 1.6974286 2.1321968e-38
-0.9375791 -0.29599929 1.6953449 2.1321968e-38
-0.91903812 -0.29132381 1.6900001 2.1321968e-38
-0.94544321 -0.26163244 1.706 2.1321968e-38
-0.91474098 -0.23884001 1.7060001 2.1321968e-38
-0.96733344 -0.065373085 1.7132001 2.1321968e-38
-0.94191563 -0.06879577 1.6886667 2.1321968e-38
-0.86379606 -0.4666954 1.6714001 2.1321968e-38
-0.97673404 -0.66059494 1.7375565 2.1321968e-38
-0.95495009 -0.65439242 1.7529302 2.1321968e-38
-0.97248107 -0.63008583 1.7303637 2.1321968e-38
-0.94551295 -0.61970401 1.7417197 2.1321968e-38
-0.91140956 -0.60830462 1.746143 2.1321968e-38
-0.96761495 -0.59530109 1.7229998 2.1321968e-38
-0.93702739 -0.58160073 1.7331876 2.1321968e-38
-0.89942509 -0.58135849 1.745765 2.1321968e-38
-0.87838316 -0.58354133 1.7590002 2.1321968e-38
-0.93058544 -0.55654991 1.726375 2.1321968e-38
-0.90734005 -0.53879029 1.7359135 2.1321968e-38
-0.85342693 -0.52734512 1.7584709 2.1321968e-38
-0.83929431 -0.54110193 1.7590001 2.1321968e-38
-0.89051145 -0.51055706 1.7259028 2.1321968e-38
-0.85460377 -0.51787686 1.756 2.1321968e-38
-0.97031099 -0.33605468 1.7348282 2.1321968e-38
-0.95845872 -0.3361786 1.7257693 2.1321968e-38
-0.96333337 -0.3116667 1.7500001 2.1321968e-38
-0.93796581 -0.30963889 1.7257 2.1321968e-38
-0.96487999 -0.26452154 1.7229998 2.1321968e-38
-0.94628072 -0.26282078 1.7325 2.1321968e-38
-1.0001172 -0.095488578 1.7590002 2.1321968e-38
-0.98638022 -0.088368259 1.7506665 2.1321968e-38
-0.97765672 -0.073418781 1.7294286 2.1321968e-38
-0.53094786 -0.36677542 1.4102103 2.1321968e-38
-0.80624455 -0.58076727 1.670579 2.1321968e-38
-0.7921617 -0.62342054 1.6898832 2.1321968e-38
-0.96688414 -0.66932744 1.7702501 2.1321968e-38
-0.93949121 -0.66069561 1.779071 2.1321968e-38
-0.90904516 -0.65586019 1.7905511 2.1321968e-38
-0.93244052 -0.63387156 1.7738379 2.1321968e-38
-0.89501023 -0.62210995 1.7868328 2.1321968e-38
-0.86766613 -0.60873896 1.7925669 2.1321968e-38
-0.88566738 -0.57999718 1.7697035 2.1321968e-38
-0.86409611 -0.57965344 1.7846004 2.1321968e-38
-0.83937621 -0.58294761 1.7950001 2.1321968e-38
-0.88358343 -0.54957336 1.7745457 2.1321968e-38
-0.85792184 -0.5391646 1.7738904 2.1321968e-38
-0.82553923 -0.53246009 1.7901533 2.1321968e-38
-0.85906315 -0.51540363 1.7761002 2.1321968e-38
-0.81685859 -0.5043661 1.7861733 2.1321968e-38
-0.78296196 -0.49405238 1.7950001 2.1321968e-38
-0.98655248 -0.36230287 1.7860001 2.1321968e-38
-1.0129229 -0.34530523 1.7882501 2.1321968e-38
-0.98390615 -0.34854859 1.7680001 2.1321968e-38
-0.96759051 -0.28207144 1.7950001 2.1321968e-38
-0.96902734 -0.26649219 1.79186 2.1321968e-38
-0.95147908 -0.26085562 1.7917858 2.1321968e-38
-1.0606625 -0.12107192 1.7905002 2.1321968e-38
-1.0510653 -0.096497715 1.7928047 2.1321968e-38
-1.0251932 -0.10099204 1.7901533 2.1321968e-38
-0.86412859 -0.72098005 1.8330001 2.1321968e-38
-0.66771567 -0.4414838 1.5187474 2.1321968e-38
-0.83861244 -0.64230168 1.757175 2.1321968e-38
-0.86800718 -0.69282424 1.8297074 2.1321968e-38
-0.89445162 -0.66174871 1.80811 2.1321968e-38
-0.86447591 -0.65663177 1.8244091 2.1321968e-38
-0.83114314 -0.64446932 1.8299999 2.1321968e-38
-0.88554251 -0.62782824 1.8040005 2.1321968e-38
-0.85636789 -0.62274271 1.8171562 2.1321968e-38
-0.82724953 -0.61833853 1.8299994 2.1321968e-38
-0.8465814 -0.57983208 1.8116256 2.1321968e-38
-0.82384712 -0.57999068 1.8249643 2.1321968e-38
-0.79313624 -0.56328386 1.8330001 2.1321968e-38
-0.85202521 -0.55142057 1.8154815 2.1321968e-38
-0.8138938 -0.54202354 1.8107215 2.1321968e-38
-0.79107463 -0.54113448 1.8203213 2.1321968e-38
-0.80924129 -0.50304019 1.8121396 2.1321968e-38
-0.78226882 -0.49879625 1.8170773 2.1321968e-38
-0.75274372 -0.49872693 1.8327001 2.1321968e-38
-0.76188004 -0.47855049 1.8140001 2.1321968e-38
-0.88158572 -0.42595428 1.8330001 2.1321968e-38
-0.84318006 -0.41024286 1.8330001 2.1321968e-38
-0.8396886 -0.41024286 1.8330001 2.1321968e-38
-0.72970855 -0.40325999 1.8330001 2.1321968e-38
-1.00221 -0.37575835 1.8322501 2.1321968e-38
-0.9922291 -0.37123707 1.8285882 2.1321968e-38
-0.72596782 -0.39677593 1.8330002 2.1321968e-38
-0.70817804 -0.38871232 1.8329999 2.1321968e-38
-0.67628974 -0.36415598 1.8330001 2.1321968e-38
-0.99181789 -0.35516667 1.8221111 2.1321968e-38
-0.68344712 -0.35525286 1.8330001 2.1321968e-38
-0.67602789 -0.35481644 1.8330001 2.1321968e-38
-0.96998948 -0.28767318 1.8220001 2.1321968e-38
-0.95078635 -0.2864432 1.8173336 2.1321968e-38
-0.96855766 -0.27267739 1.8236669 2.1321968e-38
-0.95216781 -0.27143991 1.8120003 2.1321968e-38
-1.0527546 -0.12325635 1.8082858 2.1321968e-38
-1.0829729 -0.11245 1.8165002 2.1321968e-38
-1.0613631 -0.11028469 1.8065499 2.1321968e-38
-1.036298 -0.11138986 1.8040003 2.1321968e-38
-0.59230578 -0.37581518 1.6482661 2.1321968e-38
-0.89411831 -0.71719033 1.8430001 2.1321968e-38
-0.85499507 -0.70023352 1.858421 2.1321968e-38
-0.818385 -0.6917963 1.8692225 2.1321968e-38
-0.79617375 -0.68557757 1.8730001 2.1321968e-38
-0.84935021 -0.67025757 1.8486524 2.1321968e-38
-0.81574851 -0.66008496 1.8606308 2.1321968e-38
-0.79042155 -0.65670949 1.8693836 2.1321968e-38
-0.81007582 -0.62060702 1.8580559 2.1321968e-38
-0.78431076 -0.61993921 1.8730009 2.1321968e-38
-0.74741626 -0.60471141 1.8730001 2.1321968e-38
-0.80740255 -0.58763885 1.8468635 2.1321968e-38
-0.79544169 -0.5883587 1.8595221 2.1321968e-38
-0.73855466 -0.57044053 1.8717507 2.1321968e-38
-0.71475881 -0.56848645 1.8730006 2.1321968e-38
-0.77186912 -0.54222327 1.8522589 2.1321968e-38
-0.74807525 -0.54289418 1.8611819 2.1321968e-38
-0.76703906 -0.51647878 1.8430002 2.1321968e-38
-0.75029689 -0.5115844 1.8430003 2.1321968e-38
-1.002501 -0.44060099 1.8730001 2.1321968e-38
-0.88774729 -0.44369054 1.8710002 2.1321968e-38
-0.87091374 -0.44436797 1.8713338 2.1321968e-38
-0.80628198 -0.4441686 1.8730001 2.1321968e-38
-1.0456986 -0.4328824 1.8705001 2.1321968e-38
-1.010265 -0.41949531 1.8706673 2.1321968e-38
-0.98804623 -0.42858738 1.8668715 2.1321968e-38
-0.88922864 -0.42697042 1.8634003 2.1321968e-38
-0.86628741 -0.42312276 1.8686866 2.1321968e-38
-0.80961967 -0.41418642 1.8710005 2.1321968e-38
-0.79452264 -0.420917 1.8680003 2.1321968e-38
-0.73368955 -0.40897048 1.8430001 2.1321968e-38
-0.70404238 -0.40837348 1.8701431 2.1321968e-38
-1.0127723 -0.36684477 1.8430001 2.1321968e-38
-0.98644376 -0.3633343 1.8430001 2.1321968e-38
-0.89274943 -0.38042751 1.871572 2.1321968e-38
-0.80916482 -0.39843908 1.8430001 2.1321968e-38
-0.72930676 -0.38775352 1.8485552 2.1321968e-38
-0.70282364 -0.37889162 1.8516368 2.1321968e-38
-0.67787296 -0.37386572 1.8430001 2.1321968e-38
-0.98609275 -0.35631335 1.8430001 2.1321968e-38
-0.88298577 -0.32822096 1.8730001 2.1321968e-38
-0.87182397 -0.34036723 1.8711488 2.1321968e-38
-0.96889144 -0.29839048 1.8430001 2.1321968e-38
-0.98117816 -0.27908286 1.8430001 2.1321968e-38
-0.65101874 -0.48745754 1.7116911 2.1321968e-38
-0.68914527 -0.588929 1.7857767 2.1321968e-38
-0.78952402 -0.73069334 1.9094076 2.1321968e-38
-0.84895325 -0.71558946 1.8839167 2.1321968e-38
-0.81667513 -0.7096923 1.8898547 2.1321968e-38
-0.7843492 -0.69743049 1.9032679 2.1321968e-38
-0.75590545 -0.69033921 1.9125557 2.1321968e-38
-0.80341339 -0.65187669 1.8830001 2.1321968e-38
-0.77594578 -0.65915811 1.8964106 2.1321968e-38
-0.74422789 -0.6564014 1.9106622 2.1321968e-38
-0.80305475 -0.631612 1.8830003 2.1321968e-38
-0.78010666 -0.62412643 1.885932 2.1321968e-38
-0.74185073 -0.61747628 1.8977112 2.1321968e-38
-0.71693754 -0.61793923 1.9101113 2.1321968e-38
-0.73969609 -0.58531415 1.8863826 2.1321968e-38
-0.71494448 -0.5846079 1.8966367 2.1321968e-38
-0.74423337 -0.55772668 1.8830001 2.1321968e-38
-0.81229424 -0.50668806 1.9122262 2.1321968e-38
-1.0304525 -0.44865716 1.9150001 2.1321968e-38
-0.89846927 -0.44637787 1.8928463 2.1321968e-38
-0.84540147 -0.45012826 1.9120913 2.1321968e-38
-0.82380712 -0.45003748 1.9042381 2.1321968e-38
-0.76571256 -0.44614056 1.9137779 2.1321968e-38
-0.75797331 -0.44789335 1.904 2.1321968e-38
-1.0597855 -0.43126053 1.9053338 2.1321968e-38
-1.0158054 -0.42830113 1.8873529 2.1321968e-38
-0.99410456 -0.42621559 1.8830001 2.1321968e-38
-0.89415324 -0.43443462 1.8855386 2.1321968e-38
-0.86091185 -0.42936933 1.8909091 2.1321968e-38
-0.81792593 -0.41922557 1.8897702 2.1321968e-38
-0.77869821 -0.42270407 1.9062918 2.1321968e-38
-0.74124849 -0.4212476 1.902613 2.1321968e-38
-0.71119761 -0.41034028 1.8981428 2.1321968e-38
-0.89990336 -0.37611052 1.9061738 2.1321968e-38
-0.86567461 -0.37877247 1.902786 2.1321968e-38
-0.82752967 -0.38827947 1.9150006 2.1321968e-38
-0.78153032 -0.3672376 1.9102859 2.1321968e-38
-0.72271341 -0.39812002 1.8830001 2.1321968e-38
-0.70406276 -0.39560935 1.8830003 2.1321968e-38
-0.92102379 -0.35564288 1.9150002 2.1321968e-38
-0.89573061 -0.34486443 1.8927648 2.1321968e-38
-0.85953146 -0.33703023 1.8963335 2.1321968e-38
-0.81993699 -0.32423979 1.9091113 2.1321968e-38
-0.77599794 -0.33850393 1.9062504 2.1321968e-38
-0.75675929 -0.32565904 1.895143 2.1321968e-38
-0.8428793 -0.31743923 1.8938335 2.1321968e-38
-0.82790226 -0.3180359 1.901 2.1321968e-38
-0.76575345 -0.31562668 1.8830003 2.1321968e-38
-0.75589001 -0.31652334 1.8830001 2.1321968e-38
-0.45973465 -0.35628828 1.7260262 2.1321968e-38
-0.79273379 -0.69224554 1.9064929 2.1321968e-38
-0.74446613 -0.72452605 1.9284037 2.1321968e-38
-0.74682796 -0.74094504 1.9530784 2.1321968e-38
-0.76996863 -0.70832187 1.9264663 2.1321968e-38
-0.73957258 -0.6980859 1.9407015 2.1321968e-38
-0.69887394 -0.68595058 1.9554335 2.1321968e-38
-0.73155183 -0.66212696 1.9302034 2.1321968e-38
-0.70009369 -0.66256249 1.9550169 2.1321968e-38
-0.67690861 -0.65080196 1.9580001 2.1321968e-38
-0.72920835 -0.63845837 1.9250001 2.1321968e-38
-0.71683335 -0.63983333 1.9250001 2.1321968e-38
-0.88482952 -0.53052479 1.9580001 2.1321968e-38
-0.85219622 -0.52026862 1.9580001 2.1321968e-38
-0.78009778 -0.525783 1.9456253 2.1321968e-38
-0.84846669 -0.51280951 1.9580001 2.1321968e-38
-0.83156866 -0.50961435 1.9338001 2.1321968e-38
-0.77334052 -0.51093864 1.9387501 2.1321968e-38
-1.0810486 -0.45059144 1.9470001 2.1321968e-38
-1.0644584 -0.44911301 1.9346251 2.1321968e-38
-1.0395001 -0.44550002 1.9250001 2.1321968e-38
-0.86805069 -0.44771704 1.9520416 2.1321968e-38
-0.77707851 -0.44676238 1.9451668 2.1321968e-38
-0.74327201 -0.44618335 1.9402311 2.1321968e-38
-1.0834267 -0.43262476 1.9580001 2.1321968e-38
-1.0655785 -0.43092453 1.9408888 2.1321968e-38
-0.88994914 -0.40883094 1.9546156 2.1321968e-38
-0.86527902 -0.42401105 1.9490808 2.1321968e-38
-0.82203221 -0.41388845 1.9372942 2.1321968e-38
-0.79412317 -0.41941079 1.9286668 2.1321968e-38
-0.74089575 -0.43060416 1.9249997 2.1321968e-38
-0.92766672 -0.36483335 1.9250001 2.1321968e-38
-0.89680427 -0.38202786 1.934625 2.1321968e-38
-0.85143143 -0.3854332 1.9288821 2.1321968e-38
-0.8252477 -0.3810229 1.926 2.1321968e-38
-0.78771365 -0.36382115 1.930077 2.1321968e-38
-0.92950004 -0.35566667 1.9250001 2.1321968e-38
-0.84805697 -0.33698997 1.9396667 2.1321968e-38
-0.82124382 -0.34119731 1.9445893 2.1321968e-38
-0.78295767 -0.34555483 1.9344604 2.1321968e-38
-0.84149998 -0.31533337 1.9250001 2.1321968e-38
-0.82848597 -0.31376347 1.9288498 2.1321968e-38
-0.79566669 -0.31716669 1.9250001 2.1321968e-38
-0.46898913 -0.46501356 1.7503084 2.1321968e-38
-0.56405383 -0.41327697 1.8451668 2.1321968e-38
-0.59435517 -0.47247088 1.8090225 2.1321968e-38
-0.62318963 -0.68681514 1.952623 2.1321968e-38
-0.50159281 -0.65401405 1.946575 2.1321968e-38
-0.54536933 -0.58936161 1.8748372 2.1321968e-38
-0.65589041 -0.60793686 1.956753 2.1321968e-38
-0.65290123 -0.56563938 1.9241395 2.1321968e-38
-0.81039274 -0.50237966 1.550369 2.1321968e-38
-0.7375049 -0.73987913 1.9697676 2.1321968e-38
-0.70324367 -0.73952347 1.9844352 2.1321968e-38
-0.67500347 -0.74481839 1.9920002 2.1321968e-38
-0.72400331 -0.70499671 1.9704667 2.1321968e-38
-0.70097989 -0.69505644 1.9718614 2.1321968e-38
-0.66785586 -0.69296741 1.987542 2.1321968e-38
-0.68543583 -0.66545802 1.9711295 2.1321968e-38
-0.67318684 -0.65730435 1.9823639 2.1321968e-38
-0.66203827 -0.62789971 1.9706104 2.1321968e-38
-0.89109075 -0.52917284 1.9784803 2.1321968e-38
-0.87660575 -0.53455627 1.9880002 2.1321968e-38
-0.89899015 -0.5161404 1.9803336 2.1321968e-38
-0.85791588 -0.50435978 1.9798754 2.1321968e-38
-0.8225261 -0.49989676 1.9795696 2.1321968e-38
-1.0700204 -0.46728459 1.9792222 2.1321968e-38
-0.84233147 -0.47997716 1.9920001 2.1321968e-38
-0.80872387 -0.46473455 1.9803002 2.1321968e-38
-0.76798457 -0.46596685 1.9866366 2.1321968e-38
-1.0883757 -0.42569488 1.97675 2.1321968e-38
-1.0699276 -0.41942829 1.9690001 2.1321968e-38
-0.88770837 -0.4068076 1.9753125 2.1321968e-38
-0.8638978 -0.41692472 1.9764502 2.1321968e-38
-0.82863998 -0.42082971 1.9856822 2.1321968e-38
-0.94474286 -0.36205715 1.9800001 2.1321968e-38
-0.89789724 -0.37066096 1.972 2.1321968e-38
-0.84625971 -0.36589611 1.9702222 2.1321968e-38
-0.834481 -0.36754668 1.9690001 2.1321968e-38
-0.78760004 -0.37129718 1.9690001 2.1321968e-38
-0.84573239 -0.35817048 1.9690002 2.1321968e-38
-0.81855232 -0.3405647 1.9713 2.1321968e-38
-0.93723369 -0.20128331 1.664381 2.1321968e-38
-0.72298765 -0.77131402 2.0030003 2.1321968e-38
-0.70519572 -0.76857978 2.0033326 2.1321968e-38
-0.64924747 -0.75361305 1.9992673 2.1321968e-38
-0.61204487 -0.76721853 2.019105 2.1321968e-38
-0.58121866 -0.7737053 2.0221109 2.1321968e-38
-0.52610034 -0.7552743 2.0025239 2.1321968e-38
-0.54244727 -0.73708522 1.9997773 2.1321968e-38
-0.48815733 -0.70273989 1.9981712 2.1321968e-38
-0.37311438 -0.69614285 1.9584023 2.1321968e-38
-0.48510912 -0.74093235 1.9854288 2.1321968e-38
-0.69900554 -0.74116266 2.0060534 2.1321968e-38
-0.6634022 -0.74070626 2.0196335 2.1321968e-38
-0.62494278 -0.74373275 2.033 2.1321968e-38
-0.57091999 -0.75928479 2.039 2.1321968e-38
-0.52981639 -0.74989891 2.0389998 2.1321968e-38
-0.51266289 -0.75216448 2.039 2.1321968e-38
-0.46379492 -0.75904173 2.0342 2.1321968e-38
-0.68580925 -0.71316898 2.0040002 2.1321968e-38
-0.65743494 -0.70018601 2.011591 2.1321968e-38
-0.62998021 -0.69483674 2.0221999 2.1321968e-38
-0.66182512 -0.66948354 2.0049348 2.1321968e-38
-0.6214298 -0.66981924 2.0203686 2.1321968e-38
-0.58987713 -0.6591084 2.0270002 2.1321968e-38
-0.92855912 -0.53281146 2.0270002 2.1321968e-38
-0.89132202 -0.52920163 2.0052855 2.1321968e-38
-0.86978304 -0.52996367 2.0090001 2.1321968e-38
-1.0989287 -0.48416519 2.0222003 2.1321968e-38
-0.8644948 -0.50640047 2.0068994 2.1321968e-38
-0.82571894 -0.49160206 2.011081 2.1321968e-38
-1.1243629 -0.47965047 2.039 2.1321968e-38
-1.0984609 -0.46869415 2.0098572 2.1321968e-38
-0.84312099 -0.47329047 2.0120001 2.1321968e-38
-0.83209056 -0.46901417 2.0129128 2.1321968e-38
-0.78088474 -0.47124872 2.0093157 2.1321968e-38
-1.1045115 -0.42349142 2.003 2.1321968e-38
-0.89721149 -0.41276261 2.0130002 2.1321968e-38
-0.84582901 -0.42030242 2.0054004 2.1321968e-38
-0.83210891 -0.41950548 2.0085385 2.1321968e-38
-0.94036746 -0.39129382 2.0389998 2.1321968e-38
-0.89828801 -0.39501366 2.0170002 2.1321968e-38
-0.6485697 -0.76759392 2.054158 2.1321968e-38
-0.62220353 -0.76684934 2.0523336 2.1321968e-38
-0.58053488 -0.76644498 2.0542977 2.1321968e-38
-0.53845227 -0.76927584 2.0513079 2.1321968e-38
-0.49983749 -0.76763368 2.0535712 2.1321968e-38
-0.45850945 -0.76578027 2.0619652 2.1321968e-38
-0.43689561 -0.77026451 2.0510001 2.1321968e-38
-0.65380317 -0.7519393 2.0531819 2.1321968e-38
-0.61950666 -0.74278945 2.0622287 2.1321968e-38
-0.58151013 -0.74207401 2.067234 2.1321968e-38
-0.54144406 -0.74692458 2.0611868 2.1321968e-38
-0.50245339 -0.75069773 2.0657308 2.1321968e-38
-0.47359335 -0.7557171 2.0594618 2.1321968e-38
-0.57314348 -0.69777018 2.0722859 2.1321968e-38
-0.555273 -0.6888063 2.0760002 2.1321968e-38
-0.84188676 -0.47075334 2.0510001 2.1321968e-38
-0.94046104 -0.40663242 2.0760002 2.1321968e-38
-0.91344005 -0.40926862 2.0760002 2.1321968e-38
-0.85301816 -0.41964003 2.059 2.1321968e-38
-0.932845 -0.39288726 2.0552859 2.1321968e-38
-0.60253716 -0.76361144 2.0880001 2.1321968e-38
-0.59657145 -0.76361144 2.0880001 2.1321968e-38
-0.46234289 -0.76361144 2.0880001 2.1321968e-38
-0.60253716 -0.75764573 2.0880001 2.1321968e-38
-0.57508576 -0.73247319 2.1061389 2.1321968e-38
-0.54149252 -0.73623759 2.0987389 2.1321968e-38
-0.49526075 -0.73874599 2.0937278 2.1321968e-38
-0.46750623 -0.75050431 2.0988834 2.1321968e-38
-0.56829929 -0.70473593 2.0950909 2.1321968e-38
-0.95230669 -0.41072002 2.1140001 2.1321968e-38
-0.91673148 -0.41561142 2.0880001 2.1321968e-38
-0.86556256 -0.41935873 2.1086817 2.1321968e-38
-0.56652486 -0.72993243 2.1270003 2.1321968e-38
-0.96440732 -0.41487968 2.1530004 2.1321968e-38
-0.95549977 -0.4193297 2.1418574 2.1321968e-38
-0.92476481 -0.37113622 2.1530001 2.1321968e-38
-0.96725053 -0.41709495 2.1716669 2.1321968e-38
-0.9431107 -0.38799921 2.1785002 2.1321968e-38
-0.98444384 -0.41801792 2.2257998 2.1321968e-38
-0.96790934 -0.39495361 2.21175 2.1321968e-38
-0.8436234 -0.47850287 1.8216598 2.1321968e-38
-0.91624975 -0.47970778 1.8200663 2.1321968e-38
-0.47580311 -0.56217748 1.6945817 2.1321968e-38
-0.97666025 -0.48819473 1.8156779 2.1321968e-38
-0.97477251 -0.58068985 1.693023 2.1321968e-38
-0.83156866 -0.50961435 1.9338001 2.1321968e-38
-0.924739 -0.5563848 1.8280001 2.1321968e-38
-0.86156958 -0.54509324 1.8245988 2.1321968e-38
-0.94544321 -0.26163244 1.706 2.1321968e-38
-0.91474098 -0.23884001 1.7060001 2.1321968e-38
0.90682876 -0.4998039 1.8642504 2.289495e-38
0.92528754 -0.5088954 1.8730003 2.289495e-38
0.93014228 -0.51349115 1.8830003 2.289495e-38
1.0128527 -0.62240016 1.9580001 2.289495e-38
0.84473717 -0.57248193 1.9580001 2.289495e-38
0.97786391 -0.57426447 1.9563079 2.289495e-38
0.95588368 -0.54919189 1.9360001 2.289495e-38
0.96929646 -0.54940552 1.9497503 2.289495e-38
0.97775692 -0.51405275 1.9580001 2.289495e-38
1.0125657 -0.46166182 1.9580002 2.289495e-38
0.98588198 -0.60392392 1.9920001 2.289495e-38
1.0096282 -0.62407929 1.9690001 2.289495e-38
0.83573115 -0.57444799 1.9690002 2.289495e-38
0.85939199 -0.58019769 1.977 2.289495e-38
0.98905164 -0.58567882 1.9792502 2.289495e-38
0.98622859 -0.52234286 1.9800001 2.289495e-38
1.0167074 -0.4711059 1.98125 2.289495e-38
0.9358719 -0.64381051 2.0240002 2.289495e-38
0.8770048 -0.60641909 2.0150001 2.289495e-38
0.88892126 -0.60908806 2.0302727 2.289495e-38
0.9379949 -0.63641465 2.0210004 2.289495e-38
0.98743135 -0.60896355 2.0178237 2.289495e-38
1.038919 -0.61558384 2.039 2.289495e-38
1.0486286 -0.63888663 2.039 2.289495e-38
0.8698743 -0.59708476 2.003 2.289495e-38
0.88645238 -0.59415805 2.006 2.289495e-38
0.95341551 -0.56256098 2.0078001 2.289495e-38
0.98099834 -0.57511175 2.014478 2.289495e-38
1.0014999 -0.59326953 2.003 2.289495e-38
0.95762479 -0.55702478 2.003 2.289495e-38
0.99057478 -0.54482156 2.0102003 2.289495e-38
1.0187232 -0.5374282 2.0214615 2.289495e-38
1.0303214 -0.49582446 2.0310001 2.289495e-38
1.0475544 -0.49807617 2.0323334 2.289495e-38
1.0190442 -0.47419775 2.0050001 2.289495e-38
1.0424572 -0.47103623 2.0270002 2.289495e-38
0.94994289 -0.64782113 2.0661113 2.289495e-38
0.9786858 -0.64652574 2.0760002 2.289495e-38
0.87483525 -0.61127973 2.0550003 2.289495e-38
0.89131248 -0.61833394 2.0536432 2.289495e-38
0.94215554 -0.62499923 2.0667031 2.289495e-38
0.97769946 -0.62678826 2.0641668 2.289495e-38
1.0179198 -0.61345547 2.06585 2.289495e-38
1.0581269 -0.61515421 2.0614531 2.289495e-38
0.91623402 -0.57371056 2.0630002 2.289495e-38
0.92749274 -0.57977891 2.0705833 2.289495e-38
0.99071515 -0.58675635 2.059 2.289495e-38
1.0215808 -0.59558004 2.0558002 2.289495e-38
1.0584816 -0.5942651 2.0631874 2.289495e-38
1.0814973 -0.59116578 2.0760002 2.289495e-38
0.95518005 -0.54302669 2.0510001 2.289495e-38
0.9646982 -0.54620385 2.0630002 2.289495e-38
1.0258058 -0.53921914 2.0667601 2.289495e-38
1.0587004 -0.54324782 2.0624287 2.289495e-38
1.0298045 -0.50776476 2.0691001 2.289495e-38
1.0588281 -0.51299053 2.0721765 2.289495e-38
0.98854667 -0.68252003 2.1140001 2.289495e-38
0.93315107 -0.65143287 2.1046112 2.289495e-38
0.98935968 -0.66245645 2.1005812 2.289495e-38
1.0182027 -0.66549075 2.1110806 2.289495e-38
1.0647765 -0.64666951 2.1028571 2.289495e-38
1.0838444 -0.64493787 2.1140001 2.289495e-38
0.94025135 -0.62015241 2.1016498 2.289495e-38
0.98019451 -0.62808019 2.0981114 2.289495e-38
1.0230693 -0.60983729 2.1002355 2.289495e-38
1.0617336 -0.63314754 2.1028571 2.289495e-38
0.9384467 -0.59828478 2.1010001 2.289495e-38
0.98734087 -0.56344026 2.1114004 2.289495e-38
1.00264 -0.56876671 2.1140001 2.289495e-38
1.0706794 -0.57911229 2.0896251 2.289495e-38
1.090248 -0.58777034 2.1036003 2.289495e-38
0.98049247 -0.55570525 2.1082222 2.289495e-38
1.0256027 -0.54118299 2.0927894 2.289495e-38
1.0591332 -0.53888065 2.0930555 2.289495e-38
1.0860007 -0.53837419 2.1034377 2.289495e-38
1.0360457 -0.50509715 2.0880001 2.289495e-38
1.044 -0.51106286 2.0880001 2.289495e-38
1.0189344 -0.68266571 2.1270001 2.289495e-38
1.0477934 -0.69511151 2.1530001 2.289495e-38
1.0241624 -0.64803863 2.1465001 2.289495e-38
1.0857829 -0.64620286 2.1270001 2.289495e-38
0.96991217 -0.61240762 2.134429 2.289495e-38
1.0266107 -0.62212324 2.1486666 2.289495e-38
1.1113582 -0.60284001 2.1530001 2.289495e-38
0.9581629 -0.59150863 2.1270001 2.289495e-38
0.98833174 -0.57151204 2.1340909 2.289495e-38
1.0141995 -0.58572912 2.1428885 2.289495e-38
1.1094314 -0.58983606 2.1479445 2.289495e-38
1.1216105 -0.59053713 2.1530001 2.289495e-38
0.97842008 -0.55302 2.1270001 2.289495e-38
1.0752881 -0.54705948 2.1465001 2.289495e-38
1.088014 -0.55067599 2.1476469 2.289495e-38
1.0380962 -0.69963145 2.1670001 2.289495e-38
1.0627044 -0.70405841 2.1850002 2.289495e-38
1.0290227 -0.6462819 2.1761665 2.289495e-38
1.0495354 -0.64906645 2.1851113 2.289495e-38
0.98978496 -0.61532515 2.1763334 2.289495e-38
1.0246385 -0.62133294 2.1829143 2.289495e-38
1.0465758 -0.63333189 2.1805 2.289495e-38
1.1082658 -0.60056859 2.1670001 2.289495e-38
0.9913165 -0.58680987 2.1670003 2.289495e-38
1.0044742 -0.59292454 2.1774616 2.289495e-38
1.1082658 -0.59437716 2.1670001 2.289495e-38
1.0723791 -0.70339435 2.2180002 2.289495e-38
1.0355413 -0.65140074 2.2225001 2.289495e-38
1.0574133 -0.66199833 2.2183528 2.289495e-38
1.0222069 -0.62174922 2.2108572 2.289495e-38
1.0423329 -0.63511002 2.2155001 2.289495e-38
1.0072687 -0.58880007 2.2080002 2.289495e-38
1.03592 -0.64986289 2.2520001 2.289495e-38
1.0433142 -0.64792866 2.2535558 2.289495e-38
1.044499 -0.63484955 2.2520001 2.289495e-38
0.23189504 -0.0043225097 0.58711278 1.2841711e-38
0.24504888 -0.0084165651 0.59452993 1.2841711e-38
0.22569874 0.0026850284 0.58711988 1.2841711e-38
0.24145734 0.0014974892 0.59654552 1.2841711e-38
0.23323502 -0.15427285 0.639 1.2841711e-38
0.23903525 -0.020210477 0.60625005 1.2841711e-38
0.25590923 -0.023039527 0.60905659 1.2841711e-38
0.23435386 -0.16854206 0.65329075 1.2841711e-38
0.24738774 -0.17792276 0.65638036 1.2841711e-38
0.23215868 -0.15387473 0.64513218 1.2841711e-38
0.24371333 -0.15206023 0.64719999 1.2841711e-38
0.25290912 -0.12943847 0.74454075 1.2841711e-38
0.26074183 -0.11683583 0.73408717 1.2841711e-38
0.3181724 -0.20300001 0.87 1.2841711e-38
0.32388622 -0.20201382 0.87650007 1.2841711e-38
0.30432984 -0.18271112 0.87466669 1.2841711e-38
0.32585534 -0.19047435 0.87666684 1.2841711e-38
0.43841338 -0.33448669 0.91700006 1.2841711e-38
0.3027423 -0.2055382 0.89326352 1.2841711e-38
0.33661297 -0.2030665 0.88695341 1.2841711e-38
0.306283 -0.19199662 0.88805348 1.2841711e-38
0.32903364 -0.19355631 0.88690025 1.2841711e-38
0.32779151 -0.32111436 0.89889091 1.2841711e-38
0.44357863 -0.36627147 0.95200014 1.2841711e-38
0.43209004 -0.33588442 0.93978184 1.2841711e-38
0.44202569 -0.33726108 0.93350011 1.2841711e-38
0.42717066 -0.31669208 0.95344448 1.2841711e-38
0.44371271 -0.3091439 0.95323527 1.2841711e-38
0.43199238 -0.36243427 0.96100003 1.2841711e-38
0.44583258 -0.36227545 0.96400005 1.2841711e-38
0.43223727 -0.33207312 0.96741676 1.2841711e-38
0.44667459 -0.35660443 0.96305001 1.2841711e-38
0.4302128 -0.31351554 0.9642902 1.2841711e-38
0.44796804 -0.30349129 0.96640027 1.2841711e-38
0.30915555 -0.40584615 1.039 1.2841711e-38
0.3282274 -0.40294987 1.0352224 1.2841711e-38
0.31187648 -0.39602453 1.0377144 1.2841711e-38
0.33628145 -0.37751856 1.0352899 1.2841711e-38
0.33408734 -0.35130215 1.0380293 1.2841711e-38
0.30236471 -0.40516877 1.0492334 1.2841711e-38
0.348692 -0.4061144 1.0529217 1.2841711e-38
0.36920297 -0.40576428 1.0669168 1.2841711e-38
0.30294862 -0.39024073 1.0531621 1.2841711e-38
0.336422 -0.37911257 1.0577606 1.2841711e-38
0.36483243 -0.38271523 1.0633914 1.2841711e-38
0.31482542 -0.35166669 1.0550003 1.2841711e-38
0.32884541 -0.35689577 1.0449091 1.2841711e-38
0.38927963 -0.41462204 1.1069367 1.2841711e-38
0.40522084 -0.41841292 1.0977213 1.2841711e-38
0.34844494 -0.37833449 1.0845002 1.2841711e-38
0.3698673 -0.37025562 1.0942221 1.2841711e-38
0.40280002 -0.39750001 1.113 1.2841711e-38
0.28333059 -0.28195286 1.0314493 1.2841711e-38
0.3974264 -0.41237554 1.122 1.2841711e-38
0.42303345 -0.42404386 1.130586 1.2841711e-38
0.45341173 -0.41756591 1.142866 1.2841711e-38
0.39421961 -0.3855806 1.1268752 1.2841711e-38
0.41332102 -0.3890824 1.1257123 1.2841711e-38
0.44806153 -0.3948389 1.1435834 1.2841711e-38
0.46815944 -0.43144971 1.1610001 1.2841711e-38
0.50215572 -0.40131384 1.2100002 1.2841711e-38
0.50238365 -0.39030004 1.2239298 1.2841711e-38
0.5296998 -0.38438311 1.2342501 1.2841711e-38
0.528 -0.35434669 1.2320001 1.2841711e-38
0.47152132 -0.25946978 1.2332309 1.2841711e-38
0.50946754 -0.24578743 1.2360001 1.2841711e-38
0.50800842 -0.23661792 1.2336001 1.2841711e-38
0.54315799 -0.40368772 1.256875 1.2841711e-38
0.56613672 -0.40438336 1.2770001 1.2841711e-38
0.50759465 -0.38304859 1.2463604 1.2841711e-38
0.53334904 -0.38625711 1.2501085 1.2841711e-38
0.53171718 -0.35804671 1.2490001 1.2841711e-38
0.51323235 -0.28094003 1.2770001 1.2841711e-38
0.47785121 -0.24799991 1.2595 1.2841711e-38
0.49916482 -0.25731027 1.2514187 1.2841711e-38
0.47614723 -0.22648521 1.2483875 1.2841711e-38
0.48247409 -0.22714995 1.247667 1.2841711e-38
0.43313247 -0.41632375 1.2941878 1.2841711e-38
0.44943181 -0.41562706 1.3130001 1.2841711e-38
0.54934925 -0.40257972 1.3060001 1.2841711e-38
0.56691742 -0.40892509 1.2900001 1.2841711e-38
0.45245337 -0.39981338 1.3160001 1.2841711e-38
0.54458624 -0.39313111 1.3019725 1.2841711e-38
0.51157904 -0.28204003 1.2820001 1.2841711e-38
0.51351738 -0.27400014 1.2831111 1.2841711e-38
0.4670653 -0.4440546 1.3398336 1.2841711e-38
0.48285717 -0.44809148 1.3520001 1.2841711e-38
0.43760246 -0.40589127 1.3318336 1.2841711e-38
0.46225035 -0.4192524 1.3403332 1.2841711e-38
0.4809882 -0.4270021 1.3498574 1.2841711e-38
0.4669064 -0.39845496 1.3310001 1.2841711e-38
0.49935791 -0.447889 1.3930001 1.2841711e-38
0.45141694 -0.40689027 1.3715386 1.2841711e-38
0.45216635 -0.39875367 1.3717779 1.2841711e-38
0.50859326 -0.45892778 1.4090002 1.2841711e-38
0.17811468 -0.061017759 0.81362855 1.2841711e-38
0.51323235 -0.28094003 1.2770001 1.2841711e-38
0.47785121 -0.24799991 1.2595 1.2841711e-38
0.53171718 -0.35804671 1.2490001 1.2841711e-38
0.56613672 -0.40438336 1.2770001 1.2841711e-38
0.50759465 -0.38304859 1.2463604 1.2841711e-38
