# .PCD v0.7 - Point Cloud Data file format
VERSION 0.7
FIELDS x y z rgb
SIZE 4 4 4 4
TYPE F F F F
COUNT 1 1 1 1
WIDTH 1048
HEIGHT 1
VIEWPOINT 0 0 0 1 0 0 0
POINTS 1048
DATA ascii
-0.66025573 -0.58008683 2.0104449 2.255928e-38
-0.63152766 -0.57624018 2.0312111 2.255928e-38
-0.65482432 -0.54309648 2.0054581 2.255928e-38
-0.62411547 -0.53826618 2.0223839 2.255928e-38
-0.59305775 -0.52470273 2.039 2.255928e-38
-0.64541113 -0.51251364 2.0030003 2.255928e-38
-0.61768091 -0.49989873 2.0094538 2.255928e-38
-0.59039652 -0.49735129 2.0270004 2.255928e-38
-0.61254287 -0.46130282 2.00525 2.255928e-38
-0.58365387 -0.46107522 2.0143762 2.255928e-38
-0.60861206 -0.43306193 2.0165 2.255928e-38
-0.59298575 -0.43946192 2.0150001 2.255928e-38
1.0362858 -0.21541311 2.0150001 2.255928e-38
1.0459571 -0.22232917 2.0234704 2.255928e-38
-0.085631058 0.3069821 2.0342002 2.255928e-38
-0.071362555 0.31040904 2.0359039 2.255928e-38
-0.085232995 0.34371972 2.0133634 2.255928e-38
-0.060967505 0.34132662 2.0248067 2.255928e-38
-0.035342675 0.35031959 2.0389998 2.255928e-38
-0.083999522 0.36653855 2.0045002 2.255928e-38
-0.056947421 0.37932375 2.0100005 2.255928e-38
-0.025819078 0.3854408 2.0304005 2.255928e-38
-0.056532077 0.41020098 2.003315 2.255928e-38
-0.023210341 0.41210893 2.0242145 2.255928e-38
0.0080450345 0.4058581 2.039 2.255928e-38
-0.69845635 -0.80282009 2.0510004 2.255928e-38
-0.66149902 -0.80372703 2.0550001 2.255928e-38
-0.63092667 -0.80282003 2.0510001 2.255928e-38
-0.56060666 -0.80477333 2.0510001 2.255928e-38
-0.54768473 -0.80582529 2.0510006 2.255928e-38
-0.49658075 -0.80542451 2.0510001 2.255928e-38
-0.45784935 -0.80619717 2.0534706 2.255928e-38
-0.42121238 -0.80659783 2.0514998 2.255928e-38
-0.38697711 -0.80368829 2.0510004 2.255928e-38
-0.33264118 -0.80580753 2.0510004 2.255928e-38
-0.30611524 -0.80616874 2.0509999 2.255928e-38
-0.2569285 -0.8051641 2.0510006 2.255928e-38
-0.22235692 -0.80568326 2.0524998 2.255928e-38
-0.16847657 -0.80545366 2.0540001 2.255928e-38
-0.14884403 -0.8059454 2.0510006 2.255928e-38
-0.098440744 -0.80603832 2.0524397 2.255928e-38
-0.082259394 -0.7758168 2.0374217 2.255928e-38
-0.087124817 -0.73379767 2.0204244 2.255928e-38
0.06880074 -0.80499029 2.0510004 2.255928e-38
0.099620007 -0.80386186 2.0510006 2.255928e-38
0.10843205 -0.79036951 2.0440941 2.255928e-38
0.06506981 -0.75419211 2.0184093 2.255928e-38
0.088081889 -0.7102533 2.0092289 2.255928e-38
0.10050038 -0.71257615 2.0036864 2.255928e-38
0.19245741 -0.7172491 2.0106227 2.255928e-38
0.099375762 -0.61645806 1.9688554 2.255928e-38
0.17245148 -0.70377231 2.001703 2.255928e-38
0.061389383 -0.68573093 1.9624654 2.255928e-38
0.17411685 -0.65956473 1.9748214 2.255928e-38
0.50018984 -0.80419213 2.0550001 2.255928e-38
0.35309771 -0.72255462 2.0142186 2.255928e-38
0.57776707 -0.80461639 2.0516002 2.255928e-38
0.57800055 -0.79822975 2.0476527 2.255928e-38
0.6564725 -0.80548847 2.0519998 2.255928e-38
0.69894195 -0.80498582 2.0515454 2.255928e-38
0.72468674 -0.80282003 2.0510001 2.255928e-38
0.81551671 -0.80379665 2.0510001 2.255928e-38
0.99327004 -0.80379665 2.0510001 2.255928e-38
1.0814974 -0.80865157 2.0760002 2.255928e-38
-0.72078001 -0.78328669 2.0510001 2.255928e-38
-0.69704354 -0.7799412 2.0605991 2.255928e-38
-0.6622439 -0.78773129 2.0657051 2.255928e-38
-0.61852705 -0.79177672 2.0630171 2.255928e-38
-0.580576 -0.78567922 2.0626955 2.255928e-38
-0.5415082 -0.78747356 2.0632777 2.255928e-38
-0.49794248 -0.78902113 2.061697 2.255928e-38
-0.46444622 -0.7887513 2.0660014 2.255928e-38
-0.42062634 -0.79272389 2.0520673 2.255928e-38
-0.37740085 -0.79359704 2.0532107 2.255928e-38
-0.34066743 -0.79130322 2.064599 2.255928e-38
-0.29965904 -0.79118782 2.0616484 2.255928e-38
-0.25963992 -0.7918818 2.0606389 2.255928e-38
-0.21852218 -0.79164863 2.0665019 2.255928e-38
-0.18138601 -0.79214603 2.0670815 2.255928e-38
-0.13991998 -0.7870338 2.0631406 2.255928e-38
-0.10109688 -0.79055715 2.0660737 2.255928e-38
-0.058634806 -0.78632081 2.063256 2.255928e-38
-0.028310386 -0.79436773 2.0553637 2.255928e-38
0.068366669 -0.79356736 2.0510001 2.255928e-38
0.10141861 -0.78703403 2.0583189 2.255928e-38
0.14048839 -0.78932071 2.0648544 2.255928e-38
0.1804525 -0.78955978 2.0638909 2.255928e-38
0.22056557 -0.79036134 2.0628123 2.255928e-38
0.25879151 -0.79317445 2.0632398 2.255928e-38
0.29900402 -0.79376239 2.0670497 2.255928e-38
0.34225446 -0.79626399 2.066695 2.255928e-38
0.37882611 -0.79076999 2.064297 2.255928e-38
0.42046404 -0.79185712 2.0656779 2.255928e-38
0.45782623 -0.79210168 2.0668464 2.255928e-38
0.49967542 -0.79283673 2.066798 2.255928e-38
0.54035306 -0.79192871 2.0652077 2.255928e-38
0.58315814 -0.79390806 2.062418 2.255928e-38
0.62020445 -0.79196084 2.0657773 2.255928e-38
0.66000968 -0.7956382 2.063256 2.255928e-38
0.70103043 -0.79228497 2.0650885 2.255928e-38
0.73924357 -0.78879237 2.0617445 2.255928e-38
0.77961332 -0.7813102 2.0620315 2.255928e-38
0.81983185 -0.78336728 2.0575883 2.255928e-38
0.86106455 -0.77878141 2.0622513 2.255928e-38
0.89776272 -0.77895522 2.061301 2.255928e-38
0.94029814 -0.78125948 2.0613723 2.255928e-38
0.9809218 -0.78604579 2.0644226 2.255928e-38
1.0191158 -0.78797638 2.0679793 2.255928e-38
1.0565501 -0.79229999 2.0704329 2.255928e-38
-0.69324827 -0.7399798 2.0558851 2.255928e-38
-0.66091335 -0.73779076 2.0662467 2.255928e-38
0.86842489 -0.75643337 2.0630002 2.255928e-38
0.89396667 -0.75643337 2.0630002 2.255928e-38
-0.68931079 -0.7071901 2.0523715 2.255928e-38
-0.6589362 -0.69896907 2.0580108 2.255928e-38
-0.63332647 -0.69046021 2.0711854 2.255928e-38
-0.65611404 -0.66496783 2.0544295 2.255928e-38
-0.62825668 -0.65906674 2.0674806 2.255928e-38
-0.64394897 -0.63418221 2.0510004 2.255928e-38
-0.62087423 -0.62108684 2.0601332 2.255928e-38
-0.59592873 -0.60857999 2.0747001 2.255928e-38
-0.61380982 -0.58260208 2.0522006 2.255928e-38
-0.58771139 -0.57889634 2.0663133 2.255928e-38
-0.54569149 -0.57930291 2.0760002 2.255928e-38
-0.60707617 -0.54690087 2.0516002 2.255928e-38
-0.58020878 -0.54105651 2.0580101 2.255928e-38
-0.55233741 -0.53716743 2.0611846 2.255928e-38
-0.57270843 -0.50147343 2.0530636 2.255928e-38
-0.5526939 -0.50329357 2.0627866 2.255928e-38
-0.56581557 -0.47552818 2.0510004 2.255928e-38
1.049183 -0.23184191 2.063 2.255928e-38
-0.070731439 0.19844097 2.0630002 2.255928e-38
-0.091498248 0.2244681 2.0627129 2.255928e-38
-0.062614851 0.22402231 2.072068 2.255928e-38
-0.037565719 0.23923431 2.0760002 2.255928e-38
-0.088319913 0.25962803 2.0590382 2.255928e-38
-0.058980133 0.26071349 2.0613444 2.255928e-38
-0.032096438 0.26697305 2.0731113 2.255928e-38
-0.088685691 0.29413223 2.0523331 2.255928e-38
-0.055551182 0.29773629 2.0515924 2.255928e-38
-0.021823971 0.30133381 2.0651009 2.255928e-38
0.0019771433 0.30777526 2.0760002 2.255928e-38
-0.044145338 0.32737869 2.0510004 2.255928e-38
-0.017867519 0.33898509 2.0599105 2.255928e-38
0.009181642 0.34616065 2.0711257 2.255928e-38
-0.01256245 0.3745513 2.0553856 2.255928e-38
0.017045988 0.38194031 2.0642431 2.255928e-38
0.044595558 0.39213336 2.0760002 2.255928e-38
-0.0088474518 0.42088592 2.0510004 2.255928e-38
0.015517636 0.40837061 2.0561607 2.255928e-38
0.041520003 0.40333718 2.0760002 2.255928e-38
0.34402284 -0.80139434 2.0880001 2.255928e-38
1.09421 -0.80561787 2.10425 2.255928e-38
-0.68208003 -0.77554286 2.0880001 2.255928e-38
-0.65681261 -0.77816612 2.089886 2.255928e-38
-0.62212938 -0.77435541 2.0972846 2.255928e-38
-0.58138353 -0.77031928 2.1028564 2.255928e-38
-0.53885925 -0.7728101 2.1032274 2.255928e-38
-0.50202298 -0.77361208 2.1032524 2.255928e-38
-0.4683013 -0.77927274 2.0906003 2.255928e-38
-0.32857823 -0.78098851 2.095968 2.255928e-38
-0.29815254 -0.7770285 2.1021507 2.255928e-38
-0.2597692 -0.77592641 2.1009989 2.255928e-38
-0.2211155 -0.77312446 2.0997756 2.255928e-38
-0.18024312 -0.77604055 2.1012814 2.255928e-38
-0.14083113 -0.76934361 2.1007991 2.255928e-38
-0.09910208 -0.77356613 2.1014802 2.255928e-38
-0.063350394 -0.76968628 2.1004896 2.255928e-38
0.11385278 -0.77328551 2.1010003 2.255928e-38
0.14083004 -0.77344269 2.1013238 2.255928e-38
0.17953046 -0.77275151 2.1028326 2.255928e-38
0.21911436 -0.77421188 2.1022081 2.255928e-38
0.26111791 -0.77737349 2.1053782 2.255928e-38
0.29946122 -0.77654445 2.1027515 2.255928e-38
0.34016281 -0.78148586 2.1031461 2.255928e-38
0.38039204 -0.77503633 2.1033204 2.255928e-38
0.42112315 -0.77566046 2.1043634 2.255928e-38
0.46046382 -0.77608895 2.1035385 2.255928e-38
0.49952304 -0.77879739 2.1049986 2.255928e-38
0.54156297 -0.77680206 2.1051283 2.255928e-38
0.58040065 -0.77944261 2.1041462 2.255928e-38
0.62099248 -0.77685845 2.1047344 2.255928e-38
0.66145658 -0.78194433 2.1039472 2.255928e-38
0.69866979 -0.77563453 2.1006048 2.255928e-38
0.74054974 -0.77260417 2.1019018 2.255928e-38
0.77789742 -0.76794749 2.0994568 2.255928e-38
0.82199752 -0.77004343 2.0994568 2.255928e-38
0.85898674 -0.76791996 2.102824 2.255928e-38
0.89644051 -0.7623505 2.0934737 2.255928e-38
0.94187385 -0.76827919 2.097533 2.255928e-38
0.97925854 -0.77061057 2.100816 2.255928e-38
1.0197875 -0.76987118 2.0954623 2.255928e-38
1.0614539 -0.7761603 2.1052775 2.255928e-38
1.0880569 -0.77987784 2.1061213 2.255928e-38
-0.64501268 -0.74012727 2.0958936 2.255928e-38
-0.61999422 -0.74108315 2.1050913 2.255928e-38
-0.58745497 -0.75006396 2.1136382 2.255928e-38
-0.52447337 -0.75399339 2.1140001 2.255928e-38
-0.49768996 -0.74917716 2.1131868 2.255928e-38
-0.29998669 -0.75902671 2.1140001 2.255928e-38
-0.24495554 -0.75768447 2.1140001 2.255928e-38
-0.22589599 -0.75741607 2.1140003 2.255928e-38
-0.17383279 -0.75672007 2.1131878 2.255928e-38
-0.14858401 -0.75500005 2.1139998 2.255928e-38
-0.093016006 -0.75902671 2.1140001 2.255928e-38
-0.058305167 -0.75584143 2.1107502 2.255928e-38
0.11878667 -0.75701338 2.1140001 2.255928e-38
0.12482668 -0.75902671 2.1140001 2.255928e-38
0.17968997 -0.75751668 2.1140001 2.255928e-38
0.23032533 -0.75741595 2.1140001 2.255928e-38
0.25532728 -0.75426799 2.1139996 2.255928e-38
0.29797336 -0.75902671 2.1140001 2.255928e-38
0.34562224 -0.75768447 2.1140001 2.255928e-38
0.42847392 -0.75683033 2.1140003 2.255928e-38
0.44724768 -0.75787622 2.1140003 2.255928e-38
0.54331243 -0.75845152 2.1140003 2.255928e-38
0.58587998 -0.75902671 2.1140001 2.255928e-38
0.63017333 -0.75902671 2.1140001 2.255928e-38
0.6986267 -0.75835562 2.1140003 2.255928e-38
0.75500005 -0.75902671 2.1140001 2.255928e-38
0.78708827 -0.75562418 2.1121423 2.255928e-38
0.81979072 -0.7537269 2.1133325 2.255928e-38
0.86237782 -0.75529826 2.1139994 2.255928e-38
0.90262622 -0.75300914 2.1064358 2.255928e-38
0.93776196 -0.7485919 2.1113551 2.255928e-38
0.97959137 -0.7512722 2.1115618 2.255928e-38
1.0166572 -0.75329268 2.1100996 2.255928e-38
1.0591573 -0.75413716 2.1139994 2.255928e-38
-0.64230764 -0.71670449 2.0923336 2.255928e-38
-0.6173442 -0.70308834 2.1025283 2.255928e-38
-0.58804429 -0.69581884 2.1115618 2.255928e-38
-0.61024004 -0.66307449 2.0933056 2.255928e-38
-0.58068693 -0.66002226 2.1066942 2.255928e-38
-0.55031121 -0.65080994 2.1139996 2.255928e-38
-0.60611653 -0.63196796 2.0880001 2.255928e-38
-0.57881325 -0.62243831 2.0992742 2.255928e-38
-0.54649252 -0.62323231 2.109508 2.255928e-38
-0.57011217 -0.58573866 2.0903947 2.255928e-38
-0.55114949 -0.58134305 2.0903947 2.255928e-38
1.0765125 -0.24211524 2.1010001 2.255928e-38
-0.03624 0.15905334 2.1140001 2.255928e-38
-0.051763944 0.18980655 2.1069431 2.255928e-38
-0.029498171 0.18796445 2.1111889 2.255928e-38
-0.11107142 0.21911047 2.1010001 2.255928e-38
-0.049930044 0.21070731 2.0917747 2.255928e-38
-0.021996668 0.22198834 2.1068418 2.255928e-38
0.0050333338 0.23354669 2.1140001 2.255928e-38
-0.015970733 0.25743008 2.0954275 2.255928e-38
0.0078930678 0.26173288 2.1103327 2.255928e-38
-0.0076091876 0.28711891 2.091059 2.255928e-38
0.017094834 0.30333337 2.1022806 2.255928e-38
0.045903999 0.30924803 2.1140001 2.255928e-38
0.02541169 0.33696291 2.095026 2.255928e-38
0.055392493 0.34301141 2.1073234 2.255928e-38
0.082546666 0.35636002 2.1140001 2.255928e-38
0.03337688 0.37265301 2.0887222 2.255928e-38
0.058907736 0.37494001 2.1038482 2.255928e-38
0.088299058 0.36383808 2.1140003 2.255928e-38
-0.56508553 -0.76493281 2.1288571 2.255928e-38
-0.54126734 -0.76365763 2.1311054 2.255928e-38
-0.32758722 -0.77304894 2.1417334 2.255928e-38
-0.30460382 -0.76585901 2.1346204 2.255928e-38
-0.26747221 -0.76321423 2.1323531 2.255928e-38
-0.20217144 -0.76297098 2.1335001 2.255928e-38
-0.19709477 -0.76398385 2.1335001 2.255928e-38
-0.12612396 -0.76255596 2.1440001 2.255928e-38
-0.1063242 -0.76217383 2.1386998 2.255928e-38
-0.075409532 -0.76020956 2.1400001 2.255928e-38
0.1424734 -0.76191479 2.135412 2.255928e-38
0.16204223 -0.76137114 2.1356668 2.255928e-38
0.2140251 -0.76137114 2.1356666 2.255928e-38
0.27212098 -0.76504481 2.1270003 2.255928e-38
0.3051604 -0.7622422 2.1343124 2.255928e-38
0.33588272 -0.76430702 2.1294379 2.255928e-38
0.38197044 -0.76273704 2.1348 2.255928e-38
0.40829417 -0.76373595 2.1344287 2.255928e-38
0.47184366 -0.76333749 2.1374004 2.255928e-38
0.5010038 -0.7637288 2.133709 2.255928e-38
0.53624195 -0.76391971 2.1407876 2.255928e-38
0.57827699 -0.76520991 2.1381426 2.255928e-38
0.61568701 -0.76308155 2.1377056 2.255928e-38
0.66272926 -0.76429999 2.136822 2.255928e-38
0.6961183 -0.76195192 2.1334999 2.255928e-38
0.73911774 -0.76315731 2.1372423 2.255928e-38
0.76324809 -0.76121002 2.1400001 2.255928e-38
1.1019745 -0.76758391 2.1318746 2.255928e-38
-0.60331649 -0.73655862 2.1288574 2.255928e-38
-0.57704377 -0.73966718 2.1366081 2.255928e-38
-0.54172766 -0.74318612 2.1449454 2.255928e-38
-0.51381546 -0.74296176 2.1400003 2.255928e-38
-0.32263559 -0.75509465 2.1486669 2.255928e-38
-0.30002391 -0.75303602 2.1418958 2.255928e-38
-0.25833347 -0.75448298 2.1425998 2.255928e-38
-0.21942788 -0.75275153 2.1418569 2.255928e-38
-0.18011351 -0.75007665 2.1450446 2.255928e-38
-0.14132863 -0.74932635 2.1471372 2.255928e-38
-0.098105043 -0.74950576 2.1480982 2.255928e-38
-0.072253302 -0.74575227 2.1440237 2.255928e-38
0.14473094 -0.75151443 2.14624 2.255928e-38
0.17936587 -0.75040114 2.1432498 2.255928e-38
0.220994 -0.74994773 2.1436889 2.255928e-38
0.26195446 -0.74905568 2.1389596 2.255928e-38
0.29849035 -0.75393802 2.145 2.255928e-38
0.34057903 -0.74874127 2.1401684 2.255928e-38
0.38188902 -0.75234729 2.1464999 2.255928e-38
0.42018056 -0.75102103 2.1456873 2.255928e-38
0.45704523 -0.75329602 2.1441362 2.255928e-38
0.49939892 -0.75375748 2.1466379 2.255928e-38
0.53959048 -0.7540198 2.1502144 2.255928e-38
0.58616793 -0.75289965 2.1461577 2.255928e-38
0.61783135 -0.75068951 2.1494312 2.255928e-38
0.66296512 -0.75398386 2.1477187 2.255928e-38
0.70132208 -0.751719 2.1435454 2.255928e-38
0.74118274 -0.74975646 2.1495659 2.255928e-38
0.78096169 -0.75012332 2.1427996 2.255928e-38
0.81737906 -0.74271685 2.1397715 2.255928e-38
0.85955435 -0.74713904 2.1391032 2.255928e-38
0.90183687 -0.74468446 2.1379604 2.255928e-38
0.9419986 -0.73458105 2.1446564 2.255928e-38
0.98080826 -0.73827124 2.1407218 2.255928e-38
1.0209765 -0.7412771 2.1416476 2.255928e-38
1.0604491 -0.74311489 2.1415849 2.255928e-38
1.0984044 -0.74507862 2.1449633 2.255928e-38
1.1216105 -0.74637336 2.1530001 2.255928e-38
-0.57172108 -0.70505601 2.1319995 2.255928e-38
-0.54190886 -0.69964284 2.1445794 2.255928e-38
0.94800359 -0.71789455 2.1530001 2.255928e-38
0.96167338 -0.71766675 2.1530001 2.255928e-38
1.0047333 -0.70331341 2.1530001 2.255928e-38
1.0559953 -0.7197172 2.1530004 2.255928e-38
1.0958865 -0.70331341 2.1530001 2.255928e-38
-0.56314862 -0.67861432 2.1270001 2.255928e-38
-0.53986704 -0.66571623 2.1331687 2.255928e-38
1.1154591 -0.40394384 2.1530001 2.255928e-38
1.1154591 -0.37933812 2.1530001 2.255928e-38
1.108722 -0.32954085 2.1530001 2.255928e-38
1.104743 -0.29993504 2.1468678 2.255928e-38
1.0797057 -0.24511144 2.1270001 2.255928e-38
1.1021307 -0.26352349 2.1457438 2.255928e-38
-0.0061514289 0.079968572 2.1530001 2.255928e-38
-0.0092271427 0.096372381 2.1530001 2.255928e-38
-0.015162266 0.1433084 2.1428888 2.255928e-38
0.0061514284 0.14660905 2.1530001 2.255928e-38
-0.048028573 0.17522922 2.1313334 2.255928e-38
-0.015278111 0.1757521 2.1356025 2.255928e-38
0.015019048 0.18325096 2.1512537 2.255928e-38
-0.0046302052 0.20980613 2.1270006 2.255928e-38
0.021142079 0.21991636 2.1429038 2.255928e-38
0.051821124 0.22629806 2.1530001 2.255928e-38
0.028032981 0.25974825 2.1351769 2.255928e-38
0.057296511 0.2631675 2.1491168 2.255928e-38
0.029908881 0.29124516 2.1299353 2.255928e-38
0.062921658 0.29905397 2.1419997 2.255928e-38
0.089376636 0.31034568 2.1530001 2.255928e-38
0.071053997 0.33180371 2.1345832 2.255928e-38
0.0968128 0.34234321 2.1473012 2.255928e-38
0.12449321 0.35356072 2.1530001 2.255928e-38
0.079002857 0.37273145 2.1270001 2.255928e-38
0.095885977 0.36830905 2.1367497 2.255928e-38
0.54690951 -0.76980096 2.1670001 2.255928e-38
0.5730511 -0.76498544 2.1670001 2.255928e-38
-0.53246295 -0.73076057 2.1670001 2.255928e-38
-0.51595241 -0.7285248 2.1670001 2.255928e-38
-0.29406351 -0.73924506 2.1775699 2.255928e-38
-0.26039147 -0.73690337 2.1809361 2.255928e-38
-0.21936172 -0.73347771 2.17611 2.255928e-38
-0.18021534 -0.73097253 2.1770871 2.255928e-38
-0.13979781 -0.73479998 2.175823 2.255928e-38
-0.1011175 -0.73041457 2.177959 2.255928e-38
-0.076836668 -0.72680759 2.1805 2.255928e-38
0.14481428 -0.73669356 2.1780424 2.255928e-38
0.18143229 -0.73171681 2.1778309 2.255928e-38
0.21843483 -0.72961861 2.1752708 2.255928e-38
0.25980085 -0.73260939 2.1780009 2.255928e-38
0.30036011 -0.7358892 2.1775916 2.255928e-38
0.33901617 -0.73066306 2.1771579 2.255928e-38
0.37962431 -0.73658735 2.1768887 2.255928e-38
0.42180917 -0.7333566 2.1780443 2.255928e-38
0.45994222 -0.73622745 2.1783304 2.255928e-38
0.49960905 -0.73874784 2.1760418 2.255928e-38
0.54092956 -0.73674172 2.1769485 2.255928e-38
0.57788748 -0.73886275 2.1767678 2.255928e-38
0.62027127 -0.73700547 2.1758702 2.255928e-38
0.6607241 -0.73897851 2.1778777 2.255928e-38
0.699808 -0.73615652 2.180661 2.255928e-38
0.73665261 -0.73742282 2.1786458 2.255928e-38
0.78150326 -0.73555487 2.1761847 2.255928e-38
0.82011211 -0.72821814 2.1740787 2.255928e-38
0.86104453 -0.73276508 2.1767783 2.255928e-38
0.90011925 -0.7333706 2.1787772 2.255928e-38
0.9332484 -0.72481418 2.1752558 2.255928e-38
0.98552758 -0.72402769 2.1676667 2.255928e-38
1.0211626 -0.72651416 2.1670001 2.255928e-38
1.0620791 -0.72671074 2.1695127 2.255928e-38
1.0963838 -0.72984821 2.1726487 2.255928e-38
1.1321644 -0.73309773 2.1869118 2.255928e-38
-0.52332318 -0.70729709 2.1670001 2.255928e-38
-0.51719064 -0.71118879 2.1670001 2.255928e-38
-0.21522094 -0.71670663 2.194 2.255928e-38
-0.098207623 -0.71670663 2.194 2.255928e-38
0.13999809 -0.71670663 2.194 2.255928e-38
0.19014667 -0.71670663 2.194 2.255928e-38
0.23193714 -0.71670663 2.194 2.255928e-38
0.26187155 -0.71627957 2.1927001 2.255928e-38
0.28208572 -0.71670663 2.194 2.255928e-38
0.33432382 -0.71670663 2.194 2.255928e-38
0.79610854 -0.71670663 2.194 2.255928e-38
0.81491923 -0.71668148 2.1904545 2.255928e-38
0.91211081 -0.7165184 2.1850002 2.255928e-38
0.94672883 -0.71385592 2.1805418 2.255928e-38
0.98052871 -0.70967919 2.1768723 2.255928e-38
1.0194447 -0.70908207 2.1790769 2.255928e-38
1.0549562 -0.71146011 2.1809487 2.255928e-38
1.1015205 -0.70696509 2.1766667 2.255928e-38
1.1336293 -0.7076456 2.1907501 2.255928e-38
-0.36148763 -0.52029145 2.194 2.255928e-38
-0.36913347 -0.49876156 2.1883125 2.255928e-38
-0.3573086 -0.50357527 2.194 2.255928e-38
1.1397533 -0.4995954 2.1918335 2.255928e-38
1.1116266 -0.44088951 2.194 2.255928e-38
1.1325707 -0.45592126 2.1851788 2.255928e-38
1.1089715 -0.41055346 2.1852286 2.255928e-38
1.1237053 -0.42270783 2.1793032 2.255928e-38
1.1098903 -0.38286287 2.1817913 2.255928e-38
1.1226698 -0.37825572 2.1688001 2.255928e-38
1.077071 -0.32708952 2.1875 2.255928e-38
1.0983453 -0.33944798 2.1792638 2.255928e-38
1.1241632 -0.34924516 2.1698 2.255928e-38
1.0593886 -0.29044381 2.194 2.255928e-38
1.0949826 -0.30348051 2.1778388 2.255928e-38
1.0648693 -0.26774403 2.1898949 2.255928e-38
1.093853 -0.26708925 2.1808572 2.255928e-38
-0.0020833332 0.074993804 2.1875 2.255928e-38
0.0069095972 0.071461253 2.1920002 2.255928e-38
-0.0052575753 0.10351448 2.1701818 2.255928e-38
0.017082803 0.1042481 2.1833715 2.255928e-38
-0.016215649 0.1288407 2.1670001 2.255928e-38
0.024361782 0.1389917 2.1745639 2.255928e-38
0.050510481 0.14989123 2.1884618 2.255928e-38
-0.070169523 0.19606191 2.1670001 2.255928e-38
0.031507503 0.17308484 2.1670003 2.255928e-38
0.058591239 0.18131356 2.1810546 2.255928e-38
0.083879463 0.19014667 2.1940002 2.255928e-38
-0.072233334 0.20018953 2.1670001 2.255928e-38
0.035084762 0.20122144 2.1670001 2.255928e-38
0.065851308 0.21474136 2.1716793 2.255928e-38
0.090727039 0.22752587 2.1875947 2.255928e-38
0.073707484 0.25207961 2.1670001 2.255928e-38
0.099328846 0.25966674 2.1785634 2.255928e-38
0.12689696 0.27256745 2.1914003 2.255928e-38
0.1043321 0.2983644 2.17191 2.255928e-38
0.13099082 0.30416533 2.1896667 2.255928e-38
0.11333229 0.33390558 2.1677368 2.255928e-38
0.13575931 0.33635536 2.1844137 2.255928e-38
-0.30406371 -0.72936386 2.2130001 2.255928e-38
-0.25977299 -0.72268206 2.2080002 2.255928e-38
-0.22313653 -0.72174734 2.2080002 2.255928e-38
-0.18084572 -0.72285724 2.2080002 2.255928e-38
-0.13936208 -0.72472113 2.2080002 2.255928e-38
-0.098834291 -0.72278219 2.2080002 2.255928e-38
0.15070477 -0.72618675 2.2080002 2.255928e-38
0.17506289 -0.72364581 2.2080002 2.255928e-38
0.21922289 -0.72128004 2.2080002 2.255928e-38
0.24813715 -0.72128004 2.2080002 2.255928e-38
0.30444703 -0.72431755 2.2080002 2.255928e-38
0.3397136 -0.72473729 2.2100003 2.255928e-38
0.3828041 -0.72531766 2.2080002 2.255928e-38
0.4180741 -0.72450316 2.2086 2.255928e-38
0.46374187 -0.72375405 2.2080002 2.255928e-38
0.49973017 -0.72552997 2.2112927 2.255928e-38
0.53884774 -0.72325337 2.211261 2.255928e-38
0.58206594 -0.72514433 2.2127368 2.255928e-38
0.62052155 -0.72765911 2.2146666 2.255928e-38
0.655321 -0.72530681 2.2098751 2.255928e-38
0.69871736 -0.72706795 2.2085557 2.255928e-38
0.7418496 -0.72949988 2.2128751 2.255928e-38
0.77534133 -0.72818136 2.2156665 2.255928e-38
0.83904004 -0.72128004 2.2080002 2.255928e-38
0.86167753 -0.72430152 2.21175 2.255928e-38
0.89533186 -0.72322124 2.2080002 2.255928e-38
0.93787432 -0.72128004 2.2080002 2.255928e-38
1.1368046 -0.73305607 2.2080002 2.255928e-38
-0.29398113 -0.70968503 2.2256303 2.255928e-38
-0.25976515 -0.70442617 2.2201741 2.255928e-38
-0.22160338 -0.70355755 2.221911 2.255928e-38
-0.18158239 -0.71342635 2.2229385 2.255928e-38
-0.13735729 -0.70823109 2.2256289 2.255928e-38
-0.10492559 -0.70740706 2.2144706 2.255928e-38
0.14981684 -0.70252347 2.2196305 2.255928e-38
0.18000109 -0.70639783 2.2190578 2.255928e-38
0.21906169 -0.7074998 2.2235081 2.255928e-38
0.2603513 -0.70672333 2.2206359 2.255928e-38
0.30109334 -0.70866501 2.2236328 2.255928e-38
0.34009311 -0.70637238 2.2203159 2.255928e-38
0.37928051 -0.71053642 2.2260654 2.255928e-38
0.42080984 -0.71054488 2.2251666 2.255928e-38
0.45827878 -0.7059961 2.2223482 2.255928e-38
0.49932978 -0.71067977 2.2262547 2.255928e-38
0.53964281 -0.71286595 2.2263167 2.255928e-38
0.57964605 -0.71016335 2.2314479 2.255928e-38
0.62049133 -0.70958161 2.2298625 2.255928e-38
0.65963989 -0.71133471 2.2250817 2.255928e-38
0.70071024 -0.71093982 2.2233074 2.255928e-38
0.73800468 -0.71179563 2.2244318 2.255928e-38
0.78162432 -0.71207631 2.2260768 2.255928e-38
0.81942111 -0.71422052 2.222692 2.255928e-38
0.8622216 -0.70800698 2.2270713 2.255928e-38
0.90144783 -0.7047962 2.2218606 2.255928e-38
0.93913889 -0.7008912 2.2203317 2.255928e-38
0.97984946 -0.69968289 2.2206895 2.255928e-38
1.0190607 -0.69450402 2.2164092 2.255928e-38
1.0615 -0.69682533 2.2186255 2.255928e-38
1.0974153 -0.70248854 2.2180669 2.255928e-38
1.1375431 -0.69608134 2.2232168 2.255928e-38
1.16324 -0.69453526 2.237 2.255928e-38
0.99082285 -0.67960286 2.223 2.255928e-38
1.0161361 -0.67556942 2.224333 2.255928e-38
1.0474842 -0.67820162 2.237 2.255928e-38
1.1497024 -0.66476381 2.2334998 2.255928e-38
1.1632402 -0.66562164 2.2369998 2.255928e-38
-0.34726763 -0.60718572 2.237 2.255928e-38
1.1507466 -0.61983031 2.2288945 2.255928e-38
1.16324 -0.61144662 2.237 2.255928e-38
-0.3607108 -0.56765938 2.2323334 2.255928e-38
-0.34500834 -0.56441116 2.2353528 2.255928e-38
1.1487966 -0.57759815 2.2298567 2.255928e-38
1.16324 -0.59866381 2.237 2.255928e-38
-0.36291289 -0.54231286 2.2155001 2.255928e-38
-0.34109145 -0.5399127 2.2203567 2.255928e-38
-0.31340262 -0.53476369 2.2313995 2.255928e-38
1.1151032 -0.53826845 2.2243845 2.255928e-38
1.141853 -0.5403344 2.2255549 2.255928e-38
-0.36379433 -0.49206865 2.2080002 2.255928e-38
-0.34128812 -0.50785148 2.2114427 2.255928e-38
-0.3048937 -0.50914079 2.2299736 2.255928e-38
-0.27163583 -0.50182325 2.2326248 2.255928e-38
1.1138045 -0.48730215 2.2299998 2.255928e-38
1.1354711 -0.49945226 2.2187955 2.255928e-38
1.105038 -0.45811027 2.2209489 2.255928e-38
1.1302216 -0.4626627 2.2092502 2.255928e-38
1.0973332 -0.42067221 2.2167869 2.255928e-38
1.1226922 -0.43202037 2.2080002 2.255928e-38
1.0774088 -0.37289879 2.2247498 2.255928e-38
1.0940692 -0.37945598 2.2186899 2.255928e-38
1.1250287 -0.36800003 2.2080002 2.255928e-38
1.0721887 -0.33777115 2.2226501 2.255928e-38
1.0910403 -0.35122585 2.2104001 2.255928e-38
1.066588 -0.29982764 2.2203937 2.255928e-38
1.0920137 -0.29692355 2.2080002 2.255928e-38
1.0630223 -0.27107805 2.2194061 2.255928e-38
1.0864763 -0.27196956 2.2080002 2.255928e-38
0.017673969 -0.044544443 2.2276669 2.255928e-38
0.0084685711 -0.023288572 2.223 2.255928e-38
0.026829595 0.026815768 2.2302589 2.255928e-38
0.045450158 0.031246986 2.2369998 2.255928e-38
0.023341469 0.057929989 2.2152805 2.255928e-38
0.054473665 0.06059115 2.2315135 2.255928e-38
0.029139597 0.090873487 2.2080002 2.255928e-38
0.059202902 0.10095387 2.2196677 2.255928e-38
0.087677293 0.11062088 2.2369998 2.255928e-38
0.065219 0.13664576 2.2129223 2.255928e-38
0.096743226 0.14107384 2.2278545 2.255928e-38
0.07500191 0.17033145 2.2080002 2.255928e-38
0.099882558 0.17972898 2.2183905 2.255928e-38
0.12729107 0.18649867 2.2332306 2.255928e-38
0.10508163 0.21584921 2.2144287 2.255928e-38
0.13660185 0.22296545 2.22522 2.255928e-38
0.16709019 0.2316132 2.237 2.255928e-38
0.11881144 0.24498287 2.2080002 2.255928e-38
0.14270552 0.2592755 2.2171574 2.255928e-38
0.17218249 0.2654016 2.2303681 2.255928e-38
0.14902984 0.29836267 2.2124999 2.255928e-38
0.1779978 0.30211407 2.2250903 2.255928e-38
0.20239523 0.31318 2.237 2.255928e-38
0.15425077 0.34400275 2.2080002 2.255928e-38
0.17428087 0.33251515 2.21175 2.255928e-38
-0.32155618 -0.70138097 2.266 2.255928e-38
-0.30150297 -0.6957168 2.2611718 2.255928e-38
-0.26060817 -0.68867755 2.2584319 2.255928e-38
-0.21791787 -0.6898762 2.2600603 2.255928e-38
-0.17978163 -0.69760746 2.2601058 2.255928e-38
-0.14681424 -0.69478816 2.2606661 2.255928e-38
0.15434349 -0.69059813 2.2613335 2.255928e-38
0.1800257 -0.69186455 2.2597136 2.255928e-38
0.22183698 -0.69103968 2.2595828 2.255928e-38
0.25939307 -0.69162124 2.2599125 2.255928e-38
0.30012587 -0.69290107 2.2587399 2.255928e-38
0.33889264 -0.69083071 2.2594662 2.255928e-38
0.38115665 -0.69400132 2.2602062 2.255928e-38
0.42052984 -0.69388658 2.2589998 2.255928e-38
0.46040067 -0.6938957 2.2603998 2.255928e-38
0.49950275 -0.69595003 2.2609084 2.255928e-38
0.54088217 -0.69847679 2.2601674 2.255928e-38
0.58073735 -0.69477087 2.2601881 2.255928e-38
0.61832643 -0.69704783 2.2595115 2.255928e-38
0.66194433 -0.69818729 2.2617729 2.255928e-38
0.69974583 -0.70125133 2.2610996 2.255928e-38
0.73944354 -0.70125771 2.2603993 2.255928e-38
0.77928299 -0.70503587 2.2614701 2.255928e-38
0.8199501 -0.7033062 2.2629797 2.255928e-38
0.85822594 -0.69539058 2.2591221 2.255928e-38
0.89695126 -0.69275182 2.256846 2.255928e-38
0.94189966 -0.68799669 2.2593684 2.255928e-38
0.98141181 -0.6875425 2.2558179 2.255928e-38
1.0058935 -0.68417907 2.2520003 2.255928e-38
1.0681067 -0.68651313 2.253273 2.255928e-38
1.1023704 -0.69046545 2.2622936 2.255928e-38
1.1330261 -0.68862754 2.2564797 2.255928e-38
1.1662143 -0.68954092 2.2520001 2.255928e-38
-0.3604019 -0.64095432 2.266 2.255928e-38
-0.35069048 -0.64203334 2.266 2.255928e-38
-0.29997525 -0.67926049 2.266 2.255928e-38
-0.24386477 -0.67980003 2.266 2.255928e-38
-0.23235492 -0.6783613 2.2660003 2.255928e-38
-0.16185714 -0.67980003 2.266 2.255928e-38
-0.15106666 -0.67764187 2.266 2.255928e-38
0.17480572 -0.67980003 2.266 2.255928e-38
0.22659999 -0.67980003 2.266 2.255928e-38
0.25681335 -0.67980009 2.266 2.255928e-38
0.30860761 -0.67764193 2.266 2.255928e-38
0.33536798 -0.67850512 2.2660003 2.255928e-38
0.39924762 -0.67980003 2.266 2.255928e-38
0.41705191 -0.67926049 2.266 2.255928e-38
0.9835909 -0.67306894 2.2649748 2.255928e-38
1.0193629 -0.67270827 2.2617669 2.255928e-38
1.0588354 -0.67254406 2.2616439 2.255928e-38
1.0875139 -0.67282772 2.2660005 2.255928e-38
1.1439934 -0.66549993 2.2625008 2.255928e-38
1.1642973 -0.66263771 2.2584615 2.255928e-38
-0.36456385 -0.61546189 2.2608421 2.255928e-38
-0.34120941 -0.61706972 2.2599692 2.255928e-38
1.1442175 -0.62074864 2.2593956 2.255928e-38
1.1688952 -0.6098274 2.2520003 2.255928e-38
-0.36500898 -0.58895791 2.2640004 2.255928e-38
-0.33773813 -0.58633113 2.2588766 2.255928e-38
-0.30225492 -0.57697254 2.2646668 2.255928e-38
-0.27666783 -0.56671584 2.266 2.255928e-38
1.1133525 -0.57251728 2.2625 2.255928e-38
1.1396732 -0.58224761 2.259304 2.255928e-38
-0.29657298 -0.54247695 2.2563879 2.255928e-38
-0.27067265 -0.53921008 2.2634866 2.255928e-38
-0.21580952 -0.53304952 2.266 2.255928e-38
1.1079469 -0.53621387 2.2614908 2.255928e-38
1.1253244 -0.52946275 2.256 2.255928e-38
-0.29541278 -0.50650239 2.2520001 2.255928e-38
-0.26384601 -0.51003188 2.2552311 2.255928e-38
1.0768895 -0.4920457 2.266 2.255928e-38
1.104912 -0.49867812 2.2623696 2.255928e-38
1.1271315 -0.5120846 2.2552943 2.255928e-38
1.0763584 -0.4494665 2.2628891 2.255928e-38
1.094233 -0.46045223 2.2629993 2.255928e-38
1.0768895 -0.42082858 2.266 2.255928e-38
1.0879134 -0.42292336 2.2608416 2.255928e-38
1.0700853 -0.37318864 2.2607901 2.255928e-38
1.0822909 -0.38463458 2.2580004 2.255928e-38
1.0624157 -0.3407059 2.2607162 2.255928e-38
1.0380439 -0.31724 2.266 2.255928e-38
1.0525398 -0.30199188 2.2596133 2.255928e-38
1.0572761 -0.27340254 2.2604005 2.255928e-38
1.0833638 -0.26328763 2.266 2.255928e-38
0.0064742859 -0.11222096 2.266 2.255928e-38
0.028477293 -0.056505159 2.263052 2.255928e-38
0.043470208 -0.052719191 2.2660005 2.255928e-38
0.023337454 -0.022091191 2.2599993 2.255928e-38
0.050625321 -0.018074051 2.2659993 2.255928e-38
0.02529484 0.0084208725 2.2595832 2.255928e-38
0.062044594 0.017780578 2.2599213 2.255928e-38
0.085784286 0.028594762 2.266 2.255928e-38
0.074645579 0.056959707 2.2541537 2.255928e-38
0.095568471 0.062713012 2.2631998 2.255928e-38
0.077211425 0.087935239 2.2520001 2.255928e-38
0.10281213 0.099541157 2.2580302 2.255928e-38
0.13256872 0.11006287 2.2659998 2.255928e-38
0.1162324 0.1349777 2.2600005 2.255928e-38
0.1389219 0.14154625 2.2658119 2.255928e-38
0.16185714 0.15106666 2.266 2.255928e-38
0.11796191 0.16300192 2.2520001 2.255928e-38
0.14385788 0.17656741 2.2565155 2.255928e-38
0.16617335 0.18609422 2.2660005 2.255928e-38
0.15215963 0.21159752 2.2534001 2.255928e-38
0.17703934 0.2200142 2.2641933 2.255928e-38
0.18656851 0.25651795 2.2589993 2.255928e-38
0.20501906 0.27084094 2.2660003 2.255928e-38
0.19781306 0.29350245 2.2520006 2.255928e-38
0.2161736 0.30825925 2.260536 2.255928e-38
0.24386477 0.31724 2.266 2.255928e-38
0.2171143 0.32309142 2.2566669 2.255928e-38
0.24386477 0.32155618 2.266 2.255928e-38
-0.33000669 -0.68694627 2.2826002 2.255928e-38
-0.30413333 -0.68538618 2.2810001 2.255928e-38
-0.26014262 -0.68430001 2.2810001 2.255928e-38
-0.21427578 -0.68587995 2.2810001 2.255928e-38
-0.18248002 -0.68430001 2.2810001 2.255928e-38
-0.142368 -0.68547618 2.2996004 2.255928e-38
0.14957926 -0.68507439 2.2950003 2.255928e-38
0.18079038 -0.6847828 2.2810001 2.255928e-38
0.21723811 -0.68430007 2.2810001 2.255928e-38
0.27589238 -0.68430001 2.2810001 2.255928e-38
0.29272836 -0.68538618 2.2810001 2.255928e-38
0.35627049 -0.68430001 2.2810001 2.255928e-38
0.37819183 -0.68508995 2.2810001 2.255928e-38
0.43664858 -0.68430001 2.2810001 2.255928e-38
0.46171576 -0.68542528 2.2871609 2.255928e-38
0.49849752 -0.6863445 2.2810001 2.255928e-38
0.53983665 -0.68620086 2.2810001 2.255928e-38
0.5855701 -0.68438667 2.2844286 2.255928e-38
0.62191576 -0.68510062 2.2905338 2.255928e-38
0.65656269 -0.68508416 2.2886851 2.255928e-38
0.70142424 -0.68705118 2.2919345 2.255928e-38
0.74063641 -0.68713838 2.2851837 2.255928e-38
0.78057116 -0.69134128 2.2837834 2.255928e-38
0.81875396 -0.68990952 2.2844715 2.255928e-38
0.85743606 -0.68721104 2.289289 2.255928e-38
0.9035061 -0.6852504 2.2904494 2.255928e-38
0.94101554 -0.68420571 2.2927992 2.255928e-38
0.96289414 -0.68202251 2.2968004 2.255928e-38
1.1086385 -0.68430007 2.2810001 2.255928e-38
1.123121 -0.68430001 2.2810001 2.255928e-38
-0.33507115 -0.65905535 2.2809989 2.255928e-38
-0.29976526 -0.66068435 2.2893655 2.255928e-38
-0.2616424 -0.66969991 2.2966318 2.255928e-38
-0.21811561 -0.6705904 2.2980299 2.255928e-38
-0.18105769 -0.67301887 2.2880671 2.255928e-38
-0.15341954 -0.67352152 2.2850001 2.255928e-38
0.14496075 -0.66775513 2.3025992 2.255928e-38
0.17988022 -0.66626585 2.2919617 2.255928e-38
0.21918088 -0.66622913 2.2884445 2.255928e-38
0.25991863 -0.6673696 2.289619 2.255928e-38
0.29908457 -0.66777384 2.2921846 2.255928e-38
0.34084627 -0.66977495 2.2959042 2.255928e-38
0.37975958 -0.67266661 2.2941284 2.255928e-38
0.41846469 -0.66965657 2.2935066 2.255928e-38
0.46130061 -0.67265731 2.3026946 2.255928e-38
0.50025409 -0.66969311 2.2962394 2.255928e-38
0.53966993 -0.67141616 2.2942526 2.255928e-38
0.57804483 -0.67439669 2.2947242 2.255928e-38
0.60665864 -0.67633539 2.3013005 2.255928e-38
0.66129792 -0.67401665 2.3003936 2.255928e-38
0.69943064 -0.67489702 2.3074706 2.255928e-38
0.74208325 -0.67530847 2.3009737 2.255928e-38
0.77851266 -0.67432344 2.2987902 2.255928e-38
0.82218009 -0.67688662 2.2910962 2.255928e-38
0.85969096 -0.67781496 2.2942312 2.255928e-38
0.89992565 -0.67381048 2.3056126 2.255928e-38
0.94045782 -0.67299038 2.3068669 2.255928e-38
0.97750002 -0.66451555 2.2954302 2.255928e-38
1.0190548 -0.65706289 2.2901654 2.255928e-38
1.0628796 -0.65579629 2.2915394 2.255928e-38
1.1016793 -0.65644187 2.2877018 2.255928e-38
1.1332817 -0.65721667 2.2836659 2.255928e-38
-0.32629165 -0.6291216 2.2810001 2.255928e-38
-0.30196646 -0.62032574 2.2903574 2.255928e-38
-0.26668715 -0.61100763 2.3086669 2.255928e-38
1.1063094 -0.61952168 2.3021128 2.255928e-38
1.1305459 -0.62023079 2.2885623 2.255928e-38
-0.28631985 -0.59103251 2.2810004 2.255928e-38
-0.25803319 -0.580477 2.29493 2.255928e-38
-0.22772191 -0.57122725 2.309273 2.255928e-38
1.1071482 -0.57953483 2.296932 2.255928e-38
1.1273412 -0.59613705 2.2832859 2.255928e-38
-0.25152487 -0.54117465 2.2816658 2.255928e-38
-0.22564824 -0.53966969 2.2901332 2.255928e-38
1.0791503 -0.53194809 2.2881114 2.255928e-38
1.092695 -0.54247582 2.2907808 2.255928e-38
-0.2495445 -0.51271421 2.2826843 2.255928e-38
-0.23026304 -0.51616049 2.2916672 2.255928e-38
1.0755436 -0.49694687 2.3036554 2.255928e-38
1.0897608 -0.50129926 2.2877772 2.255928e-38
1.0735844 -0.45769489 2.2963188 2.255928e-38
1.0844041 -0.47454914 2.2920003 2.255928e-38
1.0657344 -0.41812837 2.2921791 2.255928e-38
1.0853217 -0.42361432 2.2810001 2.255928e-38
1.0584557 -0.38241938 2.2945974 2.255928e-38
1.0340384 -0.33220235 2.2978401 2.255928e-38
1.0488352 -0.34258804 2.2862489 2.255928e-38
1.0283459 -0.30072901 2.2937238 2.255928e-38
1.043782 -0.29723841 2.2809997 2.255928e-38
1.0370547 -0.27488416 2.296778 2.255928e-38
1.0582576 -0.26884469 2.2837389 2.255928e-38
0.020306455 -0.16440888 2.312 2.255928e-38
0.021970766 -0.13843581 2.3013268 2.255928e-38
0.04271695 -0.12727009 2.312 2.255928e-38
0.024307914 -0.10030284 2.2989175 2.255928e-38
0.051368181 -0.097114801 2.3054121 2.255928e-38
0.024516873 -0.075412668 2.2810001 2.255928e-38
0.061737165 -0.059637316 2.2923837 2.255928e-38
0.087526768 -0.050839227 2.311286 2.255928e-38
0.02331689 -0.0082550477 2.2810004 2.255928e-38
0.069940478 -0.021566037 2.2839086 2.255928e-38
0.09669672 -0.018083557 2.3017869 2.255928e-38
0.12110476 -0.0022019048 2.312 2.255928e-38
0.10160143 0.018367408 2.288074 2.255928e-38
0.12799139 0.024999296 2.3097041 2.255928e-38
0.11342931 0.054309536 2.2809994 2.255928e-38
0.13809691 0.061172187 2.2987039 2.255928e-38
0.16394183 0.069059744 2.3120003 2.255928e-38
0.11861201 0.085591815 2.2810001 2.255928e-38
0.14371447 0.09567602 2.2843673 2.255928e-38
0.16709995 0.10112335 2.3085911 2.255928e-38
0.15548043 0.12754981 2.2810001 2.255928e-38
0.17868809 0.1402673 2.2975874 2.255928e-38
0.205616 0.14417236 2.312 2.255928e-38
0.18283239 0.17935814 2.284791 2.255928e-38
0.207717 0.18178667 2.3038666 2.255928e-38
0.1940558 0.21338107 2.2836671 2.255928e-38
0.21904191 0.22140802 2.2971613 2.255928e-38
0.24598072 0.23038277 2.3079095 2.255928e-38
0.22171231 0.25725231 2.2850564 2.255928e-38
0.25436661 0.26126388 2.3026166 2.255928e-38
0.22607249 0.29462314 2.2809989 2.255928e-38
0.25696865 0.30034187 2.2895136 2.255928e-38
0.28558174 0.30792537 2.296778 2.255928e-38
-0.14349833 -0.68424881 2.3269999 2.255928e-38
0.62939811 -0.68037051 2.3270001 2.255928e-38
0.64047909 -0.68037051 2.3270001 2.255928e-38
0.71139717 -0.68037051 2.3270001 2.255928e-38
0.81112576 -0.68037051 2.3270001 2.255928e-38
0.86273146 -0.68163699 2.3270001 2.255928e-38
-0.2814562 -0.65599239 2.3270001 2.255928e-38
-0.25716913 -0.65224463 2.3300357 2.255928e-38
-0.22044499 -0.64991927 2.333401 2.255928e-38
-0.18064392 -0.65797424 2.3371265 2.255928e-38
-0.15372303 -0.66949105 2.3269999 2.255928e-38
0.10868736 -0.64690346 2.3498573 2.255928e-38
0.13911527 -0.65072459 2.3399868 2.255928e-38
0.18005395 -0.64848053 2.3417935 2.255928e-38
0.22044069 -0.64969397 2.3446848 2.255928e-38
0.25852287 -0.6490382 2.3383944 2.255928e-38
0.30057657 -0.64924759 2.3347156 2.255928e-38
0.33995479 -0.65038216 2.3340518 2.255928e-38
0.38135755 -0.65433031 2.3363342 2.255928e-38
0.42036787 -0.65116 2.3407848 2.255928e-38
0.46041572 -0.65321636 2.338244 2.255928e-38
0.50008374 -0.64993846 2.3369322 2.255928e-38
0.54039556 -0.65122861 2.3370929 2.255928e-38
0.57951659 -0.65629709 2.3395708 2.255928e-38
0.61939418 -0.65758628 2.338403 2.255928e-38
0.65676081 -0.65645808 2.3410225 2.255928e-38
0.69947475 -0.65857875 2.3409045 2.255928e-38
0.73845148 -0.65615588 2.3404253 2.255928e-38
0.77994913 -0.65730113 2.3432353 2.255928e-38
0.81961805 -0.65864962 2.3391213 2.255928e-38
0.86101103 -0.65889317 2.3374894 2.255928e-38
0.90022653 -0.65528733 2.337286 2.255928e-38
0.94036412 -0.65359861 2.3340247 2.255928e-38
0.97997183 -0.64902568 2.3370652 2.255928e-38
1.0183825 -0.64488387 2.3344903 2.255928e-38
1.0616232 -0.64623445 2.3344426 2.255928e-38
1.0908588 -0.64046925 2.3296669 2.255928e-38
-0.25685507 -0.62485385 2.3294361 2.255928e-38
-0.22027452 -0.61846858 2.3397577 2.255928e-38
-0.18793626 -0.61373639 2.3530576 2.255928e-38
0.14728229 -0.63447374 2.3574007 2.255928e-38
0.19367635 -0.63326591 2.3510003 2.255928e-38
0.21022384 -0.63388097 2.3590002 2.255928e-38
0.26543909 -0.63584012 2.3554447 2.255928e-38
0.30177715 -0.63417947 2.3530006 2.255928e-38
0.34083948 -0.63215679 2.3481615 2.255928e-38
0.37802717 -0.63326585 2.3509998 2.255928e-38
0.4066467 -0.63580668 2.3590002 2.255928e-38
0.47394907 -0.63418192 2.3530002 2.255928e-38
0.5031628 -0.63294762 2.3548715 2.255928e-38
0.53383666 -0.63284332 2.3558009 2.255928e-38
0.6582734 -0.63580668 2.3590002 2.255928e-38
0.80655348 -0.63580668 2.3590002 2.255928e-38
0.94515407 -0.63453996 2.3533537 2.255928e-38
0.97254747 -0.63414043 2.3570001 2.255928e-38
1.0241271 -0.63353777 2.3506196 2.255928e-38
1.0647998 -0.62191576 2.3462002 2.255928e-38
1.0914884 -0.61847544 2.3330014 2.255928e-38
-0.24156478 -0.59615523 2.3270001 2.255928e-38
-0.21471733 -0.58181024 2.3283348 2.255928e-38
-0.18621387 -0.58137226 2.343924 2.255928e-38
1.0748165 -0.57602215 2.3443344 2.255928e-38
1.0934712 -0.58216405 2.3298812 2.255928e-38
-0.20832193 -0.55330896 2.3270001 2.255928e-38
-0.1919221 -0.55537742 2.3270001 2.255928e-38
1.06847 -0.53976554 2.3410802 2.255928e-38
1.0845232 -0.54095197 2.3269999 2.255928e-38
1.0364738 -0.48709661 2.3526003 2.255928e-38
1.0621512 -0.49808562 2.339211 2.255928e-38
1.0837172 -0.51637244 2.3270001 2.255928e-38
1.032125 -0.46004641 2.3464794 2.255928e-38
1.0564461 -0.46004865 2.3338864 2.255928e-38
1.0331434 -0.41873044 2.3518429 2.255928e-38
1.0501128 -0.42257705 2.3370011 2.255928e-38
1.0242709 -0.37738958 2.3430002 2.255928e-38
1.0465615 -0.38101098 2.3300767 2.255928e-38
0.99976677 -0.32801336 2.3590002 2.255928e-38
1.0188608 -0.34124425 2.3397009 2.255928e-38
1.046042 -0.35459048 2.3270001 2.255928e-38
0.99307585 -0.2943348 2.3520672 2.255928e-38
1.0154846 -0.29874295 2.336864 2.255928e-38
0.95853096 -0.26296562 2.3376667 2.255928e-38
0.97324508 -0.27221879 2.3436399 2.255928e-38
1.0223019 -0.27637729 2.3421998 2.255928e-38
1.0508674 -0.27241239 2.3510003 2.255928e-38
0.069646671 -0.20444669 2.3590002 2.255928e-38
0.028830402 -0.17210545 2.3282306 2.255928e-38
0.060114753 -0.17732419 2.3515522 2.255928e-38
-0.0022161906 -0.15291715 2.3270001 2.255928e-38
0.012347347 -0.15038437 2.3270001 2.255928e-38
0.061176609 -0.14089543 2.3350003 2.255928e-38
0.092396446 -0.13340232 2.3515005 2.255928e-38
0.070348218 -0.10200808 2.3270006 2.255928e-38
0.10052095 -0.10049879 2.3447783 2.255928e-38
0.12536401 -0.10110001 2.3590004 2.255928e-38
0.075350486 -0.077566676 2.3270001 2.255928e-38
0.10413624 -0.063071385 2.3342011 2.255928e-38
0.13584158 -0.057168748 2.3574624 2.255928e-38
0.11407373 -0.031961903 2.3302 2.255928e-38
0.14020373 -0.019639563 2.3411305 2.255928e-38
0.16625647 -0.013462586 2.354429 2.255928e-38
0.14556845 0.016942238 2.3297186 2.255928e-38
0.17331485 0.021738257 2.348788 2.255928e-38
0.1533201 0.048151776 2.3269999 2.255928e-38
0.18258747 0.05854189 2.3368289 2.255928e-38
0.21327287 0.066081539 2.3490546 2.255928e-38
0.18525785 0.098046459 2.3272924 2.255928e-38
0.21703579 0.1011351 2.3422625 2.255928e-38
0.24189113 0.11757557 2.3590002 2.255928e-38
0.19597457 0.12885566 2.3270001 2.255928e-38
0.22425638 0.13834895 2.3366563 2.255928e-38
0.25427049 0.14386243 2.3556676 2.255928e-38
0.22747099 0.17777714 2.3310013 2.255928e-38
0.25964448 0.18207777 2.3447542 2.255928e-38
0.28543997 0.1892647 2.3531823 2.255928e-38
0.23417747 0.20610574 2.3270001 2.255928e-38
0.26198193 0.21766165 2.3318706 2.255928e-38
0.29071021 0.22375394 2.3525002 2.255928e-38
0.27218848 0.25425753 2.3269999 2.255928e-38
0.30034783 0.26016819 2.3400376 2.255928e-38
0.32891753 0.26521462 2.3545206 2.255928e-38
0.27575743 0.28842136 2.3270001 2.255928e-38
0.30114916 0.29504484 2.3323348 2.255928e-38
0.33736065 0.29269755 2.3487146 2.255928e-38
-0.18173833 -0.64418983 2.3784616 2.255928e-38
0.0792 -0.64038861 2.3760002 2.255928e-38
0.098303817 -0.64117622 2.3799999 2.255928e-38
0.12898287 -0.64038861 2.3760002 2.255928e-38
0.17424001 -0.64038861 2.3760002 2.255928e-38
0.22945373 -0.64129376 2.3760002 2.255928e-38
0.24438858 -0.64038861 2.3760002 2.255928e-38
0.42752132 -0.64144129 2.3813334 2.255928e-38
0.45350772 -0.6429289 2.3844707 2.255928e-38
0.58518261 -0.64174229 2.381052 2.255928e-38
0.61945909 -0.64167309 2.3808 2.255928e-38
0.66028351 -0.64024234 2.3856003 2.255928e-38
0.70368218 -0.64442903 2.3849595 2.255928e-38
0.73870277 -0.64110202 2.3832726 2.255928e-38
0.78245115 -0.6452986 2.3854811 2.255928e-38
0.8277095 -0.64261663 2.3782859 2.255928e-38
0.86112708 -0.64295655 2.3862395 2.255928e-38
0.90004075 -0.64212161 2.3777776 2.255928e-38
0.92613715 -0.64142853 2.3820002 2.255928e-38
0.98886865 -0.64038861 2.3760002 2.255928e-38
1.0092343 -0.64038861 2.3760002 2.255928e-38
-0.2013943 -0.63133717 2.3760002 2.255928e-38
-0.18216543 -0.63108289 2.376842 2.255928e-38
0.079504766 -0.62465423 2.385143 2.255928e-38
0.10315428 -0.62943441 2.3893328 2.255928e-38
0.13644335 -0.62518036 2.3864608 2.255928e-38
0.17901716 -0.62754363 2.3856659 2.255928e-38
0.22089583 -0.62595898 2.3838291 2.255928e-38
0.25930211 -0.63001621 2.3851993 2.255928e-38
0.29942253 -0.62736428 2.3871992 2.255928e-38
0.33968419 -0.62491363 2.3872719 2.255928e-38
0.38113526 -0.62499255 2.3863993 2.255928e-38
0.41961843 -0.62768829 2.3879991 2.255928e-38
0.46354407 -0.62949318 2.3878701 2.255928e-38
0.49886289 -0.62576365 2.3849995 2.255928e-38
0.54150772 -0.624098 2.3857248 2.255928e-38
0.57877648 -0.63048196 2.3887994 2.255928e-38
0.62270063 -0.62938005 2.3909328 2.255928e-38
0.65665442 -0.63148278 2.3891759 2.255928e-38
0.69715387 -0.62897038 2.3902695 2.255928e-38
0.7364462 -0.63103229 2.3919997 2.255928e-38
0.78408384 -0.63244557 2.3884439 2.255928e-38
0.81681269 -0.63206428 2.3873329 2.255928e-38
0.85759115 -0.63485217 2.390667 2.255928e-38
0.89807022 -0.62944663 2.389127 2.255928e-38
0.94246978 -0.6318118 2.387692 2.255928e-38
0.98109329 -0.63043004 2.3859994 2.255928e-38
1.0181525 -0.62598467 2.3846393 2.255928e-38
1.0588135 -0.6161831 2.3867683 2.255928e-38
1.0365335 -0.58433151 2.3920002 2.255928e-38
1.0601966 -0.58255911 2.3867397 2.255928e-38
1.0820953 -0.59913909 2.3920002 2.255928e-38
1.0560431 -0.53999639 2.3848271 2.255928e-38
1.0334231 -0.49081498 2.3891764 2.255928e-38
1.0509588 -0.5071373 2.3846152 2.255928e-38
1.0247222 -0.45926663 2.3811886 2.255928e-38
1.0212461 -0.41791502 2.3846774 2.255928e-38
0.99487692 -0.37523487 2.3920002 2.255928e-38
1.0099517 -0.3826378 2.388088 2.255928e-38
0.99154103 -0.32861528 2.3920002 2.255928e-38
1.0048004 -0.34135121 2.3889024 2.255928e-38
0.98019934 -0.30063224 2.3859046 2.255928e-38
1.0024459 -0.31453717 2.3760002 2.255928e-38
0.96290946 -0.27303514 2.3805718 2.255928e-38
0.076860107 -0.208414 2.3813336 2.255928e-38
0.095300891 -0.2104305 2.3881373 2.255928e-38
0.076937146 -0.18612 2.3760002 2.255928e-38
0.098342456 -0.17885691 2.3848886 2.255928e-38
0.12225779 -0.1632635 2.3920002 2.255928e-38
0.10662307 -0.14518647 2.3817773 2.255928e-38
0.13307537 -0.13976298 2.3906372 2.255928e-38
0.14262953 -0.099985577 2.3850174 2.255928e-38
0.16522895 -0.097154066 2.3920002 2.255928e-38
0.14917487 -0.070173725 2.3767998 2.255928e-38
0.17417306 -0.056865741 2.3882344 2.255928e-38
0.15387431 -0.038468573 2.3760002 2.255928e-38
0.18458489 -0.022377657 2.3854909 2.255928e-38
0.20590475 -0.012441903 2.3920002 2.255928e-38
0.19195762 0.017291276 2.3779197 2.255928e-38
0.21541469 0.022769321 2.3877888 2.255928e-38
0.22852935 0.055521347 2.3825877 2.255928e-38
0.24679372 0.068494737 2.3920004 2.255928e-38
0.23741062 0.094882183 2.3805718 2.255928e-38
0.25810304 0.10255705 2.3832257 2.255928e-38
0.28202823 0.11071544 2.3920002 2.255928e-38
0.27074865 0.13574208 2.3775237 2.255928e-38
0.29225072 0.14333026 2.390799 2.255928e-38
0.32348955 0.15718859 2.3920002 2.255928e-38
0.27561602 0.1651886 2.3760002 2.255928e-38
0.30231345 0.17726275 2.3853331 2.255928e-38
0.32767823 0.18320295 2.3919992 2.255928e-38
0.30958158 0.21829896 2.3772628 2.255928e-38
0.33743095 0.22329602 2.3901324 2.255928e-38
0.36996269 0.23646632 2.3920002 2.255928e-38
0.34606579 0.25740582 2.3836515 2.255928e-38
0.36872604 0.25986564 2.3919995 2.255928e-38
0.35914785 0.29255515 2.3760004 2.255928e-38
0.37213624 0.28683719 2.388 2.255928e-38
0.4519743 -0.64010572 2.4090002 2.255928e-38
0.94754004 -0.64928287 2.4090002 2.255928e-38
0.075845003 -0.61134458 2.4132502 2.255928e-38
0.098986186 -0.61399722 2.4146664 2.255928e-38
0.14268968 -0.60948801 2.413743 2.255928e-38
0.17887889 -0.61316562 2.4161587 2.255928e-38
0.22024235 -0.61290574 2.4196858 2.255928e-38
0.26245368 -0.61550331 2.4182384 2.255928e-38
0.29944375 -0.61165184 2.4146662 2.255928e-38
0.33874393 -0.60985398 2.4099994 2.255928e-38
0.37916094 -0.61088383 2.4089992 2.255928e-38
0.42041907 -0.61038572 2.4140217 2.255928e-38
0.45941409 -0.61322516 2.4125783 2.255928e-38
0.50133419 -0.61246091 2.4146667 2.255928e-38
