# .PCD v0.7 - Point Cloud Data file format
VERSION 0.7
FIELDS x y z rgb
SIZE 4 4 4 4
TYPE F F F F
COUNT 1 1 1 1
WIDTH 1029
HEIGHT 1
VIEWPOINT 0 0 0 1 0 0 0
POINTS 1029
DATA ascii
0.12829678 0.23151922 2.194 1.4976798e-39
0.10495073 0.25572661 2.1757429 1.4976798e-39
0.13295741 0.26344386 2.1902246 1.4976798e-39
0.11426146 0.29970142 2.1691539 1.4976798e-39
0.13874292 0.30161887 2.187345 1.4976798e-39
0.16571532 0.31391078 2.1940002 1.4976798e-39
0.14139582 0.33032861 2.1835947 1.4976798e-39
0.1662664 0.32566723 2.1940002 1.4976798e-39
0.3448686 -0.72128004 2.2080002 1.4976798e-39
0.025959402 -0.69849241 2.2174902 1.4976798e-39
0.06051724 -0.69855189 2.2210488 1.4976798e-39
0.098363176 -0.69441313 2.2137797 1.4976798e-39
0.14139487 -0.69480276 2.2170727 1.4976798e-39
0.18161689 -0.69556904 2.2171476 1.4976798e-39
0.21967873 -0.69392771 2.2173531 1.4976798e-39
0.25988925 -0.69650817 2.2215471 1.4976798e-39
0.29954058 -0.70072299 2.2190006 1.4976798e-39
0.34156802 -0.69855851 2.211869 1.4976798e-39
0.38106376 -0.69111806 2.2237756 1.4976798e-39
0.42020157 -0.68756539 2.2168303 1.4976798e-39
0.45952541 -0.68800753 2.2225606 1.4976798e-39
0.50083798 -0.69126117 2.2298195 1.4976798e-39
0.54067802 -0.69370317 2.2221849 1.4976798e-39
0.57941061 -0.6917308 2.2212863 1.4976798e-39
0.61661619 -0.68970072 2.2225997 1.4976798e-39
0.66144234 -0.69240355 2.2247703 1.4976798e-39
0.70163214 -0.69188058 2.2208834 1.4976798e-39
0.73976433 -0.6925711 2.2275 1.4976798e-39
0.78042519 -0.69559807 2.2247896 1.4976798e-39
0.81904393 -0.6909529 2.2196841 1.4976798e-39
0.85536808 -0.68639743 2.2080002 1.4976798e-39
0.90418291 -0.68356478 2.2130003 1.4976798e-39
0.93194693 -0.68494397 2.2169998 1.4976798e-39
0.96941727 -0.68342865 2.2080002 1.4976798e-39
1.0976915 -0.68342859 2.2080002 1.4976798e-39
0.37986389 -0.67685217 2.2369998 1.4976798e-39
0.41810596 -0.67589343 2.2369998 1.4976798e-39
0.45237112 -0.67820156 2.237 1.4976798e-39
0.50066191 -0.67962188 2.237 1.4976798e-39
0.54362649 -0.67642611 2.2369998 1.4976798e-39
0.57840574 -0.67738891 2.2363331 1.4976798e-39
0.60931617 -0.67962188 2.237 1.4976798e-39
0.70021653 -0.67962188 2.237 1.4976798e-39
0.7428807 -0.67798305 2.2369998 1.4976798e-39
0.78358912 -0.67791748 2.237 1.4976798e-39
0.82488531 -0.67391729 2.230711 1.4976798e-39
0.85845727 -0.66934222 2.2256725 1.4976798e-39
0.90012425 -0.67403108 2.2276196 1.4976798e-39
0.94218832 -0.66735166 2.2262833 1.4976798e-39
0.97845948 -0.66079491 2.2244246 1.4976798e-39
1.023241 -0.65547115 2.2254941 1.4976798e-39
1.0573481 -0.65421122 2.2263188 1.4976798e-39
1.1020511 -0.65902072 2.2266893 1.4976798e-39
1.1341524 -0.65621626 2.2123966 1.4976798e-39
0.99280185 -0.63701236 2.237 1.4976798e-39
1.0375419 -0.63701236 2.237 1.4976798e-39
1.0626588 -0.63185441 2.2369998 1.4976798e-39
1.1022416 -0.61926925 2.2283592 1.4976798e-39
1.1281028 -0.62080336 2.2100272 1.4976798e-39
1.0758904 -0.59866381 2.237 1.4976798e-39
1.1009169 -0.58010286 2.2229924 1.4976798e-39
1.1267644 -0.58393925 2.210206 1.4976798e-39
1.0663555 -0.52907073 2.2302797 1.4976798e-39
1.0932776 -0.5404188 2.2213886 1.4976798e-39
1.0671654 -0.50061613 2.2248366 1.4976798e-39
1.0894297 -0.5005213 2.2187905 1.4976798e-39
1.0608808 -0.4586395 2.2260456 1.4976798e-39
1.0835981 -0.46511865 2.217375 1.4976798e-39
1.0375419 -0.43248665 2.237 1.4976798e-39
1.0556514 -0.42132956 2.2266846 1.4976798e-39
1.0366896 -0.36516362 2.237 1.4976798e-39
1.0545582 -0.37867644 2.2268732 1.4976798e-39
1.0316205 -0.33436027 2.230588 1.4976798e-39
1.047538 -0.34543309 2.2148378 1.4976798e-39
0.99748892 -0.28676209 2.237 1.4976798e-39
1.0220182 -0.29946482 2.226846 1.4976798e-39
1.0419657 -0.31227431 2.2080002 1.4976798e-39
0.99066961 -0.26765242 2.2287271 1.4976798e-39
1.0135267 -0.2762875 2.2287498 1.4976798e-39
1.0439352 -0.27495801 2.2248461 1.4976798e-39
-0.0021304761 -0.04260952 2.237 1.4976798e-39
0.0021304761 -0.046870477 2.237 1.4976798e-39
-0.0058922856 -0.016864287 2.2110002 1.4976798e-39
0.017310394 -0.017419288 2.2282858 1.4976798e-39
0.04260952 -0.012782857 2.2369998 1.4976798e-39
-0.030341228 0.017724084 2.2080002 1.4976798e-39
0.023254974 0.020367261 2.2128124 1.4976798e-39
0.0513773 0.024163302 2.2325788 1.4976798e-39
0.029947592 0.05213635 2.2080002 1.4976798e-39
0.060130391 0.060384698 2.2220609 1.4976798e-39
0.084982328 0.071252584 2.2369998 1.4976798e-39
0.067904823 0.099709354 2.216579 1.4976798e-39
0.094881773 0.1043269 2.23015 1.4976798e-39
0.073600009 0.13219963 2.2080002 1.4976798e-39
0.099461608 0.14027761 2.2144229 1.4976798e-39
0.12995905 0.15637694 2.237 1.4976798e-39
0.10333962 0.17824174 2.2113948 1.4976798e-39
0.13406096 0.18023103 2.2328792 1.4976798e-39
0.11039726 0.20991632 2.2104001 1.4976798e-39
0.14205121 0.2185161 2.2224422 1.4976798e-39
0.16831639 0.22559826 2.2321303 1.4976798e-39
0.14803143 0.25630409 2.2080002 1.4976798e-39
0.17714842 0.26164359 2.2241287 1.4976798e-39
0.20239523 0.27057049 2.237 1.4976798e-39
0.15771429 0.29334858 2.2080002 1.4976798e-39
0.18135551 0.29953173 2.2168148 1.4976798e-39
0.20112857 0.31333715 2.223 1.4976798e-39
0.1696305 0.33155051 2.2080002 1.4976798e-39
0.024413507 -0.68630677 2.2558181 1.4976798e-39
0.057952385 -0.68809211 2.2539995 1.4976798e-39
0.10391171 -0.6876877 2.2559998 1.4976798e-39
0.13981079 -0.68750596 2.2585621 1.4976798e-39
0.18114795 -0.6872651 2.2525597 1.4976798e-39
0.22005256 -0.68618107 2.2520006 1.4976798e-39
0.26143646 -0.68703586 2.2526667 1.4976798e-39
0.30407244 -0.68997073 2.2531347 1.4976798e-39
0.33886865 -0.69030541 2.2523997 1.4976798e-39
0.36246476 -0.68632382 2.2520001 1.4976798e-39
0.46385354 -0.68612885 2.2520003 1.4976798e-39
0.49850398 -0.68417907 2.2520001 1.4976798e-39
0.53928852 -0.68656212 2.2520001 1.4976798e-39
0.63056004 -0.68560886 2.2520001 1.4976798e-39
0.6601578 -0.68618095 2.2520006 1.4976798e-39
0.70133716 -0.68417907 2.2520001 1.4976798e-39
0.78412497 -0.68546599 2.2520003 1.4976798e-39
-0.0043161907 -0.67764193 2.266 1.4976798e-39
0.020999683 -0.67477334 2.2645998 1.4976798e-39
0.062542453 -0.67242134 2.2646532 1.4976798e-39
0.096423782 -0.67080778 2.2648077 1.4976798e-39
0.14315364 -0.6754837 2.2659998 1.4976798e-39
0.18008208 -0.669662 2.2629843 1.4976798e-39
0.21829072 -0.67046201 2.2625539 1.4976798e-39
0.26095253 -0.67120051 2.261672 1.4976798e-39
0.29910779 -0.67158347 2.2636659 1.4976798e-39
0.34064528 -0.67240024 2.2602346 1.4976798e-39
0.38058445 -0.66653615 2.2582216 1.4976798e-39
0.4185034 -0.66424221 2.2569253 1.4976798e-39
0.46145165 -0.67188358 2.257659 1.4976798e-39
0.49979755 -0.66843915 2.257555 1.4976798e-39
0.53900772 -0.66716576 2.2562897 1.4976798e-39
0.58009487 -0.6678986 2.2575994 1.4976798e-39
0.62069499 -0.6752699 2.2585621 1.4976798e-39
0.66129416 -0.67364645 2.2612445 1.4976798e-39
0.700885 -0.67217487 2.2561696 1.4976798e-39
0.74023902 -0.67185622 2.2565575 1.4976798e-39
0.77822483 -0.67117357 2.2555737 1.4976798e-39
0.81814867 -0.66969842 2.2601285 1.4976798e-39
0.86101925 -0.65413392 2.2589996 1.4976798e-39
0.89798057 -0.65860254 2.2615087 1.4976798e-39
0.93545574 -0.65742999 2.259897 1.4976798e-39
0.98275113 -0.64564794 2.2579999 1.4976798e-39
1.0183482 -0.64704818 2.2558181 1.4976798e-39
1.043082 -0.64106417 2.2613335 1.4976798e-39
1.0991905 -0.64235616 2.2520001 1.4976798e-39
0.99499696 -0.63678062 2.2604001 1.4976798e-39
1.0057505 -0.63603747 2.2613335 1.4976798e-39
1.06624 -0.62777793 2.2574439 1.4976798e-39
1.0893677 -0.6176067 2.2564797 1.4976798e-39
1.0768895 -0.59347624 2.266 1.4976798e-39
1.0880464 -0.5803417 2.2599995 1.4976798e-39
1.0632484 -0.53582597 2.2604001 1.4976798e-39
1.0878961 -0.55529439 2.2606158 1.4976798e-39
1.0529397 -0.49738473 2.2589993 1.4976798e-39
1.0358858 -0.45104191 2.266 1.4976798e-39
1.0466597 -0.46286547 2.2592118 1.4976798e-39
1.0358907 -0.4186188 2.2639999 1.4976798e-39
1.0454199 -0.41679457 2.2547996 1.4976798e-39
1.0354226 -0.38494447 2.2635651 1.4976798e-39
1.0456491 -0.38555464 2.2544999 1.4976798e-39
1.020666 -0.34188098 2.2582545 1.4976798e-39
0.99548954 -0.28866464 2.2606158 1.4976798e-39
1.0074465 -0.30723217 2.2577651 1.4976798e-39
1.0416396 -0.28239369 2.2520003 1.4976798e-39
0.93877143 -0.26760384 2.266 1.4976798e-39
0.99041164 -0.26973182 2.2558186 1.4976798e-39
1.044499 -0.2766743 2.2520001 1.4976798e-39
0.016185716 -0.10089096 2.2660003 1.4976798e-39
0.02166703 -0.059916679 2.2551892 1.4976798e-39
0.048345368 -0.055609126 2.2637889 1.4976798e-39
0.031001559 -0.030221647 2.2520003 1.4976798e-39
0.059292868 -0.018586602 2.2584257 1.4976798e-39
0.091564909 -0.0040078918 2.266 1.4976798e-39
0.067127608 0.014846017 2.2531192 1.4976798e-39
0.092536062 0.019522924 2.2649226 1.4976798e-39
0.12301143 0.036687616 2.266 1.4976798e-39
0.077517822 0.046265583 2.2520001 1.4976798e-39
0.10259748 0.058969077 2.2579503 1.4976798e-39
0.12560116 0.066900954 2.2660005 1.4976798e-39
0.11118668 0.093319856 2.2536798 1.4976798e-39
0.13607942 0.10284899 2.2608058 1.4976798e-39
0.11796191 0.13083048 2.2520001 1.4976798e-39
0.13996267 0.13894683 2.2545123 1.4976798e-39
0.16809164 0.15034731 2.266 1.4976798e-39
0.14986172 0.17728597 2.2524998 1.4976798e-39
0.17623624 0.1820149 2.2628276 1.4976798e-39
0.20286095 0.1877543 2.266 1.4976798e-39
0.15570973 0.21147354 2.2520001 1.4976798e-39
0.18493523 0.21824655 2.2572823 1.4976798e-39
0.20717716 0.22797336 2.266 1.4976798e-39
0.19688916 0.25494072 2.2520006 1.4976798e-39
0.21919131 0.26356736 2.2636659 1.4976798e-39
0.24926001 0.27299905 2.266 1.4976798e-39
0.19946286 0.28525335 2.2520001 1.4976798e-39
0.22097786 0.29891118 2.2584751 1.4976798e-39
0.25033912 0.29612151 2.2659998 1.4976798e-39
0.22228381 0.32155618 2.266 1.4976798e-39
0.015206668 -0.68430001 2.2810001 1.4976798e-39
-0.011583596 -0.66229022 2.2998765 1.4976798e-39
0.020462215 -0.65937531 2.2970531 1.4976798e-39
0.058682829 -0.65412068 2.3005452 1.4976798e-39
0.10195448 -0.65699613 2.2969098 1.4976798e-39
0.13853315 -0.66008735 2.2946303 1.4976798e-39
0.1787795 -0.6508171 2.2956715 1.4976798e-39
0.22007737 -0.6535219 2.2969203 1.4976798e-39
0.25906104 -0.65478879 2.3029687 1.4976798e-39
0.30066144 -0.65442795 2.2985704 1.4976798e-39
0.3395243 -0.65684307 2.2991111 1.4976798e-39
0.38215321 -0.65340197 2.299474 1.4976798e-39
0.42209038 -0.6490103 2.295963 1.4976798e-39
0.4606258 -0.65339339 2.2965052 1.4976798e-39
0.49926034 -0.64983469 2.2942023 1.4976798e-39
0.54036331 -0.65056145 2.298032 1.4976798e-39
0.58056033 -0.65231502 2.2979517 1.4976798e-39
0.6201179 -0.65696949 2.2978005 1.4976798e-39
0.65862304 -0.65503323 2.2970605 1.4976798e-39
0.70036399 -0.65520453 2.2989986 1.4976798e-39
0.73980397 -0.65439844 2.2980785 1.4976798e-39
0.78273344 -0.65426379 2.3005769 1.4976798e-39
0.82085288 -0.65494543 2.298883 1.4976798e-39
0.85623395 -0.64745945 2.2887914 1.4976798e-39
0.90245581 -0.64441025 2.2833698 1.4976798e-39
0.94034034 -0.64706933 2.2823708 1.4976798e-39
0.97353357 -0.64510238 2.2868664 1.4976798e-39
1.0316995 -0.64249671 2.283 1.4976798e-39
1.0475851 -0.64159656 2.2836668 1.4976798e-39
0.059451427 -0.63635051 2.312 1.4976798e-39
0.38797566 -0.63282746 2.312 1.4976798e-39
0.41671467 -0.63483977 2.3093531 1.4976798e-39
0.46392438 -0.63465679 2.3120003 1.4976798e-39
0.50423616 -0.63236606 2.312 1.4976798e-39
0.5297783 -0.63165307 2.312 1.4976798e-39
0.59011048 -0.63635051 2.312 1.4976798e-39
0.61999351 -0.63509238 2.312 1.4976798e-39
0.65116334 -0.63434887 2.3120003 1.4976798e-39
0.71121526 -0.63488257 2.312 1.4976798e-39
0.73059201 -0.63502944 2.312 1.4976798e-39
0.79488766 -0.63635051 2.312 1.4976798e-39
0.8383919 -0.63647389 2.3045001 1.4976798e-39
0.86182797 -0.63511717 2.3067503 1.4976798e-39
0.90226018 -0.63376021 2.2949421 1.4976798e-39
0.93887514 -0.63350272 2.3041515 1.4976798e-39
0.98195285 -0.62624699 2.2998252 1.4976798e-39
1.0220655 -0.62035084 2.2969429 1.4976798e-39
1.0597053 -0.6178059 2.2882776 1.4976798e-39
1.0840182 -0.60609436 2.2810001 1.4976798e-39
1.0365546 -0.58301777 2.3030002 1.4976798e-39
1.0598236 -0.58119929 2.2895525 1.4976798e-39
1.0859954 -0.57873523 2.2819412 1.4976798e-39
1.0341549 -0.53969157 2.2979672 1.4976798e-39
1.0550145 -0.54294068 2.2883191 1.4976798e-39
1.0337191 -0.49547279 2.3013527 1.4976798e-39
1.0458529 -0.5035553 2.2882566 1.4976798e-39
1.0226506 -0.45944533 2.2948868 1.4976798e-39
1.0431774 -0.46213788 2.2810004 1.4976798e-39
0.99746293 -0.40294859 2.312 1.4976798e-39
1.0190734 -0.41933122 2.293009 1.4976798e-39
0.99328762 -0.372091 2.3091431 1.4976798e-39
1.0195168 -0.38027227 2.2940104 1.4976798e-39
1.0405706 -0.36930478 2.2810001 1.4976798e-39
-0.055047616 -0.34349716 2.312 1.4976798e-39
0.98983765 -0.33821771 2.301378 1.4976798e-39
1.0085254 -0.34101138 2.2850845 1.4976798e-39
0.95357561 -0.28418931 2.3060002 1.4976798e-39
0.98260069 -0.29870301 2.2953856 1.4976798e-39
1.0060018 -0.31204969 2.2821431 1.4976798e-39
-0.0022019048 -0.24881525 2.312 1.4976798e-39
0.94318551 -0.27118662 2.2930908 1.4976798e-39
0.98436677 -0.27161631 2.2942419 1.4976798e-39
0.0071561909 -0.2089057 2.312 1.4976798e-39
0.019308623 -0.17716339 2.3094513 1.4976798e-39
0.043304127 -0.16220699 2.312 1.4976798e-39
0.022025649 -0.14062256 2.2974703 1.4976798e-39
0.056222774 -0.13178933 2.3110611 1.4976798e-39
0.025166674 -0.10281311 2.2864459 1.4976798e-39
0.05940434 -0.098814085 2.2999737 1.4976798e-39
0.082791619 -0.092920378 2.312 1.4976798e-39
0.067187794 -0.061727315 2.2917266 1.4976798e-39
0.094243705 -0.056944877 2.3083777 1.4976798e-39
0.073860966 -0.029109905 2.2810001 1.4976798e-39
0.098890737 -0.021250796 2.2938993 1.4976798e-39
0.13113746 -0.012173139 2.3106759 1.4976798e-39
0.10844768 0.019965719 2.2852347 1.4976798e-39
0.13782275 0.020238986 2.3065252 1.4976798e-39
0.16073905 0.027156826 2.312 1.4976798e-39
0.11948096 0.054309525 2.2810001 1.4976798e-39
0.14380348 0.058635078 2.2943838 1.4976798e-39
0.17551368 0.064845823 2.3109522 1.4976798e-39
0.20037334 0.07486476 2.312 1.4976798e-39
0.15285341 0.092913486 2.2861199 1.4976798e-39
0.17986935 0.099466547 2.3074846 1.4976798e-39
0.20512944 0.10260876 2.312 1.4976798e-39
0.18435004 0.13727777 2.2926948 1.4976798e-39
0.21179473 0.14069685 2.3076088 1.4976798e-39
0.19370399 0.17125604 2.2810001 1.4976798e-39
0.2191368 0.17894997 2.3016598 1.4976798e-39
0.24441145 0.19036469 2.3120003 1.4976798e-39
0.19768667 0.21506573 2.2810001 1.4976798e-39
0.22300707 0.21751383 2.2892027 1.4976798e-39
0.25573796 0.22088245 2.3071063 1.4976798e-39
0.22740486 0.25364718 2.2809994 1.4976798e-39
0.26179874 0.25724655 2.295666 1.4976798e-39
0.28600296 0.27132359 2.312 1.4976798e-39
0.26926389 0.29239246 2.295593 1.4976798e-39
0.29432127 0.29523873 2.3120003 1.4976798e-39
-0.012444762 -0.64661622 2.3269999 1.4976798e-39
0.015346398 -0.64579558 2.3276398 1.4976798e-39
0.060329635 -0.6409716 2.3269999 1.4976798e-39
0.10085482 -0.6436519 2.3305001 1.4976798e-39
0.14128217 -0.6443575 2.3269999 1.4976798e-39
0.1776033 -0.64269203 2.3278887 1.4976798e-39
0.22043602 -0.64375275 2.3276954 1.4976798e-39
0.25763217 -0.64241832 2.3269999 1.4976798e-39
0.30017069 -0.64294159 2.3269999 1.4976798e-39
0.34109187 -0.64390403 2.3269999 1.4976798e-39
0.36833087 -0.64668441 2.3270001 1.4976798e-39
0.44102192 -0.64047909 2.3270001 1.4976798e-39
0.55183148 -0.64047909 2.3270001 1.4976798e-39
0.57297641 -0.64237022 2.3292856 1.4976798e-39
0.6194253 -0.64047909 2.3270001 1.4976798e-39
0.67593813 -0.64269531 2.3270001 1.4976798e-39
0.69734359 -0.64185315 2.3299999 1.4976798e-39
0.75572097 -0.64047909 2.3270001 1.4976798e-39
0.77345049 -0.64232588 2.3269999 1.4976798e-39
0.82676727 -0.64091641 2.3285999 1.4976798e-39
-0.049426671 -0.62682009 2.3590002 1.4976798e-39
-0.013255731 -0.62288123 2.3468528 1.4976798e-39
0.016986895 -0.62930721 2.3442807 1.4976798e-39
0.061680745 -0.63257831 2.3459773 1.4976798e-39
0.096925311 -0.63395292 2.3510003 1.4976798e-39
0.142928 -0.63105583 2.3457241 1.4976798e-39
0.18128754 -0.62986493 2.3445697 1.4976798e-39
0.22004393 -0.62841022 2.3468628 1.4976798e-39
0.25819725 -0.6292249 2.3426936 1.4976798e-39
0.30040601 -0.62997401 2.3426876 1.4976798e-39
0.34072781 -0.62905568 2.3377762 1.4976798e-39
0.38138893 -0.62451828 2.343277 1.4976798e-39
0.42048633 -0.62132424 2.3459718 1.4976798e-39
0.45923004 -0.62299037 2.3456333 1.4976798e-39
0.50068969 -0.62110651 2.342273 1.4976798e-39
0.54106075 -0.61960226 2.3437624 1.4976798e-39
0.57960564 -0.62774616 2.3486006 1.4976798e-39
0.61884266 -0.62567109 2.3465824 1.4976798e-39
0.65949184 -0.62515199 2.3466933 1.4976798e-39
0.69860971 -0.62634343 2.3531172 1.4976798e-39
0.73859382 -0.62895054 2.3436408 1.4976798e-39
0.77914441 -0.6292662 2.3430011 1.4976798e-39
0.81998914 -0.6275031 2.3479033 1.4976798e-39
0.86158311 -0.62211049 2.3433716 1.4976798e-39
0.90008599 -0.61971635 2.3430007 1.4976798e-39
0.9417842 -0.61730152 2.3439527 1.4976798e-39
0.97850263 -0.61168396 2.3392873 1.4976798e-39
1.0185424 -0.60582662 2.339211 1.4976798e-39
0.86846149 -0.59786302 2.3590004 1.4976798e-39
0.90540671 -0.59408283 2.3590002 1.4976798e-39
0.941158 -0.59478068 2.3590009 1.4976798e-39
0.97777319 -0.59513021 2.3590007 1.4976798e-39
1.0304579 -0.57779783 2.3489704 1.4976798e-39
1.045203 -0.57990956 2.3329997 1.4976798e-39
0.99976677 -0.5504334 2.3590002 1.4976798e-39
1.0269779 -0.54006761 2.3473995 1.4976798e-39
1.0438257 -0.52523714 2.3270001 1.4976798e-39
0.99211973 -0.49551174 2.356715 1.4976798e-39
1.0190389 -0.50212681 2.3411174 1.4976798e-39
0.99305689 -0.45990095 2.3555722 1.4976798e-39
1.0080454 -0.46220365 2.3408189 1.4976798e-39
0.98528397 -0.41847512 2.3493602 1.4976798e-39
1.0049243 -0.42569599 2.3335452 1.4976798e-39
-0.042686667 -0.36396003 2.3590002 1.4976798e-39
-0.028149413 -0.36832121 2.3590007 1.4976798e-39
0.95618147 -0.36980137 2.3590004 1.4976798e-39
0.98095995 -0.38021636 2.3467743 1.4976798e-39
1.0078127 -0.39171171 2.3269999 1.4976798e-39
-0.047169063 -0.3399469 2.3341107 1.4976798e-39
-0.020208333 -0.33897954 2.3532221 1.4976798e-39
0.002995556 -0.33100891 2.3590002 1.4976798e-39
0.95067155 -0.33881328 2.3582389 1.4976798e-39
0.97540522 -0.341553 2.3452864 1.4976798e-39
-0.043941524 -0.30804306 2.3302 1.4976798e-39
-0.020351386 -0.29941621 2.3341579 1.4976798e-39
0.011891978 -0.29403919 2.351243 1.4976798e-39
0.94559401 -0.29829049 2.3484929 1.4976798e-39
0.9681474 -0.30801049 2.3347239 1.4976798e-39
-0.010601387 -0.26455623 2.3297434 1.4976798e-39
0.018045377 -0.25778908 2.3406818 1.4976798e-39
0.048813947 -0.24447821 2.3590004 1.4976798e-39
0.9361704 -0.27258688 2.3510001 1.4976798e-39
-0.0037991838 -0.22256887 2.3270001 1.4976798e-39
0.022773026 -0.22172703 2.3328426 1.4976798e-39
0.053746279 -0.21580039 2.3535373 1.4976798e-39
0.030472616 -0.1917005 2.3269999 1.4976798e-39
0.060779873 -0.18096446 2.3376667 1.4976798e-39
0.088975608 -0.17817733 2.3578973 1.4976798e-39
0.064646669 -0.14991757 2.3303945 1.4976798e-39
0.096761614 -0.1394113 2.3450005 1.4976798e-39
0.12693667 -0.12469001 2.3590002 1.4976798e-39
0.1022485 -0.10078909 2.3312821 1.4976798e-39
0.13242111 -0.10006987 2.3545356 1.4976798e-39
0.11178075 -0.066072173 2.3290868 1.4976798e-39
0.14025934 -0.060167599 2.3485386 1.4976798e-39
0.16400668 -0.047180004 2.3590002 1.4976798e-39
0.11745811 -0.035459049 2.3270001 1.4976798e-39
0.14549404 -0.025608014 2.3334692 1.4976798e-39
0.16924831 -0.014997779 2.3483336 1.4976798e-39
0.1546901 0.0057620956 2.3270001 1.4976798e-39
0.1805876 0.020870939 2.3434384 1.4976798e-39
0.20624402 0.031004002 2.3590002 1.4976798e-39
0.18614654 0.051451977 2.3308792 1.4976798e-39
0.21636407 0.063075595 2.3426995 1.4976798e-39
0.24338892 0.077135563 2.3590002 1.4976798e-39
0.22444636 0.098878436 2.3340411 1.4976798e-39
0.24723452 0.10347833 2.3584297 1.4976798e-39
0.23069739 0.13714606 2.328455 1.4976798e-39
0.25781122 0.14182882 2.3449399 1.4976798e-39
0.28083336 0.15726668 2.3590002 1.4976798e-39
0.23713239 0.17064668 2.3270001 1.4976798e-39
0.26165637 0.17848442 2.3333538 1.4976798e-39
0.28804782 0.18360901 2.3536668 1.4976798e-39
0.27259141 0.21053812 2.3269999 1.4976798e-39
0.29827815 0.22214386 2.3473396 1.4976798e-39
0.32689002 0.23253003 2.3590002 1.4976798e-39
0.30380824 0.25879371 2.3356161 1.4976798e-39
0.334701 0.26422879 2.3517852 1.4976798e-39
0.36171338 0.27634001 2.3590002 1.4976798e-39
0.30825192 0.2885077 2.3269999 1.4976798e-39
0.33746243 0.29339784 2.3353345 1.4976798e-39
0.36171338 0.28308004 2.3590002 1.4976798e-39
-0.046838097 -0.62257153 2.3800001 1.4976798e-39
-0.027536331 -0.61961102 2.3798094 1.4976798e-39
0.023251701 -0.61404681 2.3814285 1.4976798e-39
0.06036292 -0.61555105 2.3826456 1.4976798e-39
0.10266493 -0.61796546 2.3823106 1.4976798e-39
0.1384778 -0.61500323 2.3835788 1.4976798e-39
0.17931069 -0.61360234 2.3832722 1.4976798e-39
0.21810903 -0.61257195 2.3838041 1.4976798e-39
0.26100528 -0.61811221 2.3830585 1.4976798e-39
0.3001402 -0.61504412 2.3837137 1.4976798e-39
0.34031612 -0.61441302 2.3830504 1.4976798e-39
0.37743023 -0.6118204 2.3839993 1.4976798e-39
0.4186286 -0.60644573 2.3759999 1.4976798e-39
0.46188232 -0.60717678 2.3767617 1.4976798e-39
0.4996039 -0.60815406 2.3782856 1.4976798e-39
0.54016459 -0.60547501 2.3811197 1.4976798e-39
0.581631 -0.61313194 2.3849995 1.4976798e-39
0.61760765 -0.60971439 2.3816769 1.4976798e-39
0.65696108 -0.60908526 2.3788712 1.4976798e-39
0.70200878 -0.60781443 2.3788567 1.4976798e-39
0.74167037 -0.61327815 2.3776321 1.4976798e-39
0.78069878 -0.61241013 2.380307 1.4976798e-39
0.81908435 -0.60998398 2.3801901 1.4976798e-39
0.85264623 -0.60972393 2.3813329 1.4976798e-39
0.91193151 -0.60644579 2.3760004 1.4976798e-39
0.92400002 -0.60720009 2.3760002 1.4976798e-39
1.0258744 -0.60613596 2.386667 1.4976798e-39
-0.0022628573 -0.59965718 2.3760002 1.4976798e-39
0.023859249 -0.59556943 2.3911574 1.4976798e-39
0.058471117 -0.59812671 2.3920002 1.4976798e-39
0.093401909 -0.59913915 2.3920002 1.4976798e-39
0.1389638 -0.59913915 2.3920002 1.4976798e-39
0.16630097 -0.59913909 2.3920002 1.4976798e-39
0.21641907 -0.59913909 2.3920002 1.4976798e-39
0.30526477 -0.59913915 2.3920002 1.4976798e-39
0.34399244 -0.59789658 2.3920002 1.4976798e-39
0.38273808 -0.59594876 2.3883634 1.4976798e-39
0.41915843 -0.59453279 2.3819425 1.4976798e-39
0.45731527 -0.59743756 2.3843808 1.4976798e-39
0.49551207 -0.59774369 2.3881903 1.4976798e-39
0.54172385 -0.59920388 2.3900001 1.4976798e-39
0.56815696 -0.59549421 2.3920002 1.4976798e-39
0.63212651 -0.59944993 2.3824003 1.4976798e-39
0.66191667 -0.59925431 2.3884447 1.4976798e-39
0.69722325 -0.59933835 2.3858461 1.4976798e-39
0.73646063 -0.59804785 2.3866665 1.4976798e-39
0.76316196 -0.59913909 2.3920002 1.4976798e-39
0.81733006 -0.59711421 2.3920002 1.4976798e-39
0.86910534 -0.59263426 2.386353 1.4976798e-39
0.89953685 -0.59551889 2.3834279 1.4976798e-39
0.93996698 -0.59138185 2.382709 1.4976798e-39
0.98597097 -0.58442098 2.3848414 1.4976798e-39
1.0117867 -0.58381581 2.3830762 1.4976798e-39
0.99672389 -0.54828578 2.3840003 1.4976798e-39
1.0079585 -0.54114884 2.3831828 1.4976798e-39
0.98493302 -0.50019205 2.3829331 1.4976798e-39
0.95907819 -0.44650668 2.3920002 1.4976798e-39
0.98335928 -0.45901915 2.3823152 1.4976798e-39
0.021641906 -0.40436193 2.3920002 1.4976798e-39
0.95793915 -0.43625528 2.3920002 1.4976798e-39
0.96982509 -0.42200783 2.3868229 1.4976798e-39
-0.010697837 -0.37328288 2.3767271 1.4976798e-39
0.019187476 -0.37803552 2.3909142 1.4976798e-39
0.043283813 -0.36449528 2.3920002 1.4976798e-39
0.94983935 -0.37638077 2.3837571 1.4976798e-39
0.96653795 -0.3907955 2.3818183 1.4976798e-39
-0.0079200007 -0.35413715 2.3760002 1.4976798e-39
0.021293063 -0.34206641 2.3826284 1.4976798e-39
0.046811432 -0.33551827 2.3911107 1.4976798e-39
0.9439342 -0.33934304 2.3819256 1.4976798e-39
0.027668577 -0.30548567 2.3759997 1.4976798e-39
0.053063042 -0.29607046 2.3870468 1.4976798e-39
0.91807252 -0.28931814 2.3920002 1.4976798e-39
0.93264693 -0.29699859 2.3882098 1.4976798e-39
0.034948573 -0.27330288 2.3760002 1.4976798e-39
0.062717557 -0.26151693 2.3837419 1.4976798e-39
0.094130903 -0.25268635 2.3919995 1.4976798e-39
0.91807246 -0.27564955 2.3920002 1.4976798e-39
0.92837214 -0.27260065 2.3853335 1.4976798e-39
0.070181996 -0.22704591 2.3770318 1.4976798e-39
0.09896452 -0.21962279 2.3870761 1.4976798e-39
0.10827696 -0.18107241 2.3807995 1.4976798e-39
0.13651516 -0.17069185 2.3878965 1.4976798e-39
0.11637553 -0.14482287 2.3760002 1.4976798e-39
0.14182332 -0.14134169 2.3830817 1.4976798e-39
0.16516191 -0.12301715 2.3920002 1.4976798e-39
0.14999513 -0.10247512 2.3759999 1.4976798e-39
0.17258684 -0.097475901 2.3848882 1.4976798e-39
0.1811156 -0.06185028 2.3823104 1.4976798e-39
0.20898816 -0.057727948 2.3914473 1.4976798e-39
0.18691199 -0.023483433 2.3759997 1.4976798e-39
0.2153728 -0.018359965 2.3844061 1.4976798e-39
0.19536 0.0037714287 2.3760002 1.4976798e-39
0.22281928 0.019167647 2.3824933 1.4976798e-39
0.24883816 0.02225524 2.3919995 1.4976798e-39
0.23113097 0.050216246 2.3778822 1.4976798e-39
0.25875786 0.061829541 2.3857496 1.4976798e-39
0.28447717 0.070336193 2.3920002 1.4976798e-39
0.26676235 0.10055198 2.3795552 1.4976798e-39
0.28988239 0.1013842 2.3915665 1.4976798e-39
0.27682287 0.12973714 2.3760004 1.4976798e-39
0.29893002 0.14011854 2.3848886 1.4976798e-39
0.32531205 0.15080993 2.3920002 1.4976798e-39
0.30744973 0.17663094 2.3759997 1.4976798e-39
0.33709919 0.1834877 2.3844888 1.4976798e-39
0.31162781 0.20753632 2.3760002 1.4976798e-39
0.34184882 0.21853274 2.3798795 1.4976798e-39
0.37590548 0.22631587 2.3894539 1.4976798e-39
0.35103479 0.25292909 2.3759997 1.4976798e-39
0.38152114 0.26029742 2.3838842 1.4976798e-39
0.40940264 0.26434484 2.3842576 1.4976798e-39
0.35979432 0.29643428 2.3760002 1.4976798e-39
0.38204047 0.29345301 2.3834412 1.4976798e-39
0.40990147 0.29316056 2.3862395 1.4976798e-39
0.445472 0.29864383 2.3792005 1.4976798e-39
0.061945722 -0.60339713 2.4090002 1.4976798e-39
0.10945012 -0.60317039 2.4196253 1.4976798e-39
0.18518674 -0.60363859 2.4142311 1.4976798e-39
0.22612612 -0.60527897 2.4104171 1.4976798e-39
0.25902885 -0.60746723 2.4144993 1.4976798e-39
0.28621215 -0.60741222 2.4090002 1.4976798e-39
0.33267143 -0.60339713 2.4090002 1.4976798e-39
0.54145145 -0.60339713 2.4090002 1.4976798e-39
0.5904395 -0.60728157 2.4135337 1.4976798e-39
0.61303627 -0.60506976 2.4169338 1.4976798e-39
0.65998739 -0.60327619 2.4146669 1.4976798e-39
0.69755673 -0.60321569 2.4175 1.4976798e-39
0.7846458 -0.60339713 2.4090004 1.4976798e-39
0.8117184 -0.60431486 2.4090002 1.4976798e-39
0.8519448 -0.60416192 2.4090004 1.4976798e-39
1.0301346 -0.60569149 2.4090004 1.4976798e-39
0.03716743 -0.59054917 2.4090002 1.4976798e-39
0.060166195 -0.59338796 2.4175 1.4976798e-39
0.095254876 -0.59463239 2.4207692 1.4976798e-39
0.14088248 -0.59303284 2.4192002 1.4976798e-39
0.1766527 -0.59767044 2.4206877 1.4976798e-39
0.22089624 -0.59727889 2.4205909 1.4976798e-39
0.26913524 -0.59680498 2.4229095 1.4976798e-39
0.30110785 -0.59390455 2.4156966 1.4976798e-39
0.33895385 -0.59476328 2.4199286 1.4976798e-39
0.37967291 -0.59182674 2.4194617 1.4976798e-39
0.42088714 -0.58258909 2.4209771 1.4976798e-39
0.45936701 -0.58611321 2.4207451 1.4976798e-39
0.50289744 -0.58610195 2.4220004 1.4976798e-39
0.53931737 -0.58862829 2.4211421 1.4976798e-39
0.57818395 -0.58677518 2.4208686 1.4976798e-39
0.62083298 -0.59182882 2.4238212 1.4976798e-39
0.65673256 -0.59549594 2.4213102 1.4976798e-39
0.7013014 -0.59327668 2.4193659 1.4976798e-39
0.7391181 -0.5919295 2.4211435 1.4976798e-39
0.78003162 -0.59313756 2.419625 1.4976798e-39
0.82060671 -0.5907653 2.4209781 1.4976798e-39
0.86015874 -0.58708823 2.4189436 1.4976798e-39
0.90125966 -0.5791595 2.4198904 1.4976798e-39
0.93849736 -0.57593417 2.4188948 1.4976798e-39
0.98063052 -0.57388049 2.4184747 1.4976798e-39
0.95674723 -0.53876108 2.4260006 1.4976798e-39
0.98201501 -0.53906959 2.4183702 1.4976798e-39
1.0031765 -0.54374576 2.4090002 1.4976798e-39
0.95268637 -0.49921691 2.4260001 1.4976798e-39
0.97403526 -0.50133014 2.4192581 1.4976798e-39
0.94728196 -0.45660457 2.4198799 1.4976798e-39
0.97227705 -0.46521395 2.4102132 1.4976798e-39
0.035520893 -0.41373527 2.4214671 1.4976798e-39
0.045631908 -0.41357526 2.4260004 1.4976798e-39
0.94641507 -0.42109039 2.4203324 1.4976798e-39
0.9649049 -0.41649312 2.4098098 1.4976798e-39
0.031780798 -0.39202496 2.4118338 1.4976798e-39
0.053446785 -0.37638551 2.4209998 1.4976798e-39
0.93687975 -0.38047096 2.4185297 1.4976798e-39
0.9613058 -0.39691144 2.4090002 1.4976798e-39
0.061604906 -0.33931026 2.4167275 1.4976798e-39
0.91219807 -0.33545914 2.4259999 1.4976798e-39
0.93218195 -0.34099698 2.4156256 1.4976798e-39
0.068707369 -0.304681 2.4134073 1.4976798e-39
0.095538087 -0.29636982 2.4221838 1.4976798e-39
0.91071713 -0.29631692 2.4212785 1.4976798e-39
0.92605704 -0.30806002 2.4090004 1.4976798e-39
0.075711429 -0.26384285 2.4090002 1.4976798e-39
0.1053592 -0.26518443 2.4149501 1.4976798e-39
0.12509578 -0.25910342 2.4260004 1.4976798e-39
0.89947081 -0.26224166 2.4223573 1.4976798e-39
0.9239102 -0.26773322 2.4155388 1.4976798e-39
0.11586143 -0.23287001 2.4090002 1.4976798e-39
0.13752967 -0.21701425 2.416589 1.4976798e-39
0.16558413 -0.20640254 2.4260004 1.4976798e-39
0.85949719 -0.20101143 2.4260001 1.4976798e-39
0.88767743 -0.23533779 2.4146669 1.4976798e-39
0.14257543 -0.19053102 2.4103413 1.4976798e-39
0.16744632 -0.17745116 2.4231668 1.4976798e-39
0.85259402 -0.1768592 2.4235713 1.4976798e-39
0.17975412 -0.14050534 2.4160604 1.4976798e-39
0.20158905 -0.13458525 2.4260004 1.4976798e-39
0.8479448 -0.15942287 2.4260001 1.4976798e-39
0.19212727 -0.10334204 2.4111252 1.4976798e-39
0.21691492 -0.096529871 2.4197364 1.4976798e-39
0.24260001 -0.090108573 2.4260001 1.4976798e-39
0.22837947 -0.06194159 2.4146667 1.4976798e-39
0.24260001 -0.076245718 2.4260001 1.4976798e-39
0.23362485 -0.028275987 2.415072 1.4976798e-39
0.25570887 -0.013723535 2.418714 1.4976798e-39
0.26786026 0.019652814 2.4101076 1.4976798e-39
0.29245642 0.02452678 2.4168777 1.4976798e-39
0.27302003 0.045426857 2.4090002 1.4976798e-39
0.30201486 0.058276284 2.4176667 1.4976798e-39
0.3211562 0.067003809 2.4260001 1.4976798e-39
0.30985186 0.09733849 2.4146671 1.4976798e-39
0.32577714 0.11321334 2.4260001 1.4976798e-39
0.76900357 0.11167303 2.4260006 1.4976798e-39
0.3156282 0.12553021 2.4090002 1.4976798e-39
0.34053931 0.14318249 2.4184885 1.4976798e-39
0.37147325 0.15043767 2.4259999 1.4976798e-39
0.41152152 0.15685567 2.4260004 1.4976798e-39
0.75698179 0.1307856 2.4196253 1.4976798e-39
0.76440281 0.13909601 2.4233158 1.4976798e-39
0.34949616 0.17207144 2.4090002 1.4976798e-39
0.37863111 0.1836504 2.4166493 1.4976798e-39
0.41671747 0.18151103 2.4260008 1.4976798e-39
0.75476885 0.18593977 2.4210002 1.4976798e-39
0.76415157 0.17420994 2.4260004 1.4976798e-39
0.38694918 0.21187535 2.4119313 1.4976798e-39
0.419999 0.21976636 2.4252384 1.4976798e-39
0.44493175 0.2260966 2.4260004 1.4976798e-39
0.74458134 0.21852237 2.4259999 1.4976798e-39
0.76014674 0.2033219 2.4260001 1.4976798e-39
0.4263941 0.25522676 2.4133589 1.4976798e-39
0.45442447 0.26237759 2.4260008 1.4976798e-39
0.48982096 0.27956763 2.4260001 1.4976798e-39
0.43121198 0.29561189 2.4114289 1.4976798e-39
0.45923874 0.29110947 2.4217503 1.4976798e-39
0.48910314 0.29287651 2.4238751 1.4976798e-39
0.25826001 -0.60260665 2.4430003 1.4976798e-39
0.062668338 -0.57843429 2.4547596 1.4976798e-39
0.10124767 -0.57935447 2.4590282 1.4976798e-39
0.13838671 -0.57604575 2.4599991 1.4976798e-39
0.18046644 -0.57982743 2.4553785 1.4976798e-39
0.22047073 -0.57947445 2.4548969 1.4976798e-39
0.25942114 -0.58043051 2.451041 1.4976798e-39
0.29988667 -0.5763551 2.4576197 1.4976798e-39
0.34140348 -0.57842809 2.4572215 1.4976798e-39
0.37929389 -0.57576919 2.4564626 1.4976798e-39
0.41626906 -0.56855506 2.4459271 1.4976798e-39
0.46338266 -0.56919849 2.4495003 1.4976798e-39
0.49806422 -0.56929886 2.4480915 1.4976798e-39
0.54238439 -0.56901997 2.446188 1.4976798e-39
0.58072972 -0.57003123 2.4571626 1.4976798e-39
0.62114054 -0.57300723 2.4507635 1.4976798e-39
0.66130197 -0.57679439 2.4524992 1.4976798e-39
0.69906902 -0.57443815 2.4541225 1.4976798e-39
0.73976856 -0.5719921 2.44907 1.4976798e-39
0.77861798 -0.57562649 2.4474447 1.4976798e-39
0.82149345 -0.57332885 2.4566557 1.4976798e-39
0.85957634 -0.57001114 2.4535222 1.4976798e-39
0.89423019 -0.56548959 2.4536541 1.4976798e-39
0.93958563 -0.56227779 2.4430003 1.4976798e-39
0.97580403 -0.56258804 2.4430001 1.4976798e-39
0.10856001 -0.55932003 2.4780002 1.4976798e-39
0.12791201 -0.557432 2.4780004 1.4976798e-39
0.18014668 -0.55932009 2.4780002 1.4976798e-39
0.22725715 -0.55994284 2.46 1.4976798e-39
0.29736 -0.55932003 2.4780002 1.4976798e-39
0.38198289 -0.55932003 2.4780004 1.4976798e-39
0.42044747 -0.5550918 2.4723752 1.4976798e-39
0.45760819 -0.55748749 2.4717393 1.4976798e-39
0.50030613 -0.55587274 2.466435 1.4976798e-39
0.54229838 -0.55798042 2.4712501 1.4976798e-39
0.5853672 -0.55947578 2.4735003 1.4976798e-39
0.62021971 -0.55673319 2.4720001 1.4976798e-39
0.64994401 -0.55837601 2.4780004 1.4976798e-39
0.70298505 -0.55725497 2.4780004 1.4976798e-39
0.74507737 -0.5578894 2.4717062 1.4976798e-39
0.77477336 -0.55572087 2.4706366 1.4976798e-39
0.84724009 -0.55695999 2.4780004 1.4976798e-39
0.90922064 -0.55701029 2.4720004 1.4976798e-39
0.94142348 -0.54288417 2.4652359 1.4976798e-39
0.96246445 -0.54444003 2.4430001 1.4976798e-39
0.064626731 -0.4926466 2.465806 1.4976798e-39
0.086271107 -0.48956886 2.4780004 1.4976798e-39
0.94104922 -0.5021587 2.4621964 1.4976798e-39
0.039828572 -0.44748572 2.46 1.4976798e-39
0.063014045 -0.45834789 2.4563572 1.4976798e-39
0.094493002 -0.45745426 2.4680414 1.4976798e-39
0.12036 -0.44604003 2.4780002 1.4976798e-39
0.91804004 -0.44604003 2.4780002 1.4976798e-39
0.93388444 -0.45960018 2.4626915 1.4976798e-39
0.039553333 -0.43741333 2.4430001 1.4976798e-39
0.062641598 -0.42154083 2.4510524 1.4976798e-39
0.098564923 -0.41998354 2.4635611 1.4976798e-39
0.12350669 -0.4098534 2.4780004 1.4976798e-39
0.91136587 -0.41777968 2.4774001 1.4976798e-39
0.92919469 -0.42104876 2.4596272 1.4976798e-39
0.069875039 -0.38329947 2.4430006 1.4976798e-39
0.099452227 -0.37912613 2.4542058 1.4976798e-39
0.13536321 -0.37764421 2.4692082 1.4976798e-39
0.90898985 -0.37674168 2.4660461 1.4976798e-39
0.92422307 -0.38523242 2.4546428 1.4976798e-39
0.074065566 -0.34589776 2.4430003 1.4976798e-39
0.10040894 -0.34085965 2.4512644 1.4976798e-39
0.14061506 -0.33990785 2.4633918 1.4976798e-39
0.1671309 -0.32975641 2.4780006 1.4976798e-39
0.90531212 -0.34197956 2.4573584 1.4976798e-39
0.10838389 -0.30886504 2.4430006 1.4976798e-39
0.13972905 -0.29891965 2.4492762 1.4976798e-39
0.17290755 -0.30077407 2.4698172 1.4976798e-39
0.87084007 -0.28084001 2.4780002 1.4976798e-39
0.89776278 -0.2995314 2.4626877 1.4976798e-39
0.14389235 -0.26046798 2.446667 1.4976798e-39
0.17727257 -0.25879139 2.462728 1.4976798e-39
0.20296001 -0.25016001 2.4780004 1.4976798e-39
0.87394637 -0.26081932 2.465724 1.4976798e-39
0.88532537 -0.26038048 2.4548752 1.4976798e-39
0.14890666 -0.23421779 2.4430003 1.4976798e-39
0.18136603 -0.22085713 2.4513569 1.4976798e-39
0.21763721 -0.21638156 2.4723992 1.4976798e-39
0.24308002 -0.20060001 2.4780002 1.4976798e-39
0.86017668 -0.20985401 2.4632781 1.4976798e-39
0.8888647 -0.23410921 2.4650002 1.4976798e-39
0.18704022 -0.18133102 2.4454288 1.4976798e-39
0.21954083 -0.17941751 2.4604411 1.4976798e-39
0.25161234 -0.17336923 2.4780004 1.4976798e-39
0.85338944 -0.18452308 2.4579999 1.4976798e-39
0.22241199 -0.13966227 2.4452662 1.4976798e-39
0.25885403 -0.14035028 2.4644308 1.4976798e-39
0.28084001 -0.14112802 2.4780004 1.4976798e-39
0.84917033 -0.15648687 2.4672 1.4976798e-39
0.23205438 -0.11033298 2.4430003 1.4976798e-39
0.2609472 -0.099776037 2.457231 1.4976798e-39
0.29066113 -0.09548948 2.4742761 1.4976798e-39
0.81420004 -0.088264003 2.4780004 1.4976798e-39
0.23964667 -0.046533335 2.4430001 1.4976798e-39
0.26152542 -0.060404714 2.4492061 1.4976798e-39
0.30034778 -0.059927333 2.464062 1.4976798e-39
0.32804003 -0.047200006 2.4780006 1.4976798e-39
0.79891425 -0.049199998 2.46 1.4976798e-39
0.80687547 -0.061480239 2.4742503 1.4976798e-39
0.26508495 -0.030867118 2.4430006 1.4976798e-39
0.29930216 -0.020793961 2.456363 1.4976798e-39
0.33371481 -0.016599223 2.4714539 1.4976798e-39
0.79077232 -0.016216928 2.4671111 1.4976798e-39
0.80299008 -0.021830002 2.4780004 1.4976798e-39
0.31085429 0.016786976 2.4436078 1.4976798e-39
0.340487 0.021064514 2.4598479 1.4976798e-39
0.36428788 0.023563573 2.4757504 1.4976798e-39
0.78694123 0.020506941 2.4728575 1.4976798e-39
0.31875333 0.044206668 2.4430001 1.4976798e-39
0.34187442 0.060209598 2.4506505 1.4976798e-39
0.38011792 0.061713163 2.4723926 1.4976798e-39
0.40719083 0.068440005 2.4780004 1.4976798e-39
0.75441337 0.074733347 2.4780004 1.4976798e-39
0.77456951 0.059524521 2.4678156 1.4976798e-39
0.34055284 0.09944693 2.4449699 1.4976798e-39
0.37983641 0.10080655 2.4617925 1.4976798e-39
0.41272435 0.10453811 2.4698853 1.4976798e-39
0.75427967 0.10686296 2.4644234 1.4976798e-39
0.76569664 0.095704742 2.451719 1.4976798e-39
0.3491551 0.12920755 2.4430003 1.4976798e-39
0.38159615 0.13741574 2.4440007 1.4976798e-39
0.41960067 0.13844624 2.4525559 1.4976798e-39
0.452407 0.14502583 2.4726667 1.4976798e-39
0.7508238 0.14032191 2.4579046 1.4976798e-39
0.76547337 0.14502889 2.4430001 1.4976798e-39
0.39064735 0.16868338 2.4430006 1.4976798e-39
0.43672907 0.17395258 2.4430003 1.4976798e-39
0.46090224 0.18122801 2.4596999 1.4976798e-39
0.49225241 0.19072048 2.4750004 1.4976798e-39
0.71980006 0.18644001 2.4780002 1.4976798e-39
0.74071997 0.18031938 2.4579449 1.4976798e-39
0.77012664 0.16186953 2.4430001 1.4976798e-39
0.4339233 0.21172667 2.4430001 1.4976798e-39
0.46276766 0.22030279 2.4459426 1.4976798e-39
0.49649084 0.22232969 2.462914 1.4976798e-39
0.53100008 0.23552802 2.4780004 1.4976798e-39
0.70851177 0.23043215 2.4679997 1.4976798e-39
0.7354545 0.21920682 2.450151 1.4976798e-39
0.47329301 0.25826001 2.4430003 1.4976798e-39
0.49956846 0.26024958 2.4499412 1.4976798e-39
0.53372604 0.26079905 2.46826 1.4976798e-39
0.70821714 0.25915441 2.4728067 1.4976798e-39
0.72981769 0.25525904 2.4602759 1.4976798e-39
0.43043336 0.30944666 2.4430003 1.4976798e-39
0.50954008 0.29083338 2.4430006 1.4976798e-39
0.54451406 0.29343206 2.4717243 1.4976798e-39
0.57615077 0.30236188 2.4760561 1.4976798e-39
0.6091876 0.3028326 2.4602499 1.4976798e-39
0.70642674 0.28241336 2.4780004 1.4976798e-39
0.06895072 -0.56650579 2.5072501 1.4976798e-39
0.094784021 -0.56477416 2.5007999 1.4976798e-39
0.14579809 -0.56576008 2.4960003 1.4976798e-39
0.17760654 -0.56474125 2.4960001 1.4976798e-39
0.21596777 -0.56424618 2.4998569 1.4976798e-39
0.26224077 -0.56587708 2.5061736 1.4976798e-39
0.29564145 -0.56347674 2.5035002 1.4976798e-39
0.33779457 -0.56624794 2.5037141 1.4976798e-39
0.37090477 -0.56314099 2.5020003 1.4976798e-39
0.58002287 -0.56338286 2.4960001 1.4976798e-39
0.60141718 -0.56338286 2.4960001 1.4976798e-39
0.6727314 -0.56338286 2.4960001 1.4976798e-39
0.68224001 -0.56576002 2.4960001 1.4976798e-39
0.82051057 -0.56496775 2.4960003 1.4976798e-39
0.86480469 -0.56338286 2.4960001 1.4976798e-39
0.89380574 -0.56338286 2.4960003 1.4976798e-39
0.068791725 -0.53774923 2.5077 1.4976798e-39
0.099844366 -0.54253918 2.5102873 1.4976798e-39
0.13909085 -0.54817539 2.5053754 1.4976798e-39
0.1784759 -0.55347013 2.5080004 1.4976798e-39
0.22258522 -0.55059892 2.5116923 1.4976798e-39
0.25673792 -0.5535295 2.5132174 1.4976798e-39
0.30023834 -0.55364144 2.5116773 1.4976798e-39
0.34266192 -0.55317122 2.5118401 1.4976798e-39
0.37954748 -0.55197012 2.5079999 1.4976798e-39
0.42232382 -0.54127741 2.5071063 1.4976798e-39
0.45968363 -0.54081917 2.5084856 1.4976798e-39
0.49830481 -0.5407421 2.5042639 1.4976798e-39
0.53929847 -0.54412889 2.5023165 1.4976798e-39
0.58047569 -0.54518306 2.5054584 1.4976798e-39
0.62028015 -0.53999484 2.5047369 1.4976798e-39
0.66072041 -0.54268265 2.5068579 1.4976798e-39
0.69943851 -0.54396999 2.5056436 1.4976798e-39
0.74002439 -0.54086387 2.5070977 1.4976798e-39
0.77904356 -0.54166359 2.5051768 1.4976798e-39
0.8208589 -0.54750603 2.5066078 1.4976798e-39
0.85958701 -0.54646492 2.5074239 1.4976798e-39
0.90254003 -0.54498112 2.5047007 1.4976798e-39
0.92653942 -0.53377533 2.4984 1.4976798e-39
0.073163182 -0.51161402 2.4960001 1.4976798e-39
0.10309122 -0.50294453 2.5075202 1.4976798e-39
0.12849334 -0.48643908 2.5140002 1.4976798e-39
0.43815431 -0.51956004 2.5140002 1.4976798e-39
0.45491433 -0.51956004 2.5140002 1.4976798e-39
0.91610324 -0.49998492 2.5050004 1.4976798e-39
0.9289884 -0.4976348 2.5013516 1.4976798e-39
0.11221068 -0.4673878 2.4995999 1.4976798e-39
0.13794567 -0.45856476 2.5109437 1.4976798e-39
0.91307265 -0.45980498 2.502923 1.4976798e-39
0.92816615 -0.47045821 2.4960003 1.4976798e-39
0.13988671 -0.42269531 2.5065527 1.4976798e-39
0.16360955 -0.4150095 2.5140002 1.4976798e-39
0.9023875 -0.42214406 2.5102327 1.4976798e-39
0.15249965 -0.38587034 2.4971249 1.4976798e-39
0.1724232 -0.37993148 2.5134859 1.4976798e-39
0.87657458 -0.37005016 2.5140002 1.4976798e-39
0.89736271 -0.37938091 2.5075719 1.4976798e-39
0.18363178 -0.34245819 2.5039206 1.4976798e-39
0.21106556 -0.33483166 2.5140004 1.4976798e-39
0.87168384 -0.33432546 2.5106668 1.4976798e-39
0.89193624 -0.33905068 2.4987178 1.4976798e-39
0.1935665 -0.29901797 2.5002854 1.4976798e-39
0.21803445 -0.29743207 2.5140014 1.4976798e-39
0.86462981 -0.29948649 2.5073237 1.4976798e-39
0.88952684 -0.30712685 2.4959996 1.4976798e-39
0.19492571 -0.27812573 2.4960001 1.4976798e-39
0.222716 -0.2597698 2.5092456 1.4976798e-39
0.25369021 -0.2497344 2.5140002 1.4976798e-39
0.83321142 -0.25379431 2.5140002 1.4976798e-39
0.85764939 -0.25693592 2.5033991 1.4976798e-39
0.22436574 -0.23204575 2.4960003 1.4976798e-39
0.25651163 -0.2186517 2.5072079 1.4976798e-39
0.28300461 -0.20638745 2.5140002 1.4976798e-39
0.82842284 -0.21333089 2.5140002 1.4976798e-39
0.85445565 -0.22225228 2.5032592 1.4976798e-39
0.88777143 -0.22948574 2.4960003 1.4976798e-39
0.26478794 -0.18488537 2.4981177 1.4976798e-39
0.29214439 -0.17848951 2.5118048 1.4976798e-39
0.79729718 -0.16281144 2.5140002 1.4976798e-39
0.825275 -0.17981584 2.5082746 1.4976798e-39
0.84730291 -0.18171528 2.4975646 1.4976798e-39
0.27654096 -0.15768382 2.4960001 1.4976798e-39
0.30173075 -0.13866755 2.5089011 1.4976798e-39
0.32562289 -0.13647428 2.5140004 1.4976798e-39
0.79729718 -0.15084001 2.5140004 1.4976798e-39
0.82165813 -0.14002757 2.5034649 1.4976798e-39
0.85372585 -0.13781896 2.4960005 1.4976798e-39
0.30843872 -0.10467393 2.5029674 1.4976798e-39
0.33400688 -0.098733447 2.5131001 1.4976798e-39
0.7897203 -0.092847392 2.5102501 1.4976798e-39
0.81729257 -0.10378782 2.4998367 1.4976798e-39
0.85309213 -0.11047361 2.4991763 1.4976798e-39
0.34114951 -0.062106136 2.5055747 1.4976798e-39
0.37201214 -0.045192137 2.5140002 1.4976798e-39
0.78764164 -0.058994077 2.5073335 1.4976798e-39
0.80445313 -0.059428573 2.4959998 1.4976798e-39
0.35337618 -0.022820843 2.4981174 1.4976798e-39
0.37941355 -0.018018348 2.512738 1.4976798e-39
0.41746083 -0.012313468 2.5140004 1.4976798e-39
0.44294289 -0.007182858 2.5140002 1.4976798e-39
0.75898862 -0.008779048 2.5140004 1.4976798e-39
0.77950609 -0.019136271 2.5073555 1.4976798e-39
0.80822861 -0.035657145 2.4960001 1.4976798e-39
0.38464919 0.018040769 2.5018852 1.4976798e-39
0.42048225 0.019645158 2.5125258 1.4976798e-39
0.44773147 0.035914287 2.5140004 1.4976798e-39
0.75346744 0.021025719 2.5127144 1.4976798e-39
0.77721143 0.018052302 2.5027127 1.4976798e-39
0.39222863 0.043128166 2.4960001 1.4976798e-39
0.42294288 0.056646757 2.4980006 1.4976798e-39
0.45568112 0.059991356 2.5126917 1.4976798e-39
0.74692422 0.06545984 2.5073683 1.4976798e-39
0.7679407 0.050537683 2.5045714 1.4976798e-39
0.43216461 0.095180802 2.4959993 1.4976798e-39
0.45932925 0.099796623 2.5007374 1.4976798e-39
0.49465942 0.10582745 2.5140002 1.4976798e-39
0.73884988 0.099623829 2.504621 1.4976798e-39
0.76306283 0.097462855 2.4960001 1.4976798e-39
0.46671242 0.13427807 2.4960003 1.4976798e-39
0.49900499 0.14173606 2.5093458 1.4976798e-39
0.52754104 0.15403241 2.5140004 1.4976798e-39
0.71269912 0.14206095 2.5140002 1.4976798e-39
0.73565966 0.13996331 2.5062099 1.4976798e-39
0.47780573 0.16402285 2.4960001 1.4976798e-39
0.5048359 0.17370257 2.5020003 1.4976798e-39
0.53763813 0.18136196 2.5050006 1.4976798e-39
0.56564999 0.19333859 2.5140002 1.4976798e-39
0.70772415 0.17928919 2.5116522 1.4976798e-39
0.72681856 0.1736138 2.5022068 1.4976798e-39
0.51286858 0.208 2.4960001 1.4976798e-39
0.54106069 0.21719168 2.4966214 1.4976798e-39
0.57657725 0.22188877 2.5088003 1.4976798e-39
0.60455716 0.23583716 2.5140002 1.4976798e-39
0.67758286 0.23464002 2.5140002 1.4976798e-39
0.70043278 0.21847667 2.5032768 1.4976798e-39
0.728782 0.20906347 2.4959996 1.4976798e-39
0.55493075 0.25409013 2.4959996 1.4976798e-39
0.57991779 0.25988933 2.5067434 1.4976798e-39
0.60957026 0.26176324 2.5134706 1.4976798e-39
0.67075688 0.2615822 2.5129092 1.4976798e-39
0.68897128 0.2585499 2.5000913 1.4976798e-39
0.55387425 0.309504 2.4960001 1.4976798e-39
0.5842036 0.29342636 2.4965293 1.4976798e-39
0.61990881 0.29142952 2.5044255 1.4976798e-39
0.66266561 0.28774974 2.508857 1.4976798e-39
0.69724333 0.29318139 2.5105386 1.4976798e-39
0.062697142 -0.56186283 2.5320001 1.4976798e-39
0.060285717 -0.55704004 2.5320001 1.4976798e-39
0.11655238 -0.5321219 2.5320001 1.4976798e-39
0.14088301 -0.5298 2.5331516 1.4976798e-39
0.17907396 -0.53560972 2.5422313 1.4976798e-39
0.21643114 -0.53555667 2.5354998 1.4976798e-39
0.26051459 -0.53867906 2.5374885 1.4976798e-39
0.29912564 -0.53789383 2.5384777 1.4976798e-39
0.33970585 -0.53887391 2.5369399 1.4976798e-39
0.38067001 -0.53294563 2.5381954 1.4976798e-39
0.41467363 -0.52959454 2.5412283 1.4976798e-39
0.47187987 -0.52497202 2.534375 1.4976798e-39
0.50089639 -0.52486366 2.5419521 1.4976798e-39
0.53908604 -0.52745682 2.5421336 1.4976798e-39
0.57861745 -0.52681381 2.5421338 1.4976798e-39
0.61604476 -0.5242061 2.5377004 1.4976798e-39
0.66593933 -0.52411377 2.5360715 1.4976798e-39
0.69802976 -0.52695352 2.5385516 1.4976798e-39
0.73788595 -0.5234533 2.5393884 1.4976798e-39
0.78297925 -0.52711773 2.5419998 1.4976798e-39
0.82310987 -0.53089052 2.5411482 1.4976798e-39
0.85965991 -0.5282777 2.5409062 1.4976798e-39
0.89951915 -0.5303089 2.5362754 1.4976798e-39
0.92564857 -0.52720666 2.5510001 1.4976798e-39
0.11816 -0.51845711 2.5320001 1.4976798e-39
0.14183833 -0.5038535 2.5327594 1.4976798e-39
0.1708189 -0.50060588 2.5438752 1.4976798e-39
0.39115334 -0.5174886 2.5510001 1.4976798e-39
0.43228611 -0.51768225 2.5472 1.4976798e-39
0.45965967 -0.51619172 2.544667 1.4976798e-39
0.49610877 -0.5174886 2.5510004 1.4976798e-39
0.55150193 -0.5174886 2.5510001 1.4976798e-39
0.58551526 -0.5174886 2.5510001 1.4976798e-39
0.62790191 -0.51679581 2.5442142 1.4976798e-39
0.65811956 -0.51517183 2.5436108 1.4976798e-39
0.70047587 -0.5163545 2.549417 1.4976798e-39
0.74046874 -0.5168401 2.5478339 1.4976798e-39
0.76529998 -0.5174886 2.5510001 1.4976798e-39
0.83818573 -0.5174886 2.5510001 1.4976798e-39
0.86067939 -0.51759613 2.5488892 1.4976798e-39
0.90376574 -0.50263977 2.5373824 1.4976798e-39
0.15329798 -0.47574046 2.5320001 1.4976798e-39
0.17328906 -0.45794687 2.5380452 1.4976798e-39
0.87705815 -0.44460285 2.5510001 1.4976798e-39
0.89811224 -0.46016964 2.5389085 1.4976798e-39
0.18217312 -0.42196399 2.5347703 1.4976798e-39
0.21047793 -0.41177452 2.545217 1.4976798e-39
0.87608635 -0.41058955 2.5510004 1.4976798e-39
0.88925385 -0.41788238 2.5427392 1.4976798e-39
0.18889523 -0.3854267 2.5320005 1.4976798e-39
0.21672817 -0.38038319 2.5388787 1.4976798e-39
0.24191117 -0.36963472 2.5510004 1.4976798e-39
0.87340415 -0.37722632 2.5449197 1.4976798e-39
0.89041364 -0.39141729 2.5347145 1.4976798e-39
0.22739775 -0.34399024 2.5319996 1.4976798e-39
0.25238514 -0.33471581 2.5480771 1.4976798e-39
0.83575618 -0.32312667 2.5510001 1.4976798e-39
0.85998774 -0.33881778 2.5410683 1.4976798e-39
0.23666449 -0.30969635 2.5320001 1.4976798e-39
0.26039967 -0.29931468 2.5394738 1.4976798e-39
0.28425428 -0.29640189 2.5510001 1.4976798e-39
0.8343243 -0.29979965 2.5464139 1.4976798e-39
