# .PCD v0.7 - Point Cloud Data file format
VERSION 0.7
FIELDS x y z rgb
SIZE 4 4 4 4
TYPE F F F F
COUNT 1 1 1 1
WIDTH 1015
HEIGHT 1
VIEWPOINT 0 0 0 1 0 0 0
POINTS 1015
DATA ascii
-0.70030618 -0.14063866 1.8580009 1.6407666e-38
-0.66395432 -0.13776362 1.8708276 1.6407666e-38
-0.63622546 -0.13021812 1.8730001 1.6407666e-38
-0.69374573 -0.10691044 1.8437848 1.6407666e-38
-0.65856326 -0.10202133 1.8577601 1.6407666e-38
-0.62183368 -0.097010009 1.8705518 1.6407666e-38
-0.59460318 -0.086217463 1.8730005 1.6407666e-38
-0.64698666 -0.068725333 1.8474443 1.6407666e-38
-0.62064976 -0.060281791 1.8608172 1.6407666e-38
-0.58793491 -0.054871231 1.8701836 1.6407666e-38
-0.54673767 -0.041919526 1.8730001 1.6407666e-38
-0.61281556 -0.02835935 1.8517501 1.6407666e-38
-0.57996076 -0.019950971 1.8615844 1.6407666e-38
-0.54090434 -0.018498944 1.8680862 1.6407666e-38
-0.51908857 -0.019621905 1.8730001 1.6407666e-38
-0.5726977 0.012784179 1.8523545 1.6407666e-38
-0.54053968 0.019820422 1.85737 1.6407666e-38
-0.50799024 0.027274605 1.8683337 1.6407666e-38
-0.45629856 0.026043618 1.8730001 1.6407666e-38
-0.43703336 0.022297621 1.8730001 1.6407666e-38
-0.53596431 0.052541424 1.8458238 1.6407666e-38
-0.50015688 0.06056108 1.858001 1.6407666e-38
-0.46775043 0.069060706 1.8699569 1.6407666e-38
-0.43207374 0.073706932 1.8711822 1.6407666e-38
-0.52130574 0.084251426 1.8430001 1.6407666e-38
-0.49762252 0.098717183 1.8468339 1.6407666e-38
-0.46028709 0.10023125 1.8617164 1.6407666e-38
-0.43148968 0.10193408 1.8602912 1.6407666e-38
-0.4879562 0.12111144 1.8430001 1.6407666e-38
-0.45726067 0.13910487 1.8534172 1.6407666e-38
-0.42976585 0.14125153 1.8600761 1.6407666e-38
-0.44968179 0.17050068 1.8446212 1.6407666e-38
-0.42278677 0.1815538 1.8547353 1.6407666e-38
-0.44056481 0.20536286 1.8430002 1.6407666e-38
-0.41533455 0.21706772 1.8472724 1.6407666e-38
-0.39587623 0.2232988 1.8508949 1.6407666e-38
-0.40445703 0.24347663 1.8430002 1.6407666e-38
-0.39513907 0.24586383 1.8440001 1.6407666e-38
-0.47107136 0.69036448 1.5892146 1.6407666e-38
-0.855097 0.17167498 1.61 1.6407666e-38
-1.0817437 -0.73041165 1.8917999 1.6407666e-38
-0.88663161 -0.38381627 1.8147461 1.6407666e-38
-0.97063273 -0.61259031 1.8872397 1.6407666e-38
-1.0809309 -0.71763003 1.8885001 1.6407666e-38
-1.0563509 -0.70107239 1.8855376 1.6407666e-38
-1.0234296 -0.69912624 1.898935 1.6407666e-38
-0.9926843 -0.68627852 1.9120672 1.6407666e-38
-1.0507706 -0.67500722 1.8843751 1.6407666e-38
-1.0158533 -0.66424412 1.888834 1.6407666e-38
-0.984043 -0.65764028 1.9051875 1.6407666e-38
-0.95750004 -0.64198101 1.9150001 1.6407666e-38
-1.004715 -0.63259834 1.8830003 1.6407666e-38
-0.97913259 -0.62026215 1.8894802 1.6407666e-38
-0.94943118 -0.6117813 1.903156 1.6407666e-38
-0.97003967 -0.58575994 1.8835006 1.6407666e-38
-0.94153398 -0.57963175 1.8938252 1.6407666e-38
-0.90025258 -0.57428581 1.9111657 1.6407666e-38
-0.8744154 -0.57450002 1.9150006 1.6407666e-38
-0.93156481 -0.54502565 1.8863182 1.6407666e-38
-0.90015042 -0.54043519 1.9003756 1.6407666e-38
-0.86900294 -0.53432655 1.9127972 1.6407666e-38
-0.9235667 -0.5146867 1.8830001 1.6407666e-38
-0.89769566 -0.50213015 1.8841121 1.6407666e-38
-0.85844225 -0.49871776 1.8987317 1.6407666e-38
-0.83637184 -0.49900889 1.9122503 1.6407666e-38
-0.89272141 -0.47738528 1.883 1.6407666e-38
-0.85494125 -0.4635528 1.8902799 1.6407666e-38
-0.82772714 -0.45685542 1.9095285 1.6407666e-38
-0.84568477 -0.43168092 1.8829998 1.6407666e-38
-0.81742179 -0.42095044 1.8981034 1.6407666e-38
-0.79394352 -0.41386858 1.9143534 1.6407666e-38
-0.81130075 -0.38092151 1.8862652 1.6407666e-38
-0.78365004 -0.37855229 1.9051635 1.6407666e-38
-0.81005919 -0.35349765 1.8829999 1.6407666e-38
-0.77823448 -0.34208995 1.8984365 1.6407666e-38
-0.74562746 -0.33452374 1.9132402 1.6407666e-38
-0.7149334 -0.32828572 1.9150001 1.6407666e-38
-0.77168423 -0.30577528 1.8891914 1.6407666e-38
-0.74178296 -0.30010405 1.9074146 1.6407666e-38
-0.70516205 -0.29706201 1.9118562 1.6407666e-38
-0.76360142 -0.26935869 1.8830003 1.6407666e-38
-0.73918027 -0.26299596 1.890394 1.6407666e-38
-0.69969267 -0.25923151 1.9054819 1.6407666e-38
-0.66900653 -0.25384116 1.9150008 1.6407666e-38
-0.72762156 -0.2290747 1.8829998 1.6407666e-38
-0.69728363 -0.22453757 1.8945959 1.6407666e-38
-0.66312635 -0.21682982 1.9104763 1.6407666e-38
-0.632406 -0.20472263 1.9150001 1.6407666e-38
-0.68326002 -0.19906001 1.8830001 1.6407666e-38
-0.65362251 -0.18192871 1.894183 1.6407666e-38
-0.62343776 -0.1782157 1.908879 1.6407666e-38
-0.64766175 -0.15069996 1.8851999 1.6407666e-38
-0.61824024 -0.13930815 1.8971885 1.6407666e-38
-0.58200961 -0.13633396 1.9124603 1.6407666e-38
-0.55261433 -0.12757982 1.9150006 1.6407666e-38
-0.60962212 -0.11090027 1.8898332 1.6407666e-38
-0.5790987 -0.099672563 1.901062 1.6407666e-38
-0.54182374 -0.097967751 1.9070983 1.6407666e-38
-0.51419276 -0.087178096 1.9150006 1.6407666e-38
-0.57152659 -0.063932605 1.8884103 1.6407666e-38
-0.53864026 -0.05954396 1.8968099 1.6407666e-38
-0.50651306 -0.055970848 1.9090503 1.6407666e-38
-0.47966191 -0.041947622 1.9150001 1.6407666e-38
-0.56669343 -0.037660003 1.8830001 1.6407666e-38
-0.52733868 -0.024422338 1.8846501 1.6407666e-38
-0.50008553 -0.019761659 1.89643 1.6407666e-38
-0.46532375 -0.013929944 1.9038769 1.6407666e-38
-0.52186006 0.0053800005 1.8830001 1.6407666e-38
-0.49524775 0.013815915 1.8882734 1.6407666e-38
-0.4623614 0.020692471 1.8933784 1.6407666e-38
-0.43936667 0.01345 1.8830001 1.6407666e-38
-0.48360226 0.049615562 1.8830001 1.6407666e-38
-0.4591805 0.055231921 1.8886214 1.6407666e-38
-0.43757337 0.063962229 1.8830003 1.6407666e-38
-0.74354321 -0.019846495 1.6759838 1.6407666e-38
-0.88052106 -0.58920366 1.7977706 1.6407666e-38
-1.0164924 -0.74154174 1.9283791 1.6407666e-38
-0.98305255 -0.73903382 1.9479759 1.6407666e-38
-0.95144296 -0.72891462 1.9579999 1.6407666e-38
-0.91186857 -0.73658097 1.9580001 1.6407666e-38
0.63961333 -0.7589581 1.9580001 1.6407666e-38
0.65453142 -0.7589581 1.9580001 1.6407666e-38
0.71233904 -0.7589581 1.9580001 1.6407666e-38
0.74314076 -0.75759619 1.9537694 1.6407666e-38
0.78809714 -0.75416702 1.9508647 1.6407666e-38
0.82402152 -0.75483721 1.9483093 1.6407666e-38
0.85824847 -0.74608016 1.9489995 1.6407666e-38
0.8960197 -0.74893588 1.9445727 1.6407666e-38
0.93299782 -0.75623173 1.9456253 1.6407666e-38
0.96828324 -0.748555 1.9501024 1.6407666e-38
-1.0094334 -0.71114987 1.9249996 1.6407666e-38
-0.9785406 -0.70063972 1.9335469 1.6407666e-38
-0.945952 -0.69798744 1.9524392 1.6407666e-38
-0.91057748 -0.69230831 1.9571316 1.6407666e-38
-0.9675383 -0.66644871 1.9277498 1.6407666e-38
-0.94001263 -0.65917653 1.934562 1.6407666e-38
-0.90094316 -0.65734684 1.9460835 1.6407666e-38
-0.86711437 -0.64685303 1.9579999 1.6407666e-38
-0.96250004 -0.62700003 1.9250001 1.6407666e-38
-0.93469882 -0.62499589 1.9272444 1.6407666e-38
-0.89859349 -0.62345397 1.9381278 1.6407666e-38
-0.86106104 -0.6193614 1.9548835 1.6407666e-38
-0.83504039 -0.60530174 1.9580001 1.6407666e-38
-0.92290002 -0.59509999 1.9250001 1.6407666e-38
-0.90388161 -0.59250218 1.9253433 1.6407666e-38
-0.85658473 -0.58010727 1.9383291 1.6407666e-38
-0.82617795 -0.57790327 1.9578488 1.6407666e-38
-0.85341889 -0.54527026 1.9275396 1.6407666e-38
-0.8222146 -0.53798497 1.9481714 1.6407666e-38
-0.79625332 -0.53358829 1.9580001 1.6407666e-38
-0.8424167 -0.50508332 1.9250001 1.6407666e-38
-0.81915301 -0.50060248 1.9370579 1.6407666e-38
-0.79144585 -0.49748811 1.9559374 1.6407666e-38
-0.8102389 -0.46500981 1.9268341 1.6407666e-38
-0.78017467 -0.45831749 1.9420086 1.6407666e-38
-0.73813564 -0.453376 1.9576142 1.6407666e-38
-0.71793336 -0.44567811 1.9580001 1.6407666e-38
-0.80116671 -0.43633336 1.9250001 1.6407666e-38
-0.77647406 -0.4212611 1.9304581 1.6407666e-38
-0.74125528 -0.4199408 1.953169 1.6407666e-38
-0.71417201 -0.41437006 1.9569002 1.6407666e-38
-0.7642017 -0.38396019 1.9313682 1.6407666e-38
-0.74107087 -0.38082066 1.944589 1.6407666e-38
-0.70695335 -0.37796578 1.9514281 1.6407666e-38
-0.73455983 -0.34714574 1.9278005 1.6407666e-38
-0.69882089 -0.34024096 1.9433599 1.6407666e-38
-0.66740429 -0.3300629 1.9579999 1.6407666e-38
-0.68813002 -0.30269006 1.9337658 1.6407666e-38
-0.66065001 -0.30030575 1.9516308 1.6407666e-38
-0.63202113 -0.28970408 1.9580002 1.6407666e-38
-0.68456668 -0.27610001 1.9250001 1.6407666e-38
-0.65579492 -0.26273856 1.9331663 1.6407666e-38
-0.62327963 -0.25892937 1.9511718 1.6407666e-38
-0.58822256 -0.24766064 1.9570001 1.6407666e-38
-0.64875954 -0.23013458 1.9264344 1.6407666e-38
-0.62042534 -0.22163278 1.9409781 1.6407666e-38
-0.58147711 -0.2189156 1.9519449 1.6407666e-38
-0.55138928 -0.20959069 1.9554614 1.6407666e-38
-0.60759068 -0.18558888 1.9312435 1.6407666e-38
-0.58091038 -0.18011226 1.9385902 1.6407666e-38
-0.5407235 -0.17790796 1.9468247 1.6407666e-38
-0.51343113 -0.16845016 1.9580001 1.6407666e-38
-0.60561121 -0.15827778 1.9250001 1.6407666e-38
-0.57397234 -0.15221302 1.9269997 1.6407666e-38
-0.53763473 -0.14208762 1.9363096 1.6407666e-38
-0.50327092 -0.13664514 1.9496889 1.6407666e-38
-0.47289881 -0.13251057 1.9411339 1.6407666e-38
-0.52857345 -0.11148343 1.9316002 1.6407666e-38
-0.49942398 -0.10130655 1.9370724 1.6407666e-38
-0.47299138 -0.10065028 1.9360006 1.6407666e-38
-0.49167937 -0.066508852 1.931492 1.6407666e-38
-0.47054267 -0.05929191 1.933298 1.6407666e-38
-0.46939543 -0.030758902 1.9258459 1.6407666e-38
-0.047542702 0.39149699 1.9451668 1.6407666e-38
-0.046619046 0.40092382 1.9580001 1.6407666e-38
0.0037295236 0.42143619 1.9580001 1.6407666e-38
-0.94839203 -0.57175481 1.8917586 1.6407666e-38
-0.91991287 -0.65978754 1.9448253 1.6407666e-38
-0.91442287 -0.76075435 1.9920001 1.6407666e-38
-0.79332596 0.1765368 1.6262099 1.6407666e-38
-0.57166588 0.080878653 1.7020067 1.6407666e-38
-0.45009327 0.025453834 1.728557 1.6407666e-38
0.66281718 -0.76345724 1.9733846 1.6407666e-38
0.6942842 -0.7631641 1.97904 1.6407666e-38
0.73631924 -0.76232105 1.9911433 1.6407666e-38
0.76707816 -0.76075435 1.9920001 1.6407666e-38
0.95395637 -0.76633531 1.97 1.6407666e-38
0.97099829 -0.77259821 1.9690001 1.6407666e-38
0.76994842 -0.67346448 1.9262559 1.6407666e-38
-0.96799797 -0.75065798 1.9690002 1.6407666e-38
-0.93789083 -0.74250597 1.9696459 1.6407666e-38
-0.90641087 -0.735075 1.9792143 1.6407666e-38
-0.86889148 -0.73798865 1.9920001 1.6407666e-38
0.63670141 -0.7551046 1.9862002 1.6407666e-38
0.66078502 -0.75382942 1.9841558 1.6407666e-38
0.70097184 -0.75592792 1.9857444 1.6407666e-38
0.74118054 -0.75115883 1.9874249 1.6407666e-38
0.77953732 -0.7524339 1.9811507 1.6407666e-38
0.82215708 -0.73920977 1.9791958 1.6407666e-38
0.85757899 -0.73186219 1.9771298 1.6407666e-38
0.90012509 -0.73496121 1.9821448 1.6407666e-38
0.94088131 -0.74125558 1.9818403 1.6407666e-38
0.98061955 -0.73829079 1.9809417 1.6407666e-38
1.0180373 -0.7419883 1.9882442 1.6407666e-38
-0.93525994 -0.70720667 1.9690007 1.6407666e-38
-0.89612526 -0.70169407 1.9759673 1.6407666e-38
-0.86072838 -0.69113767 1.9897187 1.6407666e-38
0.83305144 -0.71883053 1.9880003 1.6407666e-38
0.85443431 -0.71790063 1.9884001 1.6407666e-38
0.95066077 -0.71255428 1.9878465 1.6407666e-38
0.98669457 -0.71579295 1.9849411 1.6407666e-38
1.0172483 -0.71567005 1.9909569 1.6407666e-38
-0.88915896 -0.67103916 1.9690002 1.6407666e-38
-0.85859865 -0.66192991 1.9759361 1.6407666e-38
-0.83233458 -0.64892429 1.9896003 1.6407666e-38
-0.8452636 -0.63008004 1.969 1.6407666e-38
-0.82209146 -0.61826468 1.9777565 1.6407666e-38
-0.79743242 -0.60265917 1.9920001 1.6407666e-38
-0.80905962 -0.58152372 1.9751195 1.6407666e-38
-0.79025328 -0.57319707 1.9865873 1.6407666e-38
-0.75397885 -0.57131112 1.9920006 1.6407666e-38
-0.80608451 -0.55051637 1.9690001 1.6407666e-38
-0.77779365 -0.5400638 1.9767939 1.6407666e-38
-0.74447465 -0.53861529 1.9918351 1.6407666e-38
-0.77336794 -0.50274515 1.9701334 1.6407666e-38
-0.74257302 -0.49871597 1.9806098 1.6407666e-38
-0.7142331 -0.49366951 1.9920005 1.6407666e-38
-0.76581848 -0.47039631 1.9690001 1.6407666e-38
-0.74087286 -0.46781433 1.9751761 1.6407666e-38
-0.70643616 -0.45590019 1.9878217 1.6407666e-38
-0.6975199 -0.42131028 1.9838938 1.6407666e-38
-0.67152333 -0.41154924 1.9920005 1.6407666e-38
-0.68917578 -0.38341585 1.9769126 1.6407666e-38
-0.66417056 -0.37656993 1.9900736 1.6407666e-38
-0.63933712 -0.36994287 1.9920001 1.6407666e-38
-0.6822117 -0.3551701 1.9690001 1.6407666e-38
-0.65548378 -0.34274748 1.9771132 1.6407666e-38
-0.62361443 -0.3289378 1.9912645 1.6407666e-38
-0.57627976 -0.32730234 1.9920005 1.6407666e-38
-0.64313549 -0.31386459 1.9734001 1.6407666e-38
-0.61718124 -0.30196592 1.9794133 1.6407666e-38
-0.58197713 -0.29852182 1.989185 1.6407666e-38
-0.60532683 -0.27340969 1.9690001 1.6407666e-38
-0.57708651 -0.26219305 1.9755584 1.6407666e-38
-0.54147947 -0.25465807 1.9850413 1.6407666e-38
-0.51520985 -0.2441894 1.9920003 1.6407666e-38
-0.57194757 -0.2344048 1.9690001 1.6407666e-38
-0.53781271 -0.22302672 1.9778581 1.6407666e-38
-0.50470561 -0.21579717 1.9861637 1.6407666e-38
-0.47997716 -0.21248001 1.9920001 1.6407666e-38
-0.52806705 -0.19389962 1.9690001 1.6407666e-38
-0.49904808 -0.1806204 1.9752978 1.6407666e-38
-0.4420343 -0.16125715 1.9920001 1.6407666e-38
-0.49267033 -0.15189427 1.9690007 1.6407666e-38
-0.46369132 -0.14830752 1.9776249 1.6407666e-38
-0.42432874 -0.14226355 1.9884709 1.6407666e-38
-0.39679623 -0.12786669 1.9840002 1.6407666e-38
-0.41068184 -0.095155917 1.9902859 1.6407666e-38
-0.39600012 -0.10050859 1.9799999 1.6407666e-38
-0.41293773 -0.06368459 1.9882666 1.6407666e-38
-0.39689296 -0.062909536 1.9728824 1.6407666e-38
-0.043634288 0.39650288 1.9920001 1.6407666e-38
-0.03794286 0.39650288 1.9920001 1.6407666e-38
-0.046485383 0.41570759 1.9898826 1.6407666e-38
-0.025472796 0.41868475 1.9904323 1.6407666e-38
0.0051336056 0.4182387 1.9820005 1.6407666e-38
-0.63475978 0.15544003 1.7540164 1.6407666e-38
-0.71906817 -0.27775803 1.8962487 1.6407666e-38
-0.79743242 -0.60265917 1.9920001 1.6407666e-38
-0.54118007 -0.6563254 2.0047336 1.6407666e-38
-0.45834899 -0.52242351 2.0045564 1.6407666e-38
-0.57627976 -0.32730234 1.9920005 1.6407666e-38
-0.44612831 -0.20396917 1.8926992 1.6407666e-38
-0.48774683 0.30902609 1.755861 1.6407666e-38
-0.42373517 0.42263663 1.7514544 1.6407666e-38
-0.48283148 0.35152879 1.7409008 1.6407666e-38
-1.0648818 -0.53927857 1.791181 1.6407666e-38
-0.86581802 -0.015136277 1.6733198 1.6407666e-38
-0.86085325 -0.49640197 1.9108591 1.6407666e-38
-0.88328344 -0.71497953 1.9935763 1.6407666e-38
-0.86245078 -0.77582681 2.0281031 1.6407666e-38
-0.83356255 -0.77384901 2.0389998 1.6407666e-38
-0.13399144 -0.79812282 2.039 1.6407666e-38
-0.055639364 -0.79481667 2.0380006 1.6407666e-38
-0.097996421 -0.72488594 2.0152509 1.6407666e-38
-0.032703929 -0.76856107 2.0338326 1.6407666e-38
0.067260519 -0.79441559 2.0390003 1.6407666e-38
0.070258774 -0.74013114 2.0200698 1.6407666e-38
0.080031075 -0.69573158 2.0036776 1.6407666e-38
0.1221403 -0.68554235 2.0017827 1.6407666e-38
0.18976648 -0.78462648 2.0225797 1.6407666e-38
0.13035561 -0.76168799 2.0027137 1.6407666e-38
0.24474296 -0.74249989 2.0042739 1.6407666e-38
0.32154474 -0.77000386 2.0199628 1.6407666e-38
0.35951778 -0.76703542 2.0153344 1.6407666e-38
0.37396297 -0.74206018 2.0076499 1.6407666e-38
0.44981474 -0.76675743 2.0181727 1.6407666e-38
0.49952632 -0.77055532 2.0150001 1.6407666e-38
0.53867871 -0.76876885 2.0082874 1.6407666e-38
0.57850569 -0.7722013 2.0086663 1.6407666e-38
0.6186558 -0.77066654 2.009562 1.6407666e-38
0.75541711 -0.76113999 2.003 1.6407666e-38
-0.89268613 -0.74182546 2.0029991 1.6407666e-38
-0.86012036 -0.74166983 2.0130525 1.6407666e-38
-0.82580537 -0.73317277 2.0318005 1.6407666e-38
-0.77792704 -0.7274375 2.039 1.6407666e-38
0.34630638 -0.75928485 2.039 1.6407666e-38
0.37521616 -0.75694764 2.0346367 1.6407666e-38
0.43498668 -0.75928479 2.039 1.6407666e-38
0.46799907 -0.75928479 2.039 1.6407666e-38
0.51114362 -0.75691932 2.025286 1.6407666e-38
0.53647536 -0.75707239 2.0205715 1.6407666e-38
0.58195597 -0.75194198 2.0157056 1.6407666e-38
0.62205768 -0.75410205 2.0255268 1.6407666e-38
0.65883011 -0.73820055 2.0201097 1.6407666e-38
0.70157087 -0.73981124 2.023073 1.6407666e-38
0.73719597 -0.73395574 2.0237172 1.6407666e-38
0.77942264 -0.73604536 2.018589 1.6407666e-38
0.81616145 -0.733096 2.0276575 1.6407666e-38
0.84765393 -0.72450382 2.0353076 1.6407666e-38
0.90055013 -0.7248823 2.0153155 1.6407666e-38
0.93829054 -0.72621226 2.025244 1.6407666e-38
0.98448503 -0.72213656 2.0180001 1.6407666e-38
1.0365307 -0.74969435 2.0030003 1.6407666e-38
1.0465552 -0.73543543 2.0120001 1.6407666e-38
-0.88595295 -0.71481216 2.0030003 1.6407666e-38
-0.85752147 -0.70703834 2.0029988 1.6407666e-38
-0.82123095 -0.69926035 2.0185449 1.6407666e-38
-0.78157234 -0.69286543 2.0367787 1.6407666e-38
-0.75799024 -0.68613976 2.039 1.6407666e-38
0.72918522 -0.71656287 2.039 1.6407666e-38
0.77287811 -0.71462095 2.039 1.6407666e-38
0.82660419 -0.71138436 2.0389998 1.6407666e-38
0.86038989 -0.70575339 2.0268939 1.6407666e-38
0.89990342 -0.70488614 2.0309136 1.6407666e-38
0.93968904 -0.69977272 2.0230331 1.6407666e-38
0.9804858 -0.70000297 2.0284829 1.6407666e-38
1.0150466 -0.70149821 2.023999 1.6407666e-38
1.0497284 -0.71000475 2.0293078 1.6407666e-38
-0.84453952 -0.67150015 2.0040002 1.6407666e-38
-0.81722766 -0.66172409 2.0088639 1.6407666e-38
-0.78050196 -0.65878636 2.0221763 1.6407666e-38
-0.74901283 -0.6562742 2.0382392 1.6407666e-38
0.97289425 -0.67772478 2.039 1.6407666e-38
1.0175581 -0.67578286 2.0389998 1.6407666e-38
-0.80823469 -0.62951106 2.0044992 1.6407666e-38
-0.7815966 -0.61940676 2.0094368 1.6407666e-38
-0.74104673 -0.61869884 2.0291336 1.6407666e-38
-0.71656281 -0.61752576 2.0389998 1.6407666e-38
-0.77729017 -0.58427131 2.0045228 1.6407666e-38
-0.73847169 -0.58167922 2.0159497 1.6407666e-38
-0.70793468 -0.5753476 2.0359099 1.6407666e-38
-0.76495522 -0.55320954 2.003 1.6407666e-38
-0.7293154 -0.54274088 2.0029991 1.6407666e-38
-0.70357877 -0.53905755 2.0242596 1.6407666e-38
-0.73061812 -0.51505715 2.003 1.6407666e-38
-0.69805014 -0.50101751 2.0195274 1.6407666e-38
-0.66148198 -0.49856594 2.0372865 1.6407666e-38
-0.6914131 -0.46685377 2.0051327 1.6407666e-38
-0.66036016 -0.45978683 2.0212061 1.6407666e-38
-0.63112885 -0.44835237 2.037957 1.6407666e-38
-0.65692943 -0.42352006 2.0073514 1.6407666e-38
-0.62162918 -0.41755107 2.0272198 1.6407666e-38
-0.58358282 -0.41392979 2.0383217 1.6407666e-38
-0.64882892 -0.38641211 2.0029993 1.6407666e-38
-0.61929077 -0.38007382 2.016192 1.6407666e-38
-0.57778221 -0.38030055 2.0320895 1.6407666e-38
-0.54388881 -0.37526575 2.0360918 1.6407666e-38
-0.51848859 -0.37284571 2.039 1.6407666e-38
1.0563962 -0.36507809 2.039 1.6407666e-38
-0.64286762 -0.35100192 2.003 1.6407666e-38
-0.61589611 -0.34629777 2.0052934 1.6407666e-38
-0.57757086 -0.34176672 2.0128825 1.6407666e-38
-0.55187881 -0.34707114 2.0261431 1.6407666e-38
1.038919 -0.34294039 2.039 1.6407666e-38
1.0506575 -0.34048337 2.0376673 1.6407666e-38
-0.58702636 -0.31441033 2.0030003 1.6407666e-38
-0.49183422 -0.28605336 2.0294001 1.6407666e-38
-0.47032934 -0.28810099 2.0390003 1.6407666e-38
1.0362591 -0.29936284 2.0289357 1.6407666e-38
1.0453666 -0.29748207 2.0263686 1.6407666e-38
-0.52826416 -0.26873779 2.0077996 1.6407666e-38
-0.49808389 -0.26059729 2.0173147 1.6407666e-38
-0.4646697 -0.25803733 2.0351005 1.6407666e-38
1.0305223 -0.25620747 2.0302947 1.6407666e-38
1.0461999 -0.26439217 2.0270004 1.6407666e-38
-0.49244872 -0.2307277 2.0076659 1.6407666e-38
-0.45629871 -0.223553 2.0311329 1.6407666e-38
-0.42068991 -0.2172212 2.0367153 1.6407666e-38
-0.39573574 -0.21791923 2.0215454 1.6407666e-38
1.030854 -0.23277856 2.0175714 1.6407666e-38
1.0433601 -0.2327442 2.0197999 1.6407666e-38
-0.44533148 -0.18418998 2.0256155 1.6407666e-38
-0.42092502 -0.17906967 2.0282364 1.6407666e-38
-0.39805764 -0.19564907 2.0240002 1.6407666e-38
-0.44066 -0.13544095 2.003 1.6407666e-38
-0.42135924 -0.14099383 2.0088067 1.6407666e-38
-0.3986924 -0.14497904 2.003 1.6407666e-38
-0.42357951 -0.10292757 2.0045645 1.6407666e-38
-0.42412731 -0.07821238 2.003 1.6407666e-38
-0.033718534 0.31052822 2.0389998 1.6407666e-38
-0.024590135 0.34411818 2.0351362 1.6407666e-38
-0.042199165 0.38309512 2.0255001 1.6407666e-38
-0.01950497 0.38128662 2.0283074 1.6407666e-38
0.0083586331 0.38930964 2.0390003 1.6407666e-38
0.042721905 0.39809048 2.039 1.6407666e-38
-0.013732084 0.4114311 2.0115328 1.6407666e-38
0.015935482 0.41075629 2.0335889 1.6407666e-38
0.042074602 0.4032689 2.039 1.6407666e-38
-0.61869562 0.078611225 1.7979037 1.6407666e-38
-0.69469327 -0.27662742 1.9121908 1.6407666e-38
-0.7057476 -0.46509621 1.9820874 1.6407666e-38
-0.77019078 -0.65352052 2.0163424 1.6407666e-38
-0.9785406 -0.70063972 1.9335469 1.6407666e-38
-0.6765697 -0.76215547 2.0430007 1.6407666e-38
-0.6395492 -0.74910611 2.0424035 1.6407666e-38
-0.60278237 -0.68991423 2.0350795 1.6407666e-38
-0.5649358 -0.61526203 2.0251884 1.6407666e-38
-0.49828449 -0.58017266 2.0260503 1.6407666e-38
-0.42036664 -0.66350281 2.0477366 1.6407666e-38
-0.41246259 -0.69184446 2.0295837 1.6407666e-38
-0.19422418 -0.76657277 2.0367386 1.6407666e-38
-0.23583063 -0.79568809 2.054908 1.6407666e-38
-0.134046 -0.78899026 2.04776 1.6407666e-38
-0.17646252 -0.77195841 2.0358698 1.6407666e-38
-0.27214795 -0.75201821 2.0408225 1.6407666e-38
-0.253488 -0.72907227 2.0393524 1.6407666e-38
-0.20471482 -0.68724817 2.0404751 1.6407666e-38
-0.073575556 -0.80412221 2.0510001 1.6407666e-38
-0.027346667 -0.80282003 2.0510001 1.6407666e-38
-0.85344386 -0.79435533 2.0509999 1.6407666e-38
-0.81909871 -0.7802785 2.0612321 1.6407666e-38
-0.7798996 -0.77833414 2.0712402 1.6407666e-38
-0.75577557 -0.77215403 2.0750718 1.6407666e-38
-0.4171772 -0.79678869 2.0760002 1.6407666e-38
-0.37961146 -0.79678869 2.0760002 1.6407666e-38
-0.34995434 -0.79678869 2.0760002 1.6407666e-38
-0.29448852 -0.79627556 2.0732145 1.6407666e-38
-0.25143352 -0.79553908 2.0682797 1.6407666e-38
-0.21756987 -0.7925632 2.0674932 1.6407666e-38
-0.18237709 -0.79477972 2.0648553 1.6407666e-38
-0.13937339 -0.79020208 2.0666385 1.6407666e-38
-0.099017948 -0.79339117 2.0687642 1.6407666e-38
-0.058367636 -0.78305811 2.0597384 1.6407666e-38
-0.021874672 -0.78620535 2.0611892 1.6407666e-38
0.022106465 -0.78169847 2.0609527 1.6407666e-38
0.058036935 -0.78325558 2.0615466 1.6407666e-38
0.098431237 -0.77226341 2.0625856 1.6407666e-38
0.14026941 -0.76799154 2.0623028 1.6407666e-38
0.18053223 -0.76860821 2.0655987 1.6407666e-38
0.22105403 -0.77000523 2.0641468 1.6407666e-38
0.25906539 -0.77112389 2.0618074 1.6407666e-38
0.29913998 -0.76549429 2.0615008 1.6407666e-38
0.3276673 -0.76495516 2.057353 1.6407666e-38
0.39652669 -0.76375335 2.0510001 1.6407666e-38
0.41779736 -0.76293081 2.0572395 1.6407666e-38
0.45868525 -0.7639789 2.0561428 1.6407666e-38
0.49614674 -0.76375335 2.0510004 1.6407666e-38
0.54888672 -0.76375335 2.0510001 1.6407666e-38
0.56646669 -0.76570666 2.0510001 1.6407666e-38
-0.84188676 -0.75203341 2.0510001 1.6407666e-38
-0.81547809 -0.7453624 2.0522008 1.6407666e-38
-0.77733678 -0.73786777 2.0564911 1.6407666e-38
-0.75329816 -0.73703557 2.0734401 1.6407666e-38
0.11269715 -0.75487322 2.0760002 1.6407666e-38
0.14248614 -0.75566417 2.0760002 1.6407666e-38
0.17560625 -0.75221312 2.0760005 1.6407666e-38
0.22275811 -0.75526875 2.0760002 1.6407666e-38
0.26559621 -0.75680643 2.0760002 1.6407666e-38
0.30277646 -0.75144345 2.0696986 1.6407666e-38
0.3403872 -0.75418645 2.0660846 1.6407666e-38
0.38026565 -0.7510677 2.063324 1.6407666e-38
0.42015862 -0.74868453 2.0682712 1.6407666e-38
0.46075812 -0.74674338 2.0638752 1.6407666e-38
0.50070846 -0.7449699 2.0604854 1.6407666e-38
0.53996772 -0.7418946 2.0600164 1.6407666e-38
0.57986069 -0.74338287 2.0607779 1.6407666e-38
0.62031078 -0.73806369 2.0606616 1.6407666e-38
0.65674335 -0.73100615 2.0603068 1.6407666e-38
0.6992839 -0.72529948 2.0552754 1.6407666e-38
0.74975455 -0.7233845 2.0510006 1.6407666e-38
0.78444952 -0.7259711 2.0526364 1.6407666e-38
0.82079071 -0.7239055 2.0510001 1.6407666e-38
-0.80282003 -0.71687335 2.0510001 1.6407666e-38
-0.78218263 -0.70574796 2.0510006 1.6407666e-38
-0.74224073 -0.69733059 2.062403 1.6407666e-38
-0.71770298 -0.68606871 2.0760002 1.6407666e-38
0.61884576 -0.71572578 2.0760002 1.6407666e-38
0.67164987 -0.71686167 2.0645001 1.6407666e-38
0.70016271 -0.71479422 2.0632858 1.6407666e-38
0.74148709 -0.71033204 2.0574248 1.6407666e-38
0.77900988 -0.70996439 2.0566895 1.6407666e-38
0.82168508 -0.7048977 2.0591612 1.6407666e-38
0.85605675 -0.68980509 2.0590863 1.6407666e-38
0.89481705 -0.68606859 2.0564151 1.6407666e-38
0.93543243 -0.68839633 2.0648148 1.6407666e-38
0.97982782 -0.68513906 2.0667844 1.6407666e-38
1.0110511 -0.68794501 2.0580382 1.6407666e-38
1.058624 -0.69322884 2.059001 1.6407666e-38
-0.73076475 -0.66450781 2.0551198 1.6407666e-38
-0.7046814 -0.65521425 2.0708082 1.6407666e-38
-0.67816007 -0.65048009 2.0760002 1.6407666e-38
0.8699429 -0.67816013 2.0760002 1.6407666e-38
0.90384001 -0.67618722 2.0676923 1.6407666e-38
0.93938798 -0.67419571 2.0702782 1.6407666e-38
0.9848721 -0.67097157 2.0756588 1.6407666e-38
1.0191822 -0.66920143 2.0704348 1.6407666e-38
1.0587846 -0.67358124 2.0721357 1.6407666e-38
1.0814973 -0.67618293 2.0760002 1.6407666e-38
-0.72273338 -0.62897336 2.0510001 1.6407666e-38
-0.69884467 -0.62061101 2.0569806 1.6407666e-38
-0.67514676 -0.61154974 2.0740502 1.6407666e-38
-0.69019723 -0.58392167 2.0524247 1.6407666e-38
-0.6691432 -0.57968003 2.0694282 1.6407666e-38
-0.68425268 -0.5373621 2.0510001 1.6407666e-38
-0.6606164 -0.54006279 2.0558071 1.6407666e-38
-0.62908775 -0.53250843 2.070344 1.6407666e-38
1.0735887 -0.53185153 2.0760002 1.6407666e-38
-0.68757343 -0.51763332 2.0510001 1.6407666e-38
-0.64974976 -0.50040847 2.0509999 1.6407666e-38
-0.62391311 -0.49841857 2.0627625 1.6407666e-38
-0.58890986 -0.48978662 2.0727506 1.6407666e-38
-0.55953145 -0.48044574 2.0760002 1.6407666e-38
1.0717719 -0.49786595 2.0760007 1.6407666e-38
-0.64342809 -0.46919069 2.0510004 1.6407666e-38
-0.61955982 -0.46306095 2.0522001 1.6407666e-38
-0.58305925 -0.45994037 2.0692415 1.6407666e-38
-0.55481678 -0.45306993 2.0760002 1.6407666e-38
1.0621319 -0.45705968 2.0703499 1.6407666e-38
-0.60808778 -0.43258822 2.0510006 1.6407666e-38
-0.57387888 -0.42528692 2.0556369 1.6407666e-38
-0.54523963 -0.4171901 2.0676935 1.6407666e-38
-0.5199886 -0.40136003 2.0760002 1.6407666e-38
1.0370115 -0.41025719 2.0760002 1.6407666e-38
1.0565264 -0.41810316 2.0681121 1.6407666e-38
-0.53143579 -0.39056838 2.0582185 1.6407666e-38
-0.50805652 -0.38894117 2.0752981 1.6407666e-38
1.0322051 -0.37662014 2.0708613 1.6407666e-38
1.055415 -0.38274497 2.0653558 1.6407666e-38
1.0326591 -0.33858141 2.0650015 1.6407666e-38
1.0446193 -0.34222063 2.0552173 1.6407666e-38
-0.48442668 -0.29886001 2.0510001 1.6407666e-38
-0.45865127 -0.29380903 2.0585237 1.6407666e-38
-0.42295185 -0.28237739 2.0734003 1.6407666e-38
1.0315675 -0.29961401 2.0637662 1.6407666e-38
1.0411267 -0.31253335 2.0510001 1.6407666e-38
-0.44835833 -0.26649982 2.0579143 1.6407666e-38
-0.42108729 -0.25986078 2.063339 1.6407666e-38
-0.39714855 -0.2620742 2.0631249 1.6407666e-38
1.0276508 -0.26095182 2.0644245 1.6407666e-38
-0.42503577 -0.22440846 2.0514135 1.6407666e-38
1.0325892 -0.2352156 2.071125 1.6407666e-38
-0.017636115 0.26897058 2.0760002 1.6407666e-38
0.0019771431 0.27482289 2.0760002 1.6407666e-38
-0.016608352 0.29903913 2.0611157 1.6407666e-38
0.0041739689 0.303821 2.0760002 1.6407666e-38
-0.011124603 0.33397272 2.0522251 1.6407666e-38
0.01700451 0.34303775 2.0614245 1.6407666e-38
0.041520003 0.3440229 2.0760002 1.6407666e-38
-0.042973336 0.38090003 2.0510001 1.6407666e-38
-0.0019533334 0.36527336 2.0510001 1.6407666e-38
0.022610182 0.37725794 2.0550473 1.6407666e-38
0.048968256 0.38455865 2.0649238 1.6407666e-38
0.028183812 0.40210763 2.0510004 1.6407666e-38
-0.7092784 -0.42969346 1.9658086 1.6407666e-38
-0.76605785 -0.626463 1.969991 1.6407666e-38
-0.65755123 -0.72321641 2.0185733 1.6407666e-38
-0.62166625 -0.79661483 2.0755355 1.6407666e-38
-0.55507177 -0.80334836 2.0793891 1.6407666e-38
-0.65039718 -0.79664385 2.0866699 1.6407666e-38
-0.58131468 -0.79900259 2.0909076 1.6407666e-38
-0.5421443 -0.80754513 2.0998383 1.6407666e-38
-0.50252616 -0.79953486 2.0925841 1.6407666e-38
-0.46084008 -0.80862015 2.0987954 1.6407666e-38
-0.42614427 -0.8066234 2.0930874 1.6407666e-38
-0.38168398 -0.80288064 2.0933187 1.6407666e-38
-0.33025622 -0.80267113 2.0956471 1.6407666e-38
-0.31716716 -0.80188811 2.0945001 1.6407666e-38
-0.27527714 -0.80188811 2.0945001 1.6407666e-38
-0.76162291 -0.79741716 2.0880001 1.6407666e-38
-0.73899251 -0.78004354 2.0956748 1.6407666e-38
-0.71267349 -0.78094918 2.1111104 1.6407666e-38
-0.60548097 -0.79743725 2.112143 1.6407666e-38
-0.58293182 -0.79517633 2.1059709 1.6407666e-38
-0.53604996 -0.79753184 2.1140001 1.6407666e-38
-0.51091671 -0.797014 2.1128182 1.6407666e-38
-0.45160717 -0.79883671 2.1075001 1.6407666e-38
-0.41625574 -0.79162592 2.1094995 1.6407666e-38
-0.38191858 -0.7936638 2.1091559 1.6407666e-38
-0.34108442 -0.79375964 2.1071444 1.6407666e-38
-0.29873696 -0.79142052 2.1052611 1.6407666e-38
-0.2584607 -0.78490859 2.1048508 1.6407666e-38
-0.22227313 -0.77867371 2.1016655 1.6407666e-38
-0.17991555 -0.77984357 2.1030259 1.6407666e-38
-0.14040488 -0.77226299 2.1011636 1.6407666e-38
-0.099907055 -0.77840763 2.102267 1.6407666e-38
-0.061790485 -0.76931936 2.0944993 1.6407666e-38
-0.016699303 -0.7702952 2.0905528 1.6407666e-38
0.018491577 -0.76742196 2.0925875 1.6407666e-38
0.059615836 -0.76674199 2.092804 1.6407666e-38
0.094893008 -0.76662499 2.096807 1.6407666e-38
0.24658287 -0.76162291 2.0880001 1.6407666e-38
-0.73766804 -0.74021143 2.0892222 1.6407666e-38
-0.70358586 -0.73911554 2.1020212 1.6407666e-38
-0.24562666 -0.75902671 2.1140001 1.6407666e-38
-0.17046224 -0.75634229 2.1140003 1.6407666e-38
-0.14858402 -0.75661063 2.1140003 1.6407666e-38
-0.053819228 -0.75479597 2.1074998 1.6407666e-38
-0.021616492 -0.75332981 2.1060548 1.6407666e-38
0.017845195 -0.7563442 2.109273 1.6407666e-38
0.062162027 -0.75219673 2.1057017 1.6407666e-38
0.10181453 -0.75011712 2.1086709 1.6407666e-38
0.13790426 -0.74959141 2.10058 1.6407666e-38
0.1817565 -0.74259645 2.0965159 1.6407666e-38
0.21858893 -0.74589217 2.096854 1.6407666e-38
0.25977039 -0.74501687 2.0941815 1.6407666e-38
0.29955661 -0.7407788 2.1015189 1.6407666e-38
0.33929718 -0.7359497 2.1009986 1.6407666e-38
0.37949172 -0.74001223 2.1058273 1.6407666e-38
0.41827077 -0.73209518 2.1041191 1.6407666e-38
0.46020198 -0.7301569 2.1028562 1.6407666e-38
0.50133747 -0.72876155 2.0975657 1.6407666e-38
0.54273391 -0.72600007 2.0981114 1.6407666e-38
0.58081627 -0.72768611 2.1002038 1.6407666e-38
0.61607087 -0.72731549 2.0973604 1.6407666e-38
0.65628463 -0.72707665 2.0962338 1.6407666e-38
0.71389717 -0.72185153 2.0880001 1.6407666e-38
0.72185147 -0.72185147 2.0880001 1.6407666e-38
-0.72781712 -0.71146667 2.0880001 1.6407666e-38
-0.7006548 -0.70058852 2.0974987 1.6407666e-38
-0.66806716 -0.69417882 2.1112783 1.6407666e-38
0.34226668 -0.71876007 2.1140001 1.6407666e-38
0.41575333 -0.71725011 2.1140001 1.6407666e-38
0.46046153 -0.71867651 2.1114001 1.6407666e-38
0.49887091 -0.71549296 2.111263 1.6407666e-38
0.53913867 -0.71337748 2.1117864 1.6407666e-38
0.58468848 -0.71045905 2.1083915 1.6407666e-38
0.62090224 -0.71112931 2.1048765 1.6407666e-38
0.66467226 -0.71200842 2.1049459 1.6407666e-38
0.69944745 -0.70603877 2.100678 1.6407666e-38
0.73851728 -0.69922411 2.0997801 1.6407666e-38
0.780976 -0.69866699 2.0962555 1.6407666e-38
0.81877691 -0.69538891 2.0973787 1.6407666e-38
0.85001725 -0.68678445 2.0927894 1.6407666e-38
0.97440004 -0.68605715 2.0880001 1.6407666e-38
-0.6936419 -0.66679013 2.0892999 1.6407666e-38
-0.6604538 -0.65866578 2.0986588 1.6407666e-38
-0.63450974 -0.6503067 2.1140003 1.6407666e-38
0.73486668 -0.67849338 2.1140001 1.6407666e-38
0.83210546 -0.67557669 2.1029999 1.6407666e-38
0.85903412 -0.66918951 2.0963104 1.6407666e-38
0.90168506 -0.66941428 2.0962238 1.6407666e-38
0.94120115 -0.66333586 2.1009989 1.6407666e-38
0.97788787 -0.65711528 2.0980444 1.6407666e-38
1.0159199 -0.65358973 2.0996773 1.6407666e-38
1.0612751 -0.65823394 2.1052194 1.6407666e-38
1.0899256 -0.65752447 2.1086295 1.6407666e-38
-0.68208003 -0.63833147 2.0880001 1.6407666e-38
-0.65836841 -0.62280774 2.0937922 1.6407666e-38
-0.62531209 -0.61696523 2.1045787 1.6407666e-38
-0.59393334 -0.60399997 2.1140001 1.6407666e-38
1.0734739 -0.61669743 2.1104548 1.6407666e-38
1.0873616 -0.62012231 2.1061993 1.6407666e-38
-0.65074986 -0.58378172 2.0882645 1.6407666e-38
-0.6215027 -0.58103037 2.0979986 1.6407666e-38
-0.58809859 -0.5746119 2.1089993 1.6407666e-38
-0.5576933 -0.56172001 2.1140001 1.6407666e-38
1.0743631 -0.56716216 2.1075003 1.6407666e-38
1.0871952 -0.58307117 2.1058426 1.6407666e-38
-0.64549035 -0.55401605 2.0880001 1.6407666e-38
-0.6185959 -0.54151869 2.0888655 1.6407666e-38
-0.58304131 -0.54066688 2.0990829 1.6407666e-38
-0.55291855 -0.52394891 2.1127002 1.6407666e-38
1.066524 -0.53562701 2.1051443 1.6407666e-38
1.0851045 -0.5524385 2.0927272 1.6407666e-38
-0.61540437 -0.51433814 2.0879998 1.6407666e-38
-0.57719064 -0.5057053 2.090379 1.6407666e-38
-0.54411972 -0.49581948 2.1006379 1.6407666e-38
-0.51742667 -0.48118669 2.1140001 1.6407666e-38
1.0607258 -0.50138271 2.1073661 1.6407666e-38
1.0837715 -0.50708574 2.0880001 1.6407666e-38
-0.56276572 -0.47924572 2.0880001 1.6407666e-38
-0.53797853 -0.46258423 2.0906937 1.6407666e-38
-0.50799435 -0.4552758 2.1061993 1.6407666e-38
1.0495275 -0.46131212 2.099761 1.6407666e-38
-0.52983004 -0.42791581 2.0880003 1.6407666e-38
-0.50162905 -0.42034817 2.0946341 1.6407666e-38
1.0352079 -0.41463539 2.1010001 1.6407666e-38
1.0438612 -0.42870528 2.0966668 1.6407666e-38
-0.49396116 -0.39493027 2.0880001 1.6407666e-38
1.0287206 -0.37722945 2.1053324 1.6407666e-38
1.0400229 -0.39970288 2.0880001 1.6407666e-38
1.0268342 -0.34050342 2.1061203 1.6407666e-38
1.0408933 -0.34226668 2.1140001 1.6407666e-38
1.0225363 -0.29993212 2.0993991 1.6407666e-38
0.96640003 -0.24361333 2.1140001 1.6407666e-38
1.0158441 -0.25853863 2.0969262 1.6407666e-38
0.95451427 -0.22669715 2.0880001 1.6407666e-38
1.0138606 -0.23235038 2.1053333 1.6407666e-38
-0.0052148574 0.23738669 2.1088002 1.6407666e-38
0.0094209174 0.22825305 2.1134796 1.6407666e-38
-0.010570279 0.25907606 2.0923333 1.6407666e-38
0.017858976 0.2621204 2.102237 1.6407666e-38
0.047254119 0.27251062 2.1140001 1.6407666e-38
-0.01657143 0.28105146 2.0880003 1.6407666e-38
0.022840599 0.29867724 2.0962577 1.6407666e-38
0.04913215 0.30096519 2.1115232 1.6407666e-38
0.0278627 0.32751909 2.0893006 1.6407666e-38
0.058967303 0.3416079 2.0999792 1.6407666e-38
0.08644437 0.35178345 2.1107502 1.6407666e-38
0.063679866 0.37212029 2.0903871 1.6407666e-38
0.085676908 0.36973447 2.10425 1.6407666e-38
-0.69297135 -0.80705953 2.1331575 1.6407666e-38
-0.66143733 -0.80736834 2.1358507 1.6407666e-38
-0.63040721 -0.80545801 2.1315885 1.6407666e-38
-0.56720006 -0.80285811 2.1270001 1.6407666e-38
-0.55302 -0.80015719 2.1270001 1.6407666e-38
-0.49011627 -0.80420876 2.1270001 1.6407666e-38
-0.46007544 -0.80206394 2.1270003 1.6407666e-38
-0.6960535 -0.78264898 2.1361995 1.6407666e-38
-0.65964127 -0.77776229 2.1418052 1.6407666e-38
-0.62150407 -0.78172386 2.1409996 1.6407666e-38
-0.5792107 -0.78322685 2.1399994 1.6407666e-38
-0.54011989 -0.78655922 2.1375062 1.6407666e-38
-0.50031143 -0.78722203 2.1411517 1.6407666e-38
-0.46071559 -0.78720671 2.1420138 1.6407666e-38
-0.42125902 -0.77451074 2.1371801 1.6407666e-38
-0.37966582 -0.77750695 2.139694 1.6407666e-38
-0.34063837 -0.7755661 2.1375163 1.6407666e-38
-0.30028901 -0.77598763 2.1363995 1.6407666e-38
-0.26586831 -0.77294952 2.1372137 1.6407666e-38
-0.21943308 -0.76494956 2.1388178 1.6407666e-38
-0.19257757 -0.76244205 2.1381428 1.6407666e-38
-0.12685111 -0.76127124 2.1443334 1.6407666e-38
-0.10186254 -0.76457131 2.1375623 1.6407666e-38
-0.077390365 -0.76266164 2.138375 1.6407666e-38
-0.68658525 -0.74169797 2.1274331 1.6407666e-38
-0.66029912 -0.74010748 2.1422319 1.6407666e-38
-0.62324971 -0.73794532 2.1489816 1.6407666e-38
-0.36703527 -0.75662571 2.1530001 1.6407666e-38
-0.35178059 -0.75589925 2.1492858 1.6407666e-38
-0.2484822 -0.75551277 2.1413684 1.6407666e-38
-0.21928704 -0.7508164 2.1530001 1.6407666e-38
-0.18060465 -0.75239414 2.1473477 1.6407666e-38
-0.13907154 -0.75197393 2.144727 1.6407666e-38
-0.10163803 -0.74942315 2.1513045 1.6407666e-38
-0.059251696 -0.7416808 2.1431704 1.6407666e-38
-0.019783646 -0.73772234 2.142267 1.6407666e-38
0.020608107 -0.74014747 2.1416404 1.6407666e-38
0.060751475 -0.73930353 2.1420605 1.6407666e-38
0.099931531 -0.73497885 2.1390576 1.6407666e-38
0.13986696 -0.73301822 2.1329579 1.6407666e-38
0.17856957 -0.73132592 2.1331899 1.6407666e-38
0.22047749 -0.73156714 2.1350756 1.6407666e-38
0.25872087 -0.73134017 2.1358726 1.6407666e-38
0.29470542 -0.72917932 2.1301618 1.6407666e-38
0.33597919 -0.72375888 2.1270001 1.6407666e-38
0.38056427 -0.72831196 2.1269999 1.6407666e-38
0.46064743 -0.72318006 2.1270001 1.6407666e-38
0.48009431 -0.72318006 2.1270001 1.6407666e-38
-0.6842863 -0.71588749 2.1270001 1.6407666e-38
-0.65305221 -0.7034775 2.1311162 1.6407666e-38
-0.61846352 -0.70073462 2.1413128 1.6407666e-38
-0.58526456 -0.68720251 2.1530001 1.6407666e-38
-0.051261909 -0.7197172 2.1530001 1.6407666e-38
0.01298635 -0.7197172 2.1530004 1.6407666e-38
0.067665718 -0.7197172 2.1530001 1.6407666e-38
0.11687715 -0.7197172 2.1530001 1.6407666e-38
0.14380373 -0.7167623 2.147913 1.6407666e-38
0.18075742 -0.71636122 2.1480293 1.6407666e-38
0.21381868 -0.71597821 2.1462398 1.6407666e-38
0.26185226 -0.71339369 2.1488636 1.6407666e-38
0.30414978 -0.71452475 2.1402953 1.6407666e-38
0.34009728 -0.71150982 2.1349316 1.6407666e-38
0.38157979 -0.71189725 2.141552 1.6407666e-38
0.42124891 -0.70985746 2.1375234 1.6407666e-38
0.45805261 -0.71022463 2.1393902 1.6407666e-38
0.50126773 -0.7045427 2.1425998 1.6407666e-38
0.54044759 -0.70060289 2.1416507 1.6407666e-38
0.57750428 -0.69778132 2.1406114 1.6407666e-38
0.61866605 -0.69610471 2.1387615 1.6407666e-38
0.66276103 -0.69969946 2.1411231 1.6407666e-38
0.70144027 -0.68956137 2.1358829 1.6407666e-38
0.73479217 -0.68703765 2.1345479 1.6407666e-38
0.77939528 -0.68802691 2.141784 1.6407666e-38
0.81648761 -0.68651867 2.1409996 1.6407666e-38
0.88523716 -0.68266571 2.1270001 1.6407666e-38
-0.6453926 -0.67294234 2.1270001 1.6407666e-38
-0.61752629 -0.66115648 2.1293504 1.6407666e-38
-0.58316076 -0.65930736 2.1446426 1.6407666e-38
0.70278561 -0.67327118 2.1513751 1.6407666e-38
0.73726177 -0.6742397 2.1468823 1.6407666e-38
0.77489358 -0.67721647 2.1530001 1.6407666e-38
0.82541084 -0.66828191 2.1491227 1.6407666e-38
0.85903406 -0.665048 2.1461692 1.6407666e-38
0.90213835 -0.66028965 2.1392164 1.6407666e-38
0.93907887 -0.64981651 2.1367941 1.6407666e-38
0.97534525 -0.64450383 2.1308517 1.6407666e-38
1.0250115 -0.64492947 2.1337407 1.6407666e-38
1.0577792 -0.64501375 2.1297855 1.6407666e-38
1.0886189 -0.65592635 2.1270001 1.6407666e-38
-0.60981423 -0.62708324 2.1284854 1.6407666e-38
-0.57828653 -0.61983097 2.1355739 1.6407666e-38
-0.54669982 -0.60889012 2.1526389 1.6407666e-38
-0.51877052 -0.60078955 2.1530001 1.6407666e-38
0.93739188 -0.63721377 2.1513751 1.6407666e-38
0.98359424 -0.63280839 2.1418195 1.6407666e-38
1.0187715 -0.62870282 2.1470158 1.6407666e-38
1.061754 -0.62234801 2.1364012 1.6407666e-38
1.0851077 -0.61581719 2.1270001 1.6407666e-38
-0.57269341 -0.58493942 2.1282032 1.6407666e-38
-0.54066354 -0.57843155 2.1414604 1.6407666e-38
-0.51394582 -0.57267869 2.1469641 1.6407666e-38
1.038491 -0.57444429 2.1465001 1.6407666e-38
1.0607105 -0.57905561 2.1344602 1.6407666e-38
1.083375 -0.58628881 2.13025 1.6407666e-38
-0.56624049 -0.54683632 2.1270001 1.6407666e-38
-0.53847075 -0.53890175 2.1280453 1.6407666e-38
-0.50474268 -0.53828979 2.1427732 1.6407666e-38
-0.47571051 -0.53004813 2.1530001 1.6407666e-38
1.0388579 -0.54225779 2.1486669 1.6407666e-38
1.0540267 -0.54318738 2.1351461 1.6407666e-38
-0.52782524 -0.50528908 2.1269996 1.6407666e-38
-0.50055057 -0.4995299 2.1349363 1.6407666e-38
-0.46904671 -0.4942683 2.1489375 1.6407666e-38
1.0359259 -0.49596193 2.1365783 1.6407666e-38
1.0451071 -0.50244141 2.1305001 1.6407666e-38
-0.49033904 -0.46289977 2.1286244 1.6407666e-38
-0.4605571 -0.46092427 2.1404378 1.6407666e-38
-0.42375961 -0.45662227 2.1445737 1.6407666e-38
-0.3977924 -0.44495338 2.1530001 1.6407666e-38
1.0315229 -0.45739114 2.1391032 1.6407666e-38
1.0445434 -0.46075183 2.1303914 1.6407666e-38
-0.48265311 -0.42337433 2.1270001 1.6407666e-38
-0.46095711 -0.42732781 2.131727 1.6407666e-38
-0.42098042 -0.4289135 2.1305854 1.6407666e-38
-0.3977924 -0.43470097 2.1530001 1.6407666e-38
1.0256923 -0.42071342 2.1390417 1.6407666e-38
1.0445935 -0.43417811 2.1270003 1.6407666e-38
1.0192856 -0.38136101 2.134583 1.6407666e-38
0.99626642 -0.32721376 2.1492858 1.6407666e-38
1.0128876 -0.33915588 2.1365583 1.6407666e-38
0.99003184 -0.30069032 2.1461451 1.6407666e-38
1.0097846 -0.29999152 2.1312735 1.6407666e-38
0.98619568 -0.25995892 2.1390576 1.6407666e-38
1.0072936 -0.26120761 2.1328495 1.6407666e-38
0.98707432 -0.23773673 2.1457779 1.6407666e-38
1.0092109 -0.23214689 2.1270001 1.6407666e-38
0.034858096 0.15788667 2.1530001 1.6407666e-38
0.029410033 0.18518487 2.147511 1.6407666e-38
0.05120619 0.18816265 2.1503236 1.6407666e-38
-0.0020257144 0.23295715 2.1270001 1.6407666e-38
0.025811404 0.21884204 2.1341403 1.6407666e-38
0.057968598 0.22271156 2.1473825 1.6407666e-38
0.033666965 0.24993066 2.1317897 1.6407666e-38
0.06306722 0.25892746 2.1416624 1.6407666e-38
0.092412844 0.26776394 2.1530001 1.6407666e-38
0.12425887 0.27148309 2.1530001 1.6407666e-38
0.069996193 0.30019596 2.1356661 1.6407666e-38
0.09814316 0.30228311 2.1499047 1.6407666e-38
0.12974098 0.30322233 2.1521702 1.6407666e-38
0.073109865 0.32540339 2.1270003 1.6407666e-38
0.10181493 0.3393718 2.1396747 1.6407666e-38
0.12795411 0.33634758 2.1446664 1.6407666e-38
0.10315841 0.36651245 2.1327777 1.6407666e-38
0.12024762 0.36074287 2.1400001 1.6407666e-38
-0.61242425 -0.77146602 2.1732631 1.6407666e-38
-0.57779938 -0.76910061 2.1752174 1.6407666e-38
-0.54042661 -0.77094012 2.1789858 1.6407666e-38
-0.50068861 -0.77016115 2.1762283 1.6407666e-38
-0.4631862 -0.77167445 2.1748726 1.6407666e-38
-0.42162415 -0.7632454 2.1670001 1.6407666e-38
-0.3848556 -0.76585281 2.1670001 1.6407666e-38
-0.331094 -0.76537859 2.1670001 1.6407666e-38
-0.30053926 -0.7662968 2.1684737 1.6407666e-38
-0.27194658 -0.76535594 2.1670001 1.6407666e-38
-0.64184475 -0.75329053 2.1670003 1.6407666e-38
-0.60653245 -0.744093 2.1704054 1.6407666e-38
-0.57934839 -0.7397455 2.1827185 1.6407666e-38
-0.54832947 -0.7414068 2.192646 1.6407666e-38
-0.49701244 -0.75517464 2.1934586 1.6407666e-38
-0.45879325 -0.75426519 2.1883242 1.6407666e-38
-0.4203344 -0.75378501 2.1820576 1.6407666e-38
-0.37931028 -0.75032771 2.1813493 1.6407666e-38
-0.34182221 -0.74777573 2.1811249 1.6407666e-38
-0.29870477 -0.7464689 2.1834939 1.6407666e-38
-0.25921482 -0.74579221 2.1808701 1.6407666e-38
-0.21907771 -0.73337471 2.1754701 1.6407666e-38
-0.17960984 -0.73538095 2.1776426 1.6407666e-38
-0.14119056 -0.73778379 2.1793153 1.6407666e-38
-0.098759092 -0.73551434 2.1801875 1.6407666e-38
-0.063039511 -0.72693324 2.1788223 1.6407666e-38
-0.021969916 -0.7229622 2.1704688 1.6407666e-38
0.025592048 -0.72234523 2.172857 1.6407666e-38
0.059241466 -0.725474 2.1805871 1.6407666e-38
0.099598892 -0.72412866 2.1786749 1.6407666e-38
0.1279562 -0.72164547 2.1670001 1.6407666e-38
0.23596224 -0.72164536 2.1670003 1.6407666e-38
0.24146572 -0.72233331 2.1670001 1.6407666e-38
-0.60056859 -0.70788664 2.1670001 1.6407666e-38
-0.577941 -0.70239496 2.1716673 1.6407666e-38
-0.54420602 -0.6976856 2.1884785 1.6407666e-38
-0.20268381 -0.71670663 2.194 1.6407666e-38
-0.053909715 -0.71545303 2.194 1.6407666e-38
-0.020281538 -0.71350241 2.1888866 1.6407666e-38
0.014875748 -0.71536952 2.1849644 1.6407666e-38
0.061749034 -0.71180713 2.194 1.6407666e-38
0.1016727 -0.70746732 2.1912932 1.6407666e-38
0.13991134 -0.70099473 2.1808538 1.6407666e-38
0.17906785 -0.70120674 2.1833522 1.6407666e-38
0.22007138 -0.70173657 2.1811652 1.6407666e-38
0.25809023 -0.69805056 2.1837811 1.6407666e-38
0.3006404 -0.70068175 2.1821959 1.6407666e-38
0.34091881 -0.69464463 2.1751804 1.6407666e-38
0.3791737 -0.69359165 2.1783137 1.6407666e-38
0.42039785 -0.69358587 2.1727538 1.6407666e-38
0.46266505 -0.69229734 2.1756387 1.6407666e-38
0.49561733 -0.69286776 2.1733334 1.6407666e-38
0.53868133 -0.68801814 2.1733704 1.6407666e-38
0.58368897 -0.68451846 2.1681666 1.6407666e-38
0.61700666 -0.68597013 2.172091 1.6407666e-38
0.65613204 -0.6883446 2.1694872 1.6407666e-38
0.68312097 -0.68312097 2.1670001 1.6407666e-38
0.79181492 -0.68312097 2.1670003 1.6407666e-38
-0.56617182 -0.66307253 2.1670001 1.6407666e-38
-0.54062891 -0.66052449 2.1813171 1.6407666e-38
-0.50835133 -0.64824975 2.194 1.6407666e-38
0.25283238 -0.67909521 2.194 1.6407666e-38
0.31760764 -0.67909521 2.194 1.6407666e-38
0.33802554 -0.67644674 2.1914001 1.6407666e-38
0.38411105 -0.67602229 2.1891251 1.6407666e-38
0.41977137 -0.67585289 2.1871176 1.6407666e-38
0.44760296 -0.67776299 2.1882222 1.6407666e-38
0.50145602 -0.67421013 2.1777859 1.6407666e-38
0.54936761 -0.67666411 2.1812632 1.6407666e-38
0.57999903 -0.67467505 2.1831591 1.6407666e-38
0.62055254 -0.67321831 2.1836383 1.6407666e-38
0.66055548 -0.67338026 2.1770651 1.6407666e-38
0.69965994 -0.66689217 2.1797392 1.6407666e-38
0.7434451 -0.6671828 2.1891429 1.6407666e-38
0.78174204 -0.66996992 2.1862707 1.6407666e-38
0.81903046 -0.65759122 2.1820755 1.6407666e-38
0.86354643 -0.65215915 2.183965 1.6407666e-38
0.89569581 -0.64889121 2.1801741 1.6407666e-38
0.92805922 -0.64547592 2.174 1.6407666e-38
0.96586287 -0.64184475 2.1670001 1.6407666e-38
-0.56290573 -0.62937433 2.181 1.6407666e-38
-0.53787029 -0.62686282 2.1742413 1.6407666e-38
-0.50274891 -0.617625 2.1878397 1.6407666e-38
-0.4764114 -0.61390203 2.194 1.6407666e-38
0.83289063 -0.6345818 2.1918335 1.6407666e-38
0.8555696 -0.63331622 2.1926074 1.6407666e-38
0.90208352 -0.62911993 2.1892712 1.6407666e-38
0.93858796 -0.63124216 2.1829493 1.6407666e-38
0.97929424 -0.6267069 2.1846478 1.6407666e-38
1.0169661 -0.61143845 2.1788814 1.6407666e-38
1.0502573 -0.61222541 2.1758366 1.6407666e-38
-0.49686697 -0.58183062 2.1749861 1.6407666e-38
-0.46324268 -0.57632399 2.1893699 1.6407666e-38
-0.43671048 -0.56626093 2.194 1.6407666e-38
1.0271555 -0.5929451 2.1896667 1.6407666e-38
1.0458604 -0.57998693 2.1807556 1.6407666e-38
-0.48889005 -0.5452655 2.1702669 1.6407666e-38
-0.46051213 -0.54087138 2.1799338 1.6407666e-38
-0.42465666 -0.53726155 2.1864843 1.6407666e-38
1.0244846 -0.53356177 2.190268 1.6407666e-38
1.0434257 -0.5417403 2.1784117 1.6407666e-38
-0.48361936 -0.51205415 2.1670001 1.6407666e-38
-0.45529768 -0.50271446 2.1697452 1.6407666e-38
-0.42050582 -0.49919963 2.1721246 1.6407666e-38
-0.38171056 -0.49602756 2.1883388 1.6407666e-38
-0.35730857 -0.48476952 2.194 1.6407666e-38
1.0233486 -0.50023299 2.1855676 1.6407666e-38
1.0426346 -0.50263381 2.1784546 1.6407666e-38
-0.44784668 -0.47467619 2.1670001 1.6407666e-38
-0.40884957 -0.46923929 2.1692581 1.6407666e-38
-0.3786588 -0.46133465 2.1809454 1.6407666e-38
-0.3518396 -0.45289847 2.1930003 1.6407666e-38
0.99083483 -0.44497523 2.1918335 1.6407666e-38
1.0167866 -0.46226373 2.1837118 1.6407666e-38
1.0420334 -0.47843525 2.1810002 1.6407666e-38
-0.4049547 -0.42680642 2.171 1.6407666e-38
-0.38266721 -0.42966244 2.1775997 1.6407666e-38
-0.34448752 -0.4349691 2.1922669 1.6407666e-38
0.98953032 -0.42361972 2.1881633 1.6407666e-38
1.0118034 -0.41827482 2.1837943 1.6407666e-38
0.99272275 -0.37899983 2.194 1.6407666e-38
1.0115829 -0.38117132 2.1839874 1.6407666e-38
0.98621368 -0.33827171 2.182622 1.6407666e-38
1.0079623 -0.34980452 2.1753998 1.6407666e-38
0.98000306 -0.29924169 2.1808434 1.6407666e-38
0.94478369 -0.25040159 2.1919475 1.6407666e-38
0.9763943 -0.26253271 2.1817541 1.6407666e-38
1.0162787 -0.24500367 2.1670001 1.6407666e-38
0.9886505 -0.23836033 2.1763334 1.6407666e-38
