# .PCD v0.7 - Point Cloud Data file format
VERSION 0.7
FIELDS x y z rgb
SIZE 4 4 4 4
TYPE F F F F
COUNT 1 1 1 1
WIDTH 1027
HEIGHT 1
VIEWPOINT 0 0 0 1 0 0 0
POINTS 1027
DATA ascii
0.94493949 -0.10074083 2.2621818 1.4288752e-38
0.96123433 -0.11701207 2.2613335 1.4288752e-38
0.91503239 -0.049636193 2.266 1.4288752e-38
0.93038881 -0.059831105 2.2607901 1.4288752e-38
0.91305417 -0.017444603 2.2659998 1.4288752e-38
0.92639047 -0.021507952 2.2579496 1.4288752e-38
0.90883797 0.023892205 2.2628176 1.4288752e-38
0.921839 0.0083688889 2.259778 1.4288752e-38
0.14525643 0.070553139 2.2659996 1.4288752e-38
0.16541167 0.06791652 2.2660003 1.4288752e-38
0.87834477 0.079849526 2.266 1.4288752e-38
0.89773291 0.060278494 2.2603545 1.4288752e-38
0.14335799 0.099408492 2.2585475 1.4288752e-38
0.17288449 0.10418072 2.2651758 1.4288752e-38
0.87555176 0.1006688 2.2660003 1.4288752e-38
0.88440752 0.10243545 2.2574997 1.4288752e-38
0.14284116 0.12225143 2.2520001 1.4288752e-38
0.18370886 0.13717277 2.2557774 1.4288752e-38
0.20771667 0.14333349 2.2659998 1.4288752e-38
0.87102139 0.14546405 2.2628884 1.4288752e-38
0.88250798 0.12952133 2.2590003 1.4288752e-38
0.19431543 0.16471773 2.2520003 1.4288752e-38
0.21860451 0.18168175 2.263052 1.4288752e-38
0.24494381 0.19207048 2.266 1.4288752e-38
0.86317796 0.18006037 2.2615087 1.4288752e-38
0.22625814 0.21650168 2.2564204 1.4288752e-38
0.25343543 0.22341169 2.2629797 1.4288752e-38
0.83517635 0.2294798 2.2633076 1.4288752e-38
0.85472572 0.21785107 2.2560918 1.4288752e-38
0.22091049 0.24235812 2.2520003 1.4288752e-38
0.26132467 0.26058379 2.2606964 1.4288752e-38
0.29182246 0.27359852 2.266 1.4288752e-38
0.83373147 0.25901684 2.2635496 1.4288752e-38
0.84633213 0.25779006 2.2539091 1.4288752e-38
0.26880434 0.28883779 2.2549167 1.4288752e-38
0.29851684 0.30077097 2.2616799 1.4288752e-38
0.32868731 0.30841997 2.2659998 1.4288752e-38
0.8243885 0.29970351 2.2628064 1.4288752e-38
0.30503458 0.33449572 2.2577136 1.4288752e-38
0.33821273 0.33943832 2.2633026 1.4288752e-38
0.37026748 0.35074183 2.266 1.4288752e-38
0.79374748 0.34227392 2.266 1.4288752e-38
0.81872773 0.3386395 2.2627537 1.4288752e-38
0.34715322 0.37342957 2.2559996 1.4288752e-38
0.37705773 0.38155845 2.2647078 1.4288752e-38
0.41030785 0.39358264 2.2660003 1.4288752e-38
0.78836882 0.39094725 2.2660005 1.4288752e-38
0.80984586 0.36363232 2.2650003 1.4288752e-38
0.38778141 0.41323844 2.258461 1.4288752e-38
0.41570285 0.42340416 2.2640343 1.4288752e-38
0.4535597 0.43629491 2.2660003 1.4288752e-38
0.78342342 0.40627155 2.2570913 1.4288752e-38
0.432165 0.44821957 2.2564211 1.4288752e-38
0.45926327 0.44569805 2.266 1.4288752e-38
-0.41099471 -0.7325151 2.2823329 1.4288752e-38
-0.3819851 -0.72825748 2.2879224 1.4288752e-38
-0.33284986 -0.72500074 2.2973332 1.4288752e-38
-0.29871407 -0.72455657 2.2985489 1.4288752e-38
-0.26814246 -0.72369063 2.2888575 1.4288752e-38
-0.21354797 -0.72435349 2.2921247 1.4288752e-38
-0.17817125 -0.72523725 2.2855237 1.4288752e-38
-0.15285863 -0.72550499 2.2839093 1.4288752e-38
-0.063065484 -0.72420752 2.2835836 1.4288752e-38
-0.017379049 -0.72340292 2.2810001 1.4288752e-38
0.0086895246 -0.72340292 2.2810001 1.4288752e-38
-0.40353024 -0.7154296 2.2832859 1.4288752e-38
-0.37871391 -0.7010802 2.2873521 1.4288752e-38
-0.34479266 -0.70067734 2.3036027 1.4288752e-38
-0.30333993 -0.70807242 2.3107502 1.4288752e-38
-0.25814933 -0.71157467 2.3028319 1.4288752e-38
-0.22159138 -0.71117032 2.303144 1.4288752e-38
-0.17822812 -0.71258086 2.3030932 1.4288752e-38
-0.13805462 -0.70712173 2.3029075 1.4288752e-38
-0.10136977 -0.70807618 2.3033514 1.4288752e-38
-0.057262771 -0.71359628 2.2990568 1.4288752e-38
-0.019745676 -0.70959574 2.2952564 1.4288752e-38
0.018431675 -0.70851266 2.2959204 1.4288752e-38
0.060088508 -0.70067114 2.2971776 1.4288752e-38
0.098977387 -0.69315392 2.2970238 1.4288752e-38
0.14030731 -0.69117761 2.2988694 1.4288752e-38
0.17863271 -0.68822533 2.2937648 1.4288752e-38
0.2190787 -0.68628818 2.2865999 1.4288752e-38
0.25445557 -0.68508977 2.2836668 1.4288752e-38
0.29240251 -0.68430001 2.2810001 1.4288752e-38
0.39320096 -0.68430001 2.2810001 1.4288752e-38
-0.36948824 -0.66702253 2.286176 1.4288752e-38
-0.33907893 -0.65825582 2.2988105 1.4288752e-38
-0.30945036 -0.65544009 2.3109987 1.4288752e-38
0.099085718 -0.6759848 2.312 1.4288752e-38
0.14037143 -0.67350757 2.312 1.4288752e-38
0.18649383 -0.67251933 2.3086958 1.4288752e-38
0.21735168 -0.67207509 2.3042188 1.4288752e-38
0.26241177 -0.6740694 2.2949324 1.4288752e-38
0.29884216 -0.67139935 2.2926598 1.4288752e-38
0.34044686 -0.6716634 2.2926469 1.4288752e-38
0.38080782 -0.67056489 2.294764 1.4288752e-38
0.41812888 -0.66425288 2.294456 1.4288752e-38
0.46006891 -0.66595197 2.2951417 1.4288752e-38
0.50021201 -0.65569597 2.2903855 1.4288752e-38
0.54013067 -0.65865469 2.2958722 1.4288752e-38
0.58073658 -0.657377 2.2961845 1.4288752e-38
0.61914128 -0.6585421 2.2970695 1.4288752e-38
0.65890974 -0.65759373 2.2938592 1.4288752e-38
0.7012881 -0.65297407 2.29357 1.4288752e-38
0.73873699 -0.65180749 2.2837296 1.4288752e-38
0.78061455 -0.64743173 2.2920382 1.4288752e-38
0.81913447 -0.64669949 2.2904387 1.4288752e-38
0.85266262 -0.64457572 2.2884114 1.4288752e-38
0.89284867 -0.64085239 2.2810001 1.4288752e-38
0.93919277 -0.64085239 2.2810001 1.4288752e-38
-0.33435196 -0.6214779 2.2883835 1.4288752e-38
-0.30204901 -0.619937 2.306968 1.4288752e-38
-0.26900211 -0.61081111 2.3108463 1.4288752e-38
0.66277331 -0.63635051 2.312 1.4288752e-38
0.71813464 -0.63648516 2.2966669 1.4288752e-38
0.73614836 -0.63496888 2.305042 1.4288752e-38
0.79010743 -0.63228375 2.3048425 1.4288752e-38
0.81318045 -0.63364053 2.3120003 1.4288752e-38
0.86625779 -0.63398731 2.3009601 1.4288752e-38
0.89752072 -0.63097101 2.2925467 1.4288752e-38
0.94245547 -0.62429863 2.2948546 1.4288752e-38
0.97873265 -0.61556202 2.2943234 1.4288752e-38
1.0185108 -0.61113119 2.295208 1.4288752e-38
1.0439631 -0.60419971 2.2904003 1.4288752e-38
-0.33020192 -0.59740478 2.2810001 1.4288752e-38
-0.29796374 -0.59114826 2.2809994 1.4288752e-38
-0.27200407 -0.58456093 2.2873337 1.4288752e-38
1.0325266 -0.57776248 2.307092 1.4288752e-38
1.0478971 -0.58004642 2.2966969 1.4288752e-38
-0.27154765 -0.55612957 2.2810001 1.4288752e-38
-0.21256851 -0.54353178 2.3120003 1.4288752e-38
1.0318354 -0.54139465 2.302233 1.4288752e-38
1.0436636 -0.54617923 2.2874093 1.4288752e-38
-0.18716191 -0.51084185 2.312 1.4288752e-38
1.0309193 -0.49938008 2.2986546 1.4288752e-38
1.0424584 -0.49225062 2.2835836 1.4288752e-38
0.99564415 -0.4494364 2.2941182 1.4288752e-38
1.0190946 -0.46013412 2.2873068 1.4288752e-38
1.0405706 -0.47357905 2.2810001 1.4288752e-38
0.99591589 -0.41724271 2.3022861 1.4288752e-38
1.0088032 -0.42275646 2.290345 1.4288752e-38
0.98905587 -0.37764269 2.2989986 1.4288752e-38
1.0098366 -0.37707794 2.28302 1.4288752e-38
0.98755735 -0.34166437 2.2912531 1.4288752e-38
1.0088899 -0.34866723 2.2809997 1.4288752e-38
0.97945738 -0.30179268 2.2907908 1.4288752e-38
1.0014676 -0.31933999 2.2810001 1.4288752e-38
0.95392472 -0.25059047 2.3102779 1.4288752e-38
0.97257048 -0.25938508 2.2907701 1.4288752e-38
0.95112145 -0.21817352 2.2980349 1.4288752e-38
0.96785945 -0.23091748 2.283067 1.4288752e-38
0.94878876 -0.17886844 2.2983871 1.4288752e-38
0.96403587 -0.17729972 2.2810001 1.4288752e-38
0.91672641 -0.13089101 2.312 1.4288752e-38
0.93790811 -0.14055684 2.2951522 1.4288752e-38
0.96584064 -0.15684591 2.2810001 1.4288752e-38
0.91156632 -0.095707759 2.3087847 1.4288752e-38
0.9282738 -0.10134218 2.2892582 1.4288752e-38
0.90805912 -0.058446679 2.2966704 1.4288752e-38
0.92585522 -0.067992195 2.2831335 1.4288752e-38
0.15686083 -0.0090956483 2.301286 1.4288752e-38
0.16661081 -0.0075843395 2.312 1.4288752e-38
0.87415618 -0.002201905 2.312 1.4288752e-38
0.89825553 -0.01897141 2.2941678 1.4288752e-38
0.92326194 -0.036930475 2.2810001 1.4288752e-38
0.15225995 0.021180455 2.2876387 1.4288752e-38
0.17710182 0.02218058 2.303437 1.4288752e-38
0.20147429 0.034129523 2.312 1.4288752e-38
0.87176025 0.021524416 2.3062115 1.4288752e-38
0.89345646 0.016446047 2.2887821 1.4288752e-38
0.14292593 0.052877087 2.2877266 1.4288752e-38
0.18324295 0.057892494 2.2893589 1.4288752e-38
0.21355569 0.06416405 2.3045845 1.4288752e-38
0.87306321 0.060317211 2.2982616 1.4288752e-38
0.88837701 0.052844848 2.2828462 1.4288752e-38
0.19020402 0.094498545 2.2809992 1.4288752e-38
0.21827984 0.10104246 2.2893252 1.4288752e-38
0.24925287 0.10552146 2.3062861 1.4288752e-38
0.8634752 0.10118346 2.2907495 1.4288752e-38
0.22665662 0.13850658 2.2857397 1.4288752e-38
0.25944248 0.14328048 2.3009427 1.4288752e-38
0.28530395 0.14312382 2.312 1.4288752e-38
0.85740352 0.13813812 2.2909074 1.4288752e-38
0.2329559 0.17340714 2.2810001 1.4288752e-38
0.2613292 0.17898563 2.2881339 1.4288752e-38
0.29117021 0.18553136 2.3073123 1.4288752e-38
0.82832289 0.18370835 2.299263 1.4288752e-38
0.84934551 0.17738777 2.289901 1.4288752e-38
0.26968557 0.21428986 2.2809994 1.4288752e-38
0.29970843 0.21983017 2.2968457 1.4288752e-38
0.33250096 0.22940969 2.307862 1.4288752e-38
0.82434756 0.21937339 2.2930992 1.4288752e-38
0.84215975 0.20710032 2.2810001 1.4288752e-38
0.27589238 0.25308239 2.2810001 1.4288752e-38
0.30219781 0.2563366 2.283222 1.4288752e-38
0.33982995 0.26008961 2.2973735 1.4288752e-38
0.3640483 0.2708343 2.3120003 1.4288752e-38
0.81966889 0.26080248 2.2934835 1.4288752e-38
0.31760213 0.28371298 2.2810001 1.4288752e-38
0.34348422 0.29685113 2.2828348 1.4288752e-38
0.37373623 0.30633748 2.2977817 1.4288752e-38
0.40164146 0.31605285 2.3045001 1.4288752e-38
0.796583 0.31370568 2.2995 1.4288752e-38
0.80943102 0.29720515 2.289392 1.4288752e-38
0.35844287 0.32368478 2.2810001 1.4288752e-38
0.38213474 0.33661237 2.2859645 1.4288752e-38
0.41703054 0.34262729 2.3024542 1.4288752e-38
0.4534927 0.35731965 2.3098574 1.4288752e-38
0.78738469 0.34208673 2.2932651 1.4288752e-38
0.80755407 0.34312189 2.2809999 1.4288752e-38
0.39241102 0.37582195 2.2809997 1.4288752e-38
0.42220035 0.37594321 2.2836301 1.4288752e-38
0.45572871 0.384579 2.301295 1.4288752e-38
0.78045696 0.37974173 2.2959449 1.4288752e-38
0.81222928 0.37823564 2.2809994 1.4288752e-38
0.43271756 0.41513172 2.2809997 1.4288752e-38
0.45972025 0.41783315 2.2836885 1.4288752e-38
0.49986652 0.42292097 2.3098044 1.4288752e-38
0.52699071 0.42259383 2.3099549 1.4288752e-38
0.75689656 0.41760543 2.3008425 1.4288752e-38
0.77050638 0.41269526 2.2894163 1.4288752e-38
0.47575146 0.44099337 2.2810001 1.4288752e-38
0.49087685 0.44276291 2.2940001 1.4288752e-38
-0.32831284 -0.70538193 2.3270001 1.4288752e-38
-0.29893503 -0.69619673 2.3294113 1.4288752e-38
-0.26024508 -0.69196475 2.339236 1.4288752e-38
-0.21864384 -0.69351935 2.3406396 1.4288752e-38
-0.18201204 -0.69339919 2.3387651 1.4288752e-38
-0.14191763 -0.68656915 2.338078 1.4288752e-38
-0.098148845 -0.68797588 2.3394754 1.4288752e-38
-0.06135115 -0.69337237 2.3394876 1.4288752e-38
-0.020476652 -0.69111627 2.3375814 1.4288752e-38
0.02004781 -0.69031894 2.3317733 1.4288752e-38
0.056221247 -0.68911856 2.3270009 1.4288752e-38
0.099728584 -0.68037051 2.3270001 1.4288752e-38
0.12189049 -0.68037051 2.3270001 1.4288752e-38
-0.29007474 -0.65968615 2.3270009 1.4288752e-38
-0.26564875 -0.65651226 2.3373542 1.4288752e-38
-0.21343336 -0.67624676 2.3590002 1.4288752e-38
-0.13663131 -0.67413527 2.3568676 1.4288752e-38
-0.098853342 -0.67456168 2.3590002 1.4288752e-38
-0.073241346 -0.67265207 2.3590002 1.4288752e-38
-0.017841382 -0.66895515 2.3502259 1.4288752e-38
0.022145782 -0.66605341 2.3482375 1.4288752e-38
0.05906342 -0.66414988 2.3419034 1.4288752e-38
0.10059259 -0.6668312 2.3386619 1.4288752e-38
0.1392031 -0.66485804 2.3364706 1.4288752e-38
0.1796809 -0.6620028 2.3387339 1.4288752e-38
0.22172134 -0.65962768 2.3404913 1.4288752e-38
0.26018637 -0.65821207 2.3396003 1.4288752e-38
0.30001432 -0.6522637 2.335001 1.4288752e-38
0.33955562 -0.65322775 2.338244 1.4288752e-38
0.37860706 -0.65124309 2.3314314 1.4288752e-38
0.41886979 -0.64657152 2.3309124 1.4288752e-38
0.45841518 -0.64885706 2.332896 1.4288752e-38
0.50009716 -0.64553452 2.3302007 1.4288752e-38
0.54119378 -0.64491147 2.3269997 1.4288752e-38
0.57689214 -0.64505136 2.3319652 1.4288752e-38
0.62248158 -0.64194661 2.3296664 1.4288752e-38
0.64687169 -0.64194345 2.3305554 1.4288752e-38
0.69556737 -0.64237863 2.3270001 1.4288752e-38
0.77103287 -0.64450854 2.3269999 1.4288752e-38
0.83772004 -0.64269531 2.3270001 1.4288752e-38
0.85323334 -0.64136559 2.3270001 1.4288752e-38
-0.28411564 -0.63161439 2.3270001 1.4288752e-38
-0.26168346 -0.62782085 2.32937 1.4288752e-38
-0.21223336 -0.61217725 2.3458569 1.4288752e-38
-0.19101018 -0.61054409 2.3503337 1.4288752e-38
-0.026777145 -0.63372576 2.3430002 1.4288752e-38
0.30413738 -0.63527781 2.3515337 1.4288752e-38
0.34083903 -0.63257903 2.3526006 1.4288752e-38
0.37836504 -0.6338588 2.3495455 1.4288752e-38
0.42036185 -0.63339388 2.3501112 1.4288752e-38
0.46550822 -0.63166904 2.3500595 1.4288752e-38
0.50056297 -0.6283375 2.3463855 1.4288752e-38
0.54134619 -0.62740803 2.3457124 1.4288752e-38
0.57901394 -0.62701643 2.3477221 1.4288752e-38
0.61932772 -0.62763882 2.3460197 1.4288752e-38
0.65912265 -0.62225449 2.3426099 1.4288752e-38
0.69806153 -0.62222815 2.3441706 1.4288752e-38
0.73782575 -0.62482136 2.3413167 1.4288752e-38
0.77941877 -0.61949885 2.3409543 1.4288752e-38
0.82081771 -0.6180892 2.3368464 1.4288752e-38
0.86279595 -0.62120068 2.3393734 1.4288752e-38
0.90102845 -0.61521703 2.3383343 1.4288752e-38
0.93912625 -0.61181378 2.3371186 1.4288752e-38
0.98060775 -0.60479313 2.3277617 1.4288752e-38
1.0154536 -0.60188216 2.3320522 1.4288752e-38
-0.20895793 -0.57559681 2.3295004 1.4288752e-38
-0.18125954 -0.5802995 2.3409135 1.4288752e-38
-0.15951334 -0.58188671 2.3590002 1.4288752e-38
0.67175341 -0.59986007 2.3590002 1.4288752e-38
0.68298674 -0.59986001 2.3590002 1.4288752e-38
0.779181 -0.59782577 2.3510003 1.4288752e-38
0.95013338 -0.59524328 2.3530002 1.4288752e-38
0.98081702 -0.59362608 2.342484 1.4288752e-38
1.0158654 -0.57945019 2.34218 1.4288752e-38
-0.21021174 -0.54341006 2.3297825 1.4288752e-38
-0.1877149 -0.54210603 2.3277452 1.4288752e-38
0.99976677 -0.5504334 2.3590002 1.4288752e-38
1.0147558 -0.53847653 2.335506 1.4288752e-38
1.0438259 -0.52966952 2.3270001 1.4288752e-38
0.99446028 -0.49453497 2.3412857 1.4288752e-38
1.0128404 -0.50078738 2.330395 1.4288752e-38
0.99295378 -0.45953998 2.3453715 1.4288752e-38
1.0067215 -0.46961668 2.3319232 1.4288752e-38
0.98617017 -0.42017776 2.340714 1.4288752e-38
1.0083667 -0.43215716 2.3270001 1.4288752e-38
0.95728296 -0.36818576 2.3430002 1.4288752e-38
0.97592294 -0.38254863 2.3386371 1.4288752e-38
0.95343083 -0.33098987 2.3518891 1.4288752e-38
0.97472316 -0.33936787 2.3374357 1.4288752e-38
0.95069754 -0.29906887 2.3458245 1.4288752e-38
0.9713555 -0.30483526 2.3348377 1.4288752e-38
0.91738892 -0.24189113 2.3590002 1.4288752e-38
0.94030327 -0.25916111 2.3378003 1.4288752e-38
0.96792126 -0.2731455 2.3269999 1.4288752e-38
0.917243 -0.22035895 2.3510001 1.4288752e-38
0.93410903 -0.22106974 2.3341122 1.4288752e-38
0.91184264 -0.17814691 2.3430009 1.4288752e-38
0.93308091 -0.18339708 2.3283629 1.4288752e-38
0.15951334 -0.12581334 2.3590002 1.4288752e-38
0.16400668 -0.12806001 2.3590002 1.4288752e-38
0.9059093 -0.14030348 2.3412223 1.4288752e-38
0.9292171 -0.15418355 2.3270001 1.4288752e-38
0.15762 -0.10327646 2.3430004 1.4288752e-38
0.17763628 -0.093785122 2.35829 1.4288752e-38
0.21118669 -0.083126672 2.3590002 1.4288752e-38
0.87694901 -0.099602237 2.3590002 1.4288752e-38
0.89562434 -0.10190191 2.3430004 1.4288752e-38
0.15771016 -0.064366043 2.3323336 1.4288752e-38
0.18093047 -0.060325712 2.3453712 1.4288752e-38
0.21056417 -0.058518548 2.3519416 1.4288752e-38
0.87371516 -0.051293679 2.3487601 1.4288752e-38
0.89023012 -0.062220741 2.3352587 1.4288752e-38
0.15816095 -0.031198099 2.3390002 1.4288752e-38
0.18197261 -0.022043787 2.3324864 1.4288752e-38
0.2188057 -0.018652413 2.3455153 1.4288752e-38
0.24725051 -0.010924637 2.3558009 1.4288752e-38
0.86717194 -0.019514274 2.3394935 1.4288752e-38
0.88730317 -0.026359046 2.3278887 1.4288752e-38
0.14173746 0.034882858 2.337667 1.4288752e-38
0.19251309 0.010489968 2.3270001 1.4288752e-38
0.22123763 0.019272204 2.3369749 1.4288752e-38
0.2567904 0.02215491 2.3507249 1.4288752e-38
0.83365995 0.032702312 2.3567147 1.4288752e-38
0.85549819 0.020442611 2.3418736 1.4288752e-38
0.13962001 0.045431904 2.3270001 1.4288752e-38
0.2274211 0.052729409 2.3302944 1.4288752e-38
0.25991857 0.060629126 2.3384876 1.4288752e-38
0.29268244 0.065681458 2.354295 1.4288752e-38
0.83459926 0.050245859 2.3521433 1.4288752e-38
0.85489792 0.060193121 2.3382001 1.4288752e-38
0.2371324 0.086431436 2.3270001 1.4288752e-38
0.26421794 0.096648075 2.333287 1.4288752e-38
0.29835266 0.10195687 2.3502505 1.4288752e-38
0.32480383 0.10013717 2.3590007 1.4288752e-38
0.82770789 0.10471644 2.349721 1.4288752e-38
0.84881055 0.096766911 2.3354716 1.4288752e-38
0.2669771 0.12573189 2.3270001 1.4288752e-38
0.30286303 0.13964176 2.3322508 1.4288752e-38
0.34080201 0.14690882 2.3511462 1.4288752e-38
0.367735 0.14737001 2.3552361 1.4288752e-38
0.797409 0.14736605 2.3563337 1.4288752e-38
0.81917256 0.14177161 2.3414354 1.4288752e-38
0.84583992 0.13837411 2.3326774 1.4288752e-38
0.30650431 0.17538828 2.3270011 1.4288752e-38
0.34060058 0.18029103 2.3372726 1.4288752e-38
0.37612078 0.18318334 2.3500776 1.4288752e-38
0.7964434 0.19658333 2.3590002 1.4288752e-38
0.8126986 0.17892483 2.3375208 1.4288752e-38
0.8465848 0.16178192 2.3270001 1.4288752e-38
0.34395388 0.21378225 2.3299401 1.4288752e-38
0.37935996 0.22177468 2.3401513 1.4288752e-38
0.40880811 0.23001418 2.3563342 1.4288752e-38
0.78934759 0.22395656 2.3473644 1.4288752e-38
0.8086226 0.21831475 2.3315296 1.4288752e-38
0.3568067 0.24599716 2.3270001 1.4288752e-38
0.38112286 0.25830281 2.3281112 1.4288752e-38
0.41856387 0.2608678 2.3448036 1.4288752e-38
0.45319957 0.27505797 2.3576674 1.4288752e-38
0.78353024 0.26136696 2.3432004 1.4288752e-38
0.80727661 0.25917768 2.3270009 1.4288752e-38
0.38783333 0.29336026 2.3270006 1.4288752e-38
0.42077222 0.29978716 2.3353045 1.4288752e-38
0.46153465 0.30055866 2.3462777 1.4288752e-38
0.49556997 0.31089365 2.3531337 1.4288752e-38
0.75543171 0.30474141 2.3575461 1.4288752e-38
0.77774584 0.30020776 2.3392453 1.4288752e-38
0.80281508 0.29419929 2.3269999 1.4288752e-38
0.42683834 0.32518905 2.3270001 1.4288752e-38
0.4611274 0.33937991 2.3351045 1.4288752e-38
0.50040185 0.3425929 2.3481023 1.4288752e-38
0.53231794 0.35596257 2.3553083 1.4288752e-38
0.75393033 0.34520018 2.3515716 1.4288752e-38
0.77252269 0.3377808 2.3338578 1.4288752e-38
0.47181538 0.37406966 2.3269999 1.4288752e-38
0.49955997 0.37925288 2.3302002 1.4288752e-38
0.54005057 0.38089451 2.3438656 1.4288752e-38
0.56413621 0.39027062 2.353667 1.4288752e-38
0.74724686 0.3834022 2.3488188 1.4288752e-38
0.76422268 0.37850815 2.3310001 1.4288752e-38
0.50462669 0.40822226 2.3269999 1.4288752e-38
0.54407597 0.41650635 2.3374193 1.4288752e-38
0.57818156 0.42341205 2.3510003 1.4288752e-38
0.60635042 0.43011191 2.3590004 1.4288752e-38
0.71628857 0.43959147 2.3430002 1.4288752e-38
0.74203366 0.42160353 2.3438106 1.4288752e-38
0.76183468 0.41510344 2.3284545 1.4288752e-38
0.59346145 0.44368908 2.3470001 1.4288752e-38
0.60747021 0.44532192 2.353667 1.4288752e-38
0.75263339 0.44259337 2.3590002 1.4288752e-38
-0.24816002 -0.68413717 2.3760002 1.4288752e-38
-0.22208329 -0.68338287 2.3760002 1.4288752e-38
-0.17725715 -0.68388575 2.3759999 1.4288752e-38
-0.09579429 -0.6811201 2.3760002 1.4288752e-38
-0.057864498 -0.68112004 2.3760004 1.4288752e-38
-0.038468573 -0.68112004 2.3760002 1.4288752e-38
-0.24740571 -0.66320574 2.3759999 1.4288752e-38
-0.21931009 -0.65882593 2.3764019 1.4288752e-38
-0.17896105 -0.66012263 2.3839047 1.4288752e-38
-0.14024986 -0.65739304 2.3870764 1.4288752e-38
-0.10183112 -0.6624772 2.3825457 1.4288752e-38
-0.059881262 -0.66544938 2.3867576 1.4288752e-38
-0.028003592 -0.66152239 2.3792937 1.4288752e-38
0.023390144 -0.65784425 2.3815649 1.4288752e-38
0.064969257 -0.65238374 2.3879995 1.4288752e-38
0.098882921 -0.65547162 2.3887172 1.4288752e-38
0.14068714 -0.65391266 2.3901527 1.4288752e-38
0.17742662 -0.64859331 2.3841624 1.4288752e-38
0.22005579 -0.64725816 2.3854537 1.4288752e-38
0.25733671 -0.64440238 2.3819995 1.4288752e-38
0.29126859 -0.64032763 2.3800001 1.4288752e-38
-0.2117388 -0.63521641 2.3760004 1.4288752e-38
-0.17441666 -0.62401348 2.3770905 1.4288752e-38
-0.13974015 -0.62016118 2.3878026 1.4288752e-38
0.18401949 -0.63406986 2.3920002 1.4288752e-38
0.22097529 -0.63040394 2.3919992 1.4288752e-38
0.26081252 -0.63104331 2.3913591 1.4288752e-38
0.29970172 -0.63028628 2.3869467 1.4288752e-38
0.34037465 -0.62592286 2.3879995 1.4288752e-38
0.38377368 -0.62466604 2.3873324 1.4288752e-38
0.42009428 -0.62045163 2.3883073 1.4288752e-38
0.45894694 -0.61913007 2.3869205 1.4288752e-38
0.49909315 -0.61559474 2.3879991 1.4288752e-38
0.53900367 -0.61183542 2.3836515 1.4288752e-38
0.58185601 -0.61010474 2.3849747 1.4288752e-38
0.61909169 -0.61305177 2.386086 1.4288752e-38
0.65328914 -0.60833937 2.3834662 1.4288752e-38
0.70830959 -0.60619664 2.3784616 1.4288752e-38
0.74418008 -0.61128461 2.3839993 1.4288752e-38
0.77663249 -0.60714167 2.3822606 1.4288752e-38
0.8233155 -0.60573882 2.3877892 1.4288752e-38
0.86082083 -0.60815358 2.3839998 1.4288752e-38
0.89784646 -0.60447872 2.3786666 1.4288752e-38
0.93229717 -0.60418296 2.3760004 1.4288752e-38
-0.16066287 -0.59739435 2.3760002 1.4288752e-38
-0.14911328 -0.59370893 2.3788235 1.4288752e-38
0.46700957 -0.59913909 2.3920002 1.4288752e-38
0.55448842 -0.59731668 2.3920002 1.4288752e-38
0.5803448 -0.59913915 2.3920002 1.4288752e-38
0.60825145 -0.59913909 2.3920002 1.4288752e-38
0.66923672 -0.59676552 2.3895385 1.4288752e-38
0.69691294 -0.59622246 2.3882658 1.4288752e-38
0.73775572 -0.5978744 2.3908572 1.4288752e-38
0.77950639 -0.59919095 2.3904002 1.4288752e-38
0.81965882 -0.597013 2.3920004 1.4288752e-38
0.86425054 -0.59356278 2.3884993 1.4288752e-38
0.89925867 -0.58686185 2.3887491 1.4288752e-38
0.94097716 -0.58821684 2.3850973 1.4288752e-38
0.98094159 -0.57994801 2.3873327 1.4288752e-38
1.0041877 -0.57402468 2.3815649 1.4288752e-38
0.99133712 -0.54427958 2.3911579 1.4288752e-38
1.0047917 -0.54072207 2.3842158 1.4288752e-38
0.9901548 -0.49770308 2.3882782 1.4288752e-38
1.0035011 -0.51598865 2.3920002 1.4288752e-38
0.95907819 -0.46245337 2.3920002 1.4288752e-38
0.97920209 -0.46071106 2.3851845 1.4288752e-38
0.95842743 -0.41493881 2.3920002 1.4288752e-38
0.97130644 -0.42003348 2.3845325 1.4288752e-38
0.95491809 -0.3772724 2.3919997 1.4288752e-38
0.96573532 -0.38056526 2.382709 1.4288752e-38
0.9478929 -0.33944252 2.3865356 1.4288752e-38
0.96711636 -0.35271513 2.3805718 1.4288752e-38
0.91807246 -0.28248385 2.3920002 1.4288752e-38
0.9373278 -0.29781333 2.3876822 1.4288752e-38
0.91064924 -0.25567526 2.3874993 1.4288752e-38
0.92873001 -0.26569119 2.3842957 1.4288752e-38
0.15111366 -0.20629418 2.3920002 1.4288752e-38
0.87524426 -0.20821793 2.3920002 1.4288752e-38
0.9049114 -0.21827304 2.3873935 1.4288752e-38
0.9209829 -0.22176 2.3760002 1.4288752e-38
0.15043636 -0.1795803 2.3901706 1.4288752e-38
0.16848005 -0.17224385 2.3919997 1.4288752e-38
0.87706673 -0.17541336 2.3920002 1.4288752e-38
0.89596206 -0.18130575 2.3881137 1.4288752e-38
0.15157056 -0.14724614 2.3903155 1.4288752e-38
0.18030921 -0.14009519 2.388521 1.4288752e-38
0.20753446 -0.13326858 2.392 1.4288752e-38
0.87592769 -0.13744509 2.3920002 1.4288752e-38
0.88955116 -0.1416633 2.3845325 1.4288752e-38
0.18561779 -0.1106277 2.3777776 1.4288752e-38
0.21869318 -0.098944612 2.386879 1.4288752e-38
0.2483124 -0.086567625 2.3920002 1.4288752e-38
0.86975116 -0.099312335 2.3883069 1.4288752e-38
0.88261181 -0.09930227 2.378526 1.4288752e-38
0.22998416 -0.062924922 2.3772628 1.4288752e-38
0.25756484 -0.05972648 2.3912246 1.4288752e-38
0.2813448 -0.047840007 2.3920002 1.4288752e-38
0.86486548 -0.059968084 2.3895376 1.4288752e-38
0.88136381 -0.073382437 2.3831112 1.4288752e-38
0.23578973 -0.033037718 2.3760002 1.4288752e-38
0.26219797 -0.02381376 2.3845918 1.4288752e-38
0.28673631 -0.016250413 2.3919995 1.4288752e-38
0.83345753 -0.015295784 2.3920002 1.4288752e-38
0.85325211 -0.020722589 2.3855989 1.4288752e-38
0.27433652 0.01320127 2.3773332 1.4288752e-38
0.29914716 0.020177849 2.3856444 1.4288752e-38
0.32633716 0.030754289 2.3920002 1.4288752e-38
0.82510352 0.021755017 2.3864608 1.4288752e-38
0.8463701 0.0081366962 2.3825881 1.4288752e-38
0.30720937 0.056391962 2.3795552 1.4288752e-38
0.33531147 0.06328921 2.3896286 1.4288752e-38
0.37008694 0.076005556 2.3920002 1.4288752e-38
0.79961145 0.068342865 2.3920002 1.4288752e-38
0.82489753 0.062142521 2.3873968 1.4288752e-38
0.84404576 0.067885719 2.3760002 1.4288752e-38
0.31623432 0.091645718 2.3760002 1.4288752e-38
0.34277618 0.10163563 2.3811426 1.4288752e-38
0.37221855 0.10106963 2.391999 1.4288752e-38
0.79830974 0.10902314 2.3920002 1.4288752e-38
0.81644958 0.099297896 2.3864608 1.4288752e-38
0.34477422 0.12845086 2.3808694 1.4288752e-38
0.38393095 0.1356764 2.3877888 1.4288752e-38
0.41333193 0.14665237 2.3919992 1.4288752e-38
0.79178709 0.14313287 2.3874278 1.4288752e-38
0.80714291 0.12864763 2.3840001 1.4288752e-38
0.39147431 0.16842125 2.3760002 1.4288752e-38
0.4178521 0.18123122 2.3839998 1.4288752e-38
0.44650671 0.19136 2.3920002 1.4288752e-38
0.79053646 0.18122928 2.3890603 1.4288752e-38
0.80628818 0.17530787 2.3858464 1.4288752e-38
0.39600003 0.2013943 2.3760002 1.4288752e-38
0.42212445 0.21620452 2.3775487 1.4288752e-38
0.45787442 0.22286586 2.391474 1.4288752e-38
0.49014109 0.22973725 2.3919995 1.4288752e-38
0.78085053 0.21761891 2.3862391 1.4288752e-38
0.43673146 0.24665146 2.3760002 1.4288752e-38
0.4601562 0.25770903 2.3782501 1.4288752e-38
0.49864966 0.26075718 2.3901167 1.4288752e-38
0.52754188 0.27304602 2.3920002 1.4288752e-38
0.75494361 0.2737143 2.3884447 1.4288752e-38
0.77062029 0.26033789 2.3865137 1.4288752e-38
0.50538075 0.29416823 2.3838217 1.4288752e-38
0.53604668 0.30287191 2.3882024 1.4288752e-38
0.5718019 0.31665528 2.3920002 1.4288752e-38
0.74787384 0.30065563 2.3871689 1.4288752e-38
0.76371431 0.29077715 2.3760002 1.4288752e-38
0.51819432 0.34621716 2.3760002 1.4288752e-38
0.54273516 0.33879295 2.3824515 1.4288752e-38
0.5740447 0.34118187 2.3916268 1.4288752e-38
0.74345505 0.34282738 2.3865752 1.4288752e-38
0.58305287 0.37745696 2.3817706 1.4288752e-38
0.61539632 0.38499811 2.391999 1.4288752e-38
0.71608126 0.38601056 2.3920002 1.4288752e-38
0.73158813 0.37823504 2.3821752 1.4288752e-38
0.59120923 0.40595669 2.3760002 1.4288752e-38
0.62191248 0.41748804 2.3856597 1.4288752e-38
0.64573646 0.41937673 2.3919997 1.4288752e-38
0.70987427 0.42243814 2.3919997 1.4288752e-38
0.72793788 0.42031097 2.3842044 1.4288752e-38
0.62002289 0.44352004 2.3760002 1.4288752e-38
0.70545018 0.44498798 2.3920002 1.4288752e-38
0.72443432 0.44650668 2.3920002 1.4288752e-38
-0.12274429 -0.64469433 2.4090002 1.4288752e-38
-0.10507829 -0.64928293 2.4090002 1.4288752e-38
-0.05781398 -0.65061861 2.4146669 1.4288752e-38
-0.032403637 -0.64342338 2.4136367 1.4288752e-38
0.028038053 -0.64719862 2.4132502 1.4288752e-38
0.05975119 -0.64449495 2.4090002 1.4288752e-38
0.1006493 -0.64389646 2.4090002 1.4288752e-38
0.1367968 -0.64268684 2.4090002 1.4288752e-38
0.17666002 -0.64010572 2.4090002 1.4288752e-38
-0.11700858 -0.62863433 2.4090002 1.4288752e-38
-0.044669207 -0.6245988 2.4260004 1.4288752e-38
-0.03218611 -0.62476301 2.4132502 1.4288752e-38
0.035769209 -0.62962747 2.4231672 1.4288752e-38
0.060235605 -0.63113236 2.4177737 1.4288752e-38
0.099716403 -0.62988842 2.417717 1.4288752e-38
0.13941726 -0.62897956 2.4166903 1.4288752e-38
0.18147039 -0.62751257 2.4135606 1.4288752e-38
0.22023535 -0.62117863 2.4177742 1.4288752e-38
0.26106814 -0.62205577 2.4167271 1.4288752e-38
0.30056056 -0.61465895 2.4155385 1.4288752e-38
0.33747721 -0.61070764 2.4136355 1.4288752e-38
0.37532797 -0.61150622 2.4094353 1.4288752e-38
0.41870713 -0.60569149 2.4090002 1.4288752e-38
0.45823145 -0.60464865 2.4090004 1.4288752e-38
0.50130385 -0.60661489 2.4100003 1.4288752e-38
0.53181553 -0.60477382 2.4090002 1.4288752e-38
0.58963144 -0.60339713 2.4090002 1.4288752e-38
0.62863433 -0.60339713 2.4090002 1.4288752e-38
0.64928293 -0.60339713 2.4090002 1.4288752e-38
-0.057761904 -0.59610289 2.4260001 1.4288752e-38
0.34402949 -0.59812713 2.4217505 1.4288752e-38
0.38242203 -0.59665531 2.4189167 1.4288752e-38
0.41919199 -0.59619057 2.4136362 1.4288752e-38
0.46193111 -0.59735364 2.4175 1.4288752e-38
0.50125813 -0.5958249 2.4197032 1.4288752e-38
0.54015511 -0.58803153 2.4179626 1.4288752e-38
0.58133781 -0.58926696 2.4153328 1.4288752e-38
0.62029946 -0.58973169 2.4163406 1.4288752e-38
0.6582498 -0.58985895 2.4161155 1.4288752e-38
0.70150286 -0.58510554 2.4181221 1.4288752e-38
0.73991477 -0.58178413 2.4123983 1.4288752e-38
0.7819531 -0.58424598 2.416322 1.4288752e-38
0.8181451 -0.58626735 2.4148972 1.4288752e-38
0.86010188 -0.58179051 2.4131691 1.4288752e-38
0.89811379 -0.56847566 2.4103601 1.4288752e-38
0.94117922 -0.57480353 2.4189999 1.4288752e-38
0.96860147 -0.56613398 2.4158003 1.4288752e-38
0.90482759 -0.55639791 2.4175005 1.4288752e-38
0.94498485 -0.55220383 2.4260001 1.4288752e-38
0.98108 -0.54164159 2.4145811 1.4288752e-38
1.0041325 -0.52692103 2.4090002 1.4288752e-38
0.95576704 -0.48905081 2.4260001 1.4288752e-38
0.97603941 -0.49943206 2.4155679 1.4288752e-38
0.95092607 -0.44559184 2.4260004 1.4288752e-38
0.96788895 -0.46123984 2.4143422 1.4288752e-38
0.94671702 -0.41783786 2.4161916 1.4288752e-38
0.96380872 -0.42736289 2.4090004 1.4288752e-38
0.9404434 -0.38014358 2.4147484 1.4288752e-38
0.9172591 -0.32346666 2.4260001 1.4288752e-38
0.93222106 -0.34027928 2.4144526 1.4288752e-38
0.11430002 -0.29647607 2.4211433 1.4288752e-38
0.13276097 -0.29735416 2.4235716 1.4288752e-38
0.91080546 -0.29466528 2.4177933 1.4288752e-38
0.92507744 -0.30683249 2.4097395 1.4288752e-38
0.11517316 -0.27393776 2.4090002 1.4288752e-38
0.1410227 -0.26056767 2.4159324 1.4288752e-38
0.17278679 -0.25752273 2.4241624 1.4288752e-38
0.89814061 -0.260887 2.4165895 1.4288752e-38
0.14217356 -0.22199737 2.4110389 1.4288752e-38
0.17900796 -0.21943904 2.4136603 1.4288752e-38
0.20998152 -0.21134061 2.4260001 1.4288752e-38
0.8709082 -0.21211752 2.4170954 1.4288752e-38
0.88991642 -0.22845149 2.4137812 1.4288752e-38
0.13842192 -0.19297493 2.4090002 1.4288752e-38
0.18583716 -0.18433413 2.4089985 1.4288752e-38
0.21951492 -0.1792461 2.4200497 1.4288752e-38
0.24392027 -0.1726256 2.4260004 1.4288752e-38
0.87289947 -0.17969599 2.415102 1.4288752e-38
0.88330007 -0.19042572 2.4090002 1.4288752e-38
0.19807333 -0.15677619 2.4090002 1.4288752e-38
0.22463948 -0.14219978 2.4096525 1.4288752e-38
0.25587711 -0.13622087 2.417963 1.4288752e-38
0.83687621 -0.12790878 2.4222226 1.4288752e-38
0.8611064 -0.13965543 2.4137931 1.4288752e-38
0.23080516 -0.11287887 2.4090002 1.4288752e-38
0.26117167 -0.10139597 2.4142087 1.4288752e-38
0.2921508 -0.087762676 2.4249377 1.4288752e-38
0.83535087 -0.099865727 2.4187143 1.4288752e-38
0.8535077 -0.10042158 2.4099607 1.4288752e-38
0.27498657 -0.069811843 2.4090002 1.4288752e-38
0.29816133 -0.059862748 2.4154146 1.4288752e-38
0.32577717 -0.046209525 2.4260001 1.4288752e-38
0.83469081 -0.058087014 2.4187143 1.4288752e-38
0.85006768 -0.062362868 2.4089997 1.4288752e-38
0.30660114 -0.022416918 2.4097219 1.4288752e-38
0.33366811 -0.016798912 2.4200699 1.4288752e-38
0.3696762 -0.0023104763 2.4260001 1.4288752e-38
0.82487643 -0.018955037 2.4126422 1.4288752e-38
0.84593612 -0.026220409 2.4090002 1.4288752e-38
0.31890571 0.0068828571 2.4090002 1.4288752e-38
0.34271279 0.017699065 2.4093022 1.4288752e-38
0.37656426 0.024356013 2.4206164 1.4288752e-38
0.40587366 0.037737779 2.4260001 1.4288752e-38
0.81140059 0.02081327 2.4161158 1.4288752e-38
0.35183546 0.055737652 2.4090002 1.4288752e-38
0.38020903 0.057642207 2.411967 1.4288752e-38
0.40618172 0.061458673 2.4260004 1.4288752e-38
0.79074961 0.061276119 2.4179718 1.4288752e-38
0.80569333 0.05815516 2.4090002 1.4288752e-38
0.39130324 0.096614927 2.4090002 1.4288752e-38
0.41828114 0.099972218 2.4133081 1.4288752e-38
0.44706684 0.10786399 2.4228127 1.4288752e-38
0.78652215 0.099800177 2.4129996 1.4288752e-38
0.80583423 0.089207239 2.4090002 1.4288752e-38
0.4262335 0.13346025 2.408999 1.4288752e-38
0.45477131 0.14423442 2.4204867 1.4288752e-38
0.77921748 0.14020173 2.4147868 1.4288752e-38
0.43624204 0.1687939 2.4090002 1.4288752e-38
0.46352753 0.17970228 2.4097712 1.4288752e-38
0.4953782 0.18529242 2.4181213 1.4288752e-38
0.53140956 0.19639048 2.4260001 1.4288752e-38
0.75552577 0.17790666 2.4260001 1.4288752e-38
0.77187258 0.18065095 2.4151299 1.4288752e-38
0.47575146 0.21170004 2.4090004 1.4288752e-38
0.50445276 0.21563336 2.411531 1.4288752e-38
0.53824431 0.21977299 2.4187491 1.4288752e-38
0.56144571 0.23104763 2.4260001 1.4288752e-38
0.7503655 0.22351727 2.4183087 1.4288752e-38
0.76750785 0.22039314 2.4115186 1.4288752e-38
0.51392007 0.24090002 2.4090002 1.4288752e-38
0.5398922 0.25745633 2.4109178 1.4288752e-38
0.57092166 0.26830277 2.4241786 1.4288752e-38
0.74407256 0.25865981 2.4113891 1.4288752e-38
0.76705623 0.24969481 2.4090004 1.4288752e-38
0.55049366 0.28894505 2.4090002 1.4288752e-38
0.57977945 0.29897189 2.4105678 1.4288752e-38
0.61460966 0.31031942 2.4246919 1.4288752e-38
0.64115715 0.31306952 2.4260001 1.4288752e-38
0.71583939 0.31214428 2.4168465 1.4288752e-38
0.73289794 0.29902384 2.4123991 1.4288752e-38
0.59033734 0.33673054 2.4090004 1.4288752e-38
0.62001097 0.3394345 2.4183216 1.4288752e-38
0.64912236 0.33738512 2.4255531 1.4288752e-38
0.70972967 0.33996472 2.4171135 1.4288752e-38
0.7320205 0.33467886 2.4089997 1.4288752e-38
0.58963144 0.36020288 2.4090002 1.4288752e-38
0.62538594 0.36978424 2.4095862 1.4288752e-38
0.65836418 0.38113266 2.4159989 1.4288752e-38
0.70132589 0.38035634 2.4187982 1.4288752e-38
0.7227 0.37090954 2.4090002 1.4288752e-38
0.66463679 0.41967776 2.4089985 1.4288752e-38
0.69617403 0.42073512 2.4100442 1.4288752e-38
0.72346485 0.42291337 2.4090004 1.4288752e-38
0.66680485 0.44529697 2.4226003 1.4288752e-38
0.69564289 0.44657236 2.4136367 1.4288752e-38
-0.058166668 -0.64681339 2.4430001 1.4288752e-38
-0.049998719 -0.62255555 2.4450004 1.4288752e-38
0.033604078 -0.61905819 2.4613893 1.4288752e-38
0.059621535 -0.61469865 2.4643912 1.4288752e-38
0.099231139 -0.6140852 2.4616771 1.4288752e-38
0.1397918 -0.61222887 2.462579 1.4288752e-38
0.17914906 -0.61204571 2.4589059 1.4288752e-38
0.21918368 -0.60984927 2.4563909 1.4288752e-38
0.25908196 -0.61046308 2.4527657 1.4288752e-38
0.2957873 -0.60580629 2.4575 1.4288752e-38
0.33736667 -0.60260665 2.4430001 1.4288752e-38
0.03172889 -0.59078676 2.4780004 1.4288752e-38
0.054279998 -0.59088504 2.4780004 1.4288752e-38
0.10095557 -0.59655559 2.4780004 1.4288752e-38
0.14172423 -0.59310538 2.4780004 1.4288752e-38
0.18042774 -0.58973271 2.4774702 1.4288752e-38
0.22061834 -0.58855397 2.4764986 1.4288752e-38
0.25923228 -0.58816391 2.470587 1.4288752e-38
0.30233976 -0.58732909 2.4678817 1.4288752e-38
0.33970118 -0.58692759 2.4660294 1.4288752e-38
0.37992978 -0.58224374 2.4691205 1.4288752e-38
0.42179966 -0.58311224 2.465328 1.4288752e-38
0.45978978 -0.58030397 2.4583848 1.4288752e-38
0.49970943 -0.57867593 2.4589093 1.4288752e-38
0.5362708 -0.57121062 2.456367 1.4288752e-38
0.58065045 -0.57341182 2.4599805 1.4288752e-38
0.62080818 -0.5725528 2.4543016 1.4288752e-38
0.66173351 -0.57416666 2.4508336 1.4288752e-38
0.69937456 -0.57147974 2.4581995 1.4288752e-38
0.73824197 -0.56944203 2.4613099 1.4288752e-38
0.77899134 -0.56886518 2.4629467 1.4288752e-38
0.82492012 -0.57160205 2.4558749 1.4288752e-38
0.85777968 -0.57035631 2.4563782 1.4288752e-38
0.89134097 -0.56761998 2.4537895 1.4288752e-38
0.94337386 -0.56323236 2.4430006 1.4288752e-38
0.96324003 -0.56072664 2.4430001 1.4288752e-38
0.076700002 -0.53690004 2.4780002 1.4288752e-38
0.082600005 -0.54044002 2.4780002 1.4288752e-38
0.43424004 -0.55932003 2.4780002 1.4288752e-38
0.45811462 -0.55739826 2.4761057 1.4288752e-38
0.49619001 -0.55873001 2.4780004 1.4288752e-38
0.54181856 -0.55947572 2.4735003 1.4288752e-38
0.58056003 -0.55932003 2.4780002 1.4288752e-38
0.6254369 -0.55505806 2.4730902 1.4288752e-38
0.65924704 -0.55182642 2.4730492 1.4288752e-38
0.70207971 -0.5523454 2.4749992 1.4288752e-38
0.74283481 -0.54824346 2.476799 1.4288752e-38
0.77541131 -0.55246264 2.4772506 1.4288752e-38
0.81980121 -0.55467796 2.4757495 1.4288752e-38
0.86011523 -0.54734385 2.4694591 1.4288752e-38
0.90096873 -0.54812694 2.4727573 1.4288752e-38
0.93871874 -0.54127645 2.4617877 1.4288752e-38
0.96869797 -0.53735405 2.4471354 1.4288752e-38
0.096760005 -0.49054292 2.4780004 1.4288752e-38
0.91804004 -0.49324006 2.4780002 1.4288752e-38
0.941468 -0.50026035 2.4597192 1.4288752e-38
0.96717745 -0.50399178 2.4430006 1.4288752e-38
0.10907304 -0.4630731 2.4780004 1.4288752e-38
0.12767601 -0.45076004 2.4780004 1.4288752e-38
0.91128284 -0.46013862 2.4768748 1.4288752e-38
0.93650526 -0.460484 2.4600127 1.4288752e-38
0.96370536 -0.46859065 2.4430003 1.4288752e-38
0.11564001 -0.43660003 2.4780002 1.4288752e-38
0.13137335 -0.43188 2.4780004 1.4288752e-38
0.90896618 -0.41696677 2.4748495 1.4288752e-38
0.93202865 -0.42237166 2.4592981 1.4288752e-38
0.87367213 -0.37618405 2.4780004 1.4288752e-38
0.90045416 -0.37934643 2.4628377 1.4288752e-38
0.92677909 -0.37916106 2.4505 1.4288752e-38
0.15433556 -0.32495779 2.4430003 1.4288752e-38
0.18017869 -0.33366483 2.4652214 1.4288752e-38
0.20871843 -0.33351517 2.4780004 1.4288752e-38
0.87178409 -0.33370405 2.4780004 1.4288752e-38
0.89964384 -0.33968613 2.4652078 1.4288752e-38
0.92414987 -0.34919301 2.4504375 1.4288752e-38
0.15165637 -0.30204368 2.4430006 1.4288752e-38
0.17985357 -0.2996791 2.4558094 1.4288752e-38
0.22016233 -0.29797029 2.4750483 1.4288752e-38
0.24662003 -0.28988665 2.4780006 1.4288752e-38
0.87098134 -0.2989091 2.4762578 1.4288752e-38
0.89664507 -0.3031483 2.4605064 1.4288752e-38
0.19186807 -0.26246175 2.4467783 1.4288752e-38
0.22038834 -0.25902516 2.4662728 1.4288752e-38
0.25670734 -0.25689322 2.4772928 1.4288752e-38
0.28241336 -0.24937335 2.4780002 1.4288752e-38
0.8661508 -0.25759861 2.4698329 1.4288752e-38
0.88720179 -0.26318634 2.4498003 1.4288752e-38
0.19660334 -0.23615667 2.4430001 1.4288752e-38
0.2257556 -0.22208452 2.4479587 1.4288752e-38
0.25977901 -0.22095583 2.4657016 1.4288752e-38
0.29051599 -0.20791601 2.4780004 1.4288752e-38
0.32686001 -0.20886001 2.4780002 1.4288752e-38
0.83544004 -0.20296001 2.4780002 1.4288752e-38
0.85739589 -0.22054009 2.4615607 1.4288752e-38
0.88229012 -0.23396572 2.4486666 1.4288752e-38
0.23654446 -0.1938889 2.4430001 1.4288752e-38
0.2630792 -0.18031736 2.4505563 1.4288752e-38
0.30096951 -0.1787101 2.4730632 1.4288752e-38
0.32992801 -0.17251603 2.4780004 1.4288752e-38
0.83266968 -0.17617913 2.4780004 1.4288752e-38
0.85591191 -0.18082161 2.4584875 1.4288752e-38
0.27035868 -0.15262933 2.4430003 1.4288752e-38
0.29971111 -0.14049323 2.4582818 1.4288752e-38
0.33917519 -0.13871019 2.4763112 1.4288752e-38
0.36580005 -0.13216001 2.4780004 1.4288752e-38
0.82747829 -0.13866793 2.4706194 1.4288752e-38
0.84485817 -0.14829941 2.4543889 1.4288752e-38
0.27687335 -0.11400667 2.4430001 1.4288752e-38
0.30173931 -0.10395629 2.4443083 1.4288752e-38
0.3381595 -0.099902861 2.4658153 1.4288752e-38
0.37626493 -0.0946825 2.4776239 1.4288752e-38
0.40788668 -0.090860009 2.4780006 1.4288752e-38
0.8222084 -0.098461941 2.4647119 1.4288752e-38
0.31808859 -0.066808574 2.4430001 1.4288752e-38
0.34142461 -0.061200883 2.4525967 1.4288752e-38
0.38069889 -0.061109275 2.4673121 1.4288752e-38
0.41013438 -0.055460013 2.4780002 1.4288752e-38
0.79275984 -0.053969897 2.4717696 1.4288752e-38
0.81841236 -0.062573306 2.459264 1.4288752e-38
0.34881985 -0.028953452 2.4436805 1.4288752e-38
0.37941119 -0.0224663 2.4556866 1.4288752e-38
0.41739675 -0.018437693 2.4678383 1.4288752e-38
0.44572541 -0.011170667 2.4780004 1.4288752e-38
0.78964448 -0.019659048 2.4667051 1.4288752e-38
0.81230581 -0.02333549 2.453408 1.4288752e-38
0.39105898 0.0098435907 2.4430006 1.4288752e-38
0.42028672 0.019758778 2.4557304 1.4288752e-38
0.45758745 0.021651983 2.4745147 1.4288752e-38
0.49166673 0.034613337 2.4780004 1.4288752e-38
0.78395295 0.022396196 2.4676669 1.4288752e-38
0.80598736 0.015756272 2.4500835 1.4288752e-38
0.42461008 0.06060553 2.445894 1.4288752e-38
0.46077356 0.059487682 2.4640298 1.4288752e-38
0.49961317 0.060260206 2.4766943 1.4288752e-38
0.53252256 0.066917434 2.4779997 1.4288752e-38
0.75429231 0.068076931 2.4780004 1.4288752e-38
0.77493656 0.059375621 2.4634504 1.4288752e-38
0.43818888 0.082984447 2.4430003 1.4288752e-38
0.46305484 0.096306682 2.4485438 1.4288752e-38
0.49967837 0.10092961 2.4620268 1.4288752e-38
0.5376516 0.10236736 2.4755762 1.4288752e-38
0.74916899 0.10016892 2.4779994 1.4288752e-38
0.77148104 0.099597633 2.4586308 1.4288752e-38
0.4691686 0.13943544 2.4450405 1.4288752e-38
0.4998762 0.13962035 2.4561365 1.4288752e-38
0.54103047 0.14001453 2.4646294 1.4288752e-38
0.57027715 0.1399143 2.4780002 1.4288752e-38
0.7505489 0.13933402 2.4722719 1.4288752e-38
0.76890004 0.1370104 2.4525607 1.4288752e-38
0.50830221 0.17092839 2.4447589 1.4288752e-38
0.54182911 0.17852287 2.4523616 1.4288752e-38
0.57909304 0.18354006 2.4697106 1.4288752e-38
0.61183 0.18722665 2.4780006 1.4288752e-38
0.71885604 0.189272 2.4780004 1.4288752e-38
0.74334788 0.18141605 2.4649489 1.4288752e-38
0.76169699 0.17391334 2.4458337 1.4288752e-38
0.55607337 0.20474666 2.4430001 1.4288752e-38
0.58093792 0.21944253 2.4529088 1.4288752e-38
0.61900783 0.21952881 2.4713137 1.4288752e-38
0.65903002 0.23083752 2.4779997 1.4288752e-38
0.70625138 0.22587295 2.4774001 1.4288752e-38
0.7365343 0.21779653 2.4600408 1.4288752e-38
0.58595359 0.25572854 2.4486668 1.4288752e-38
0.6201672 0.2604771 2.4589493 1.4288752e-38
0.66002584 0.25934482 2.4746425 1.4288752e-38
0.70313364 0.25941351 2.4693573 1.4288752e-38
0.73016328 0.26139581 2.4512572 1.4288752e-38
0.62477589 0.29453963 2.4433622 1.4288752e-38
0.66163117 0.29987642 2.4599471 1.4288752e-38
0.69974726 0.30034021 2.4618969 1.4288752e-38
0.72636598 0.28767252 2.4458337 1.4288752e-38
0.66858518 0.34326485 2.4436078 1.4288752e-38
0.69360703 0.3390699 2.4471633 1.4288752e-38
0.67163551 0.36493477 2.4458332 1.4288752e-38
0.69060224 0.36255363 2.4445457 1.4288752e-38
0.028050289 -0.60997486 2.4960001 1.4288752e-38
0.045165714 -0.60141718 2.4960001 1.4288752e-38
0.035657145 -0.59190857 2.4960001 1.4288752e-38
0.062128458 -0.58063233 2.5034297 1.4288752e-38
0.098997906 -0.582932 2.5060008 1.4288752e-38
0.13852234 -0.58524984 2.5020003 1.4288752e-38
0.1790489 -0.57994264 2.5067997 1.4288752e-38
0.22080733 -0.57733428 2.5050001 1.4288752e-38
0.26083326 -0.57519066 2.5041814 1.4288752e-38
0.2978031 -0.57456982 2.5052726 1.4288752e-38
0.33985168 -0.56851137 2.5010393 1.4288752e-38
0.37570256 -0.5656215 2.5026312 1.4288752e-38
0.41593525 -0.56599587 2.5030434 1.4288752e-38
0.51477146 -0.56265724 2.5140004 1.4288752e-38
0.54190063 -0.56389105 2.5015385 1.4288752e-38
0.58173215 -0.56448072 2.49825 1.4288752e-38
0.60379434 -0.56338286 2.4960001 1.4288752e-38
0.78207999 -0.56338286 2.4960001 1.4288752e-38
0.067446411 -0.54549176 2.4998183 1.4288752e-38
0.099071056 -0.53803116 2.5050013 1.4288752e-38
0.12546057 -0.53584117 2.5140002 1.4288752e-38
0.32562286 -0.5578686 2.5140002 1.4288752e-38
0.38419965 -0.55597919 2.510143 1.4288752e-38
0.42739904 -0.55547237 2.5050001 1.4288752e-38
0.46461394 -0.54773277 2.5086 1.4288752e-38
0.49818683 -0.54887223 2.5082731 1.4288752e-38
0.53946561 -0.55418974 2.5104001 1.4288752e-38
0.58099782 -0.55608696 2.5069561 1.4288752e-38
0.6181162 -0.54853451 2.50529 1.4288752e-38
0.66182697 -0.53799945 2.5035481 1.4288752e-38
0.69714057 -0.54044956 2.4989994 1.4288752e-38
0.74124485 -0.53954935 2.5053911 1.4288752e-38
0.7824524 -0.53706235 2.5018783 1.4288752e-38
0.8178314 -0.53889745 2.5046673 1.4288752e-38
0.85497195 -0.53409314 2.5047097 1.4288752e-38
0.90359676 -0.53064007 2.501143 1.4288752e-38
0.92629337 -0.52693337 2.4960003 1.4288752e-38
0.10153224 -0.50175476 2.4978006 1.4288752e-38
0.13681173 -0.49509332 2.5113003 1.4288752e-38
0.16477039 -0.48778132 2.5140002 1.4288752e-38
0.79011434 -0.51956004 2.5140002 1.4288752e-38
0.80687433 -0.51956004 2.5140002 1.4288752e-38
0.9111985 -0.49306136 2.5073333 1.4288752e-38
0.92581755 -0.50644541 2.5038748 1.4288752e-38
0.10092052 -0.47002599 2.4960003 1.4288752e-38
0.1433872 -0.46384633 2.4960005 1.4288752e-38
0.167089 -0.45774311 2.5114286 1.4288752e-38
0.90839875 -0.460437 2.5065882 1.4288752e-38
0.14759898 -0.43588158 2.4960003 1.4288752e-38
0.18205221 -0.4207277 2.5080004 1.4288752e-38
0.20950004 -0.41181719 2.5140002 1.4288752e-38
0.8979553 -0.41847771 2.5055628 1.4288752e-38
0.19042826 -0.382808 2.5109143 1.4288752e-38
0.21497047 -0.37858903 2.51355 1.4288752e-38
0.87312883 -0.37678155 2.5045712 1.4288752e-38
0.8883729 -0.38621223 2.5049999 1.4288752e-38
0.19254856 -0.35657144 2.4960003 1.4288752e-38
0.22450916 -0.34501562 2.5001543 1.4288752e-38
0.25439319 -0.33074555 2.5104001 1.4288752e-38
0.87080127 -0.34413779 2.5002351 1.4288752e-38
0.88191998 -0.35657144 2.4960001 1.4288752e-38
0.23375237 -0.31457525 2.4960001 1.4288752e-38
0.26136854 -0.30304173 2.5028939 1.4288752e-38
0.28119558 -0.29449716 2.5140002 1.4288752e-38
0.86385065 -0.29715002 2.5061247 1.4288752e-38
0.27264002 -0.26898289 2.4960003 1.4288752e-38
0.29906541 -0.25390008 2.5074546 1.4288752e-38
0.33262774 -0.24500485 2.5126157 1.4288752e-38
0.83736861 -0.24334288 2.5050001 1.4288752e-38
0.8496123 -0.25923428 2.5043075 1.4288752e-38
0.3027533 -0.22298826 2.4968188 1.4288752e-38
0.3352136 -0.21915527 2.5028937 1.4288752e-38
0.36393145 -0.20351431 2.5140002 1.4288752e-38
0.82880425 -0.21609314 2.5052435 1.4288752e-38
0.84248924 -0.22409602 2.5032003 1.4288752e-38
0.34406513 -0.18538663 2.5040529 1.4288752e-38
0.37618455 -0.1761913 2.5140002 1.4288752e-38
0.82188392 -0.18211953 2.5046091 1.4288752e-38
0.35514516 -0.15736686 2.4960001 1.4288752e-38
0.38550293 -0.14100641 2.5042505 1.4288752e-38
0.4046343 -0.13886859 2.5140002 1.4288752e-38
0.81429189 -0.14215164 2.5020001 1.4288752e-38
0.38813797 -0.10875801 2.4986999 1.4288752e-38
0.42143267 -0.10126063 2.5034635 1.4288752e-38
0.44294289 -0.090982854 2.5140002 1.4288752e-38
0.79495692 -0.087919377 2.51 1.4288752e-38
0.80692339 -0.10295219 2.5016842 1.4288752e-38
0.42829362 -0.063054949 2.5007648 1.4288752e-38
0.4515889 -0.055733655 2.5140002 1.4288752e-38
0.78448963 -0.06042755 2.5068007 1.4288752e-38
0.80109715 -0.078445718 2.4960001 1.4288752e-38
0.43818671 -0.034072384 2.4960001 1.4288752e-38
0.46427676 -0.020910522 2.5005004 1.4288752e-38
0.49396592 -0.013457535 2.5140002 1.4288752e-38
0.77892315 -0.01909486 2.5068002 1.4288752e-38
0.47384381 0.0071314289 2.4960003 1.4288752e-38
0.50128996 0.017904643 2.5083756 1.4288752e-38
0.53153145 0.035914287 2.5140002 1.4288752e-38
0.75619525 0.025938094 2.5140002 1.4288752e-38
0.76781774 0.015456296 2.5046663 1.4288752e-38
0.5134629 0.040411428 2.4960001 1.4288752e-38
0.5446074 0.052398086 2.5020001 1.4288752e-38
0.56657517 0.065516368 2.5140002 1.4288752e-38
0.74831218 0.059253506 2.5074549 1.4288752e-38
0.76341999 0.042942859 2.5050001 1.4288752e-38
0.55651551 0.091652058 2.4960001 1.4288752e-38
0.5726285 0.10030194 2.5037999 1.4288752e-38
0.61830246 0.11467694 2.5126157 1.4288752e-38
0.73544407 0.1013886 2.5050004 1.4288752e-38
0.59015548 0.13975187 2.4983222 1.4288752e-38
0.62039226 0.13810547 2.5080013 1.4288752e-38
0.64526004 0.14545286 2.5140002 1.4288752e-38
0.7111029 0.15084 2.5140002 1.4288752e-38
0.73548949 0.14116763 2.5074234 1.4288752e-38
0.59326696 0.16809794 2.4960001 1.4288752e-38
0.6246044 0.17301887 2.5015106 1.4288752e-38
0.66036189 0.18304344 2.513654 1.4288752e-38
0.70087558 0.18691705 2.5121539 1.4288752e-38
0.72499269 0.17249385 2.5022304 1.4288752e-38
0.63786668 0.20364189 2.4960001 1.4288752e-38
0.66235256 0.21186736 2.5014548 1.4288752e-38
0.70035392 0.21619931 2.5046794 1.4288752e-38
0.72344387 0.21790475 2.4960001 1.4288752e-38
