# .PCD v0.7 - Point Cloud Data file format
VERSION 0.7
FIELDS x y z rgb
SIZE 4 4 4 4
TYPE F F F F
COUNT 1 1 1 1
WIDTH 236
HEIGHT 1
VIEWPOINT 0 0 0 1 0 0 0
POINTS 236
DATA ascii
-0.049302071 0.10917346 0.47445384 7.7307408e-39
-0.034514751 0.10765354 0.47434503 1.1877739e-38
-0.056294195 0.11694663 0.48428854 7.6392627e-39
-0.026438164 0.11464401 0.48848319 1.5194623e-38
-0.05486726 0.14047606 0.50080478 7.2712032e-39
-0.027505981 0.13881432 0.50439262 1.3259236e-38
-0.050816819 0.16595559 0.51642752 7.2708445e-39
-0.033461824 0.16474113 0.51677984 1.0126747e-38
-0.30259427 0.13930182 0.54628086 1.1980034e-38
-0.081642121 0.1566906 0.53244448 8.0948416e-39
-0.074520387 0.15562128 0.52394748 7.7336205e-39
-0.01460558 0.15259421 0.52678645 1.7221484e-38
-0.32277137 0.18642151 0.53727615 8.2010881e-39
-0.29871807 0.18626106 0.5425728 8.4776763e-39
-0.27278322 0.19453008 0.55405527 8.8450155e-39
-0.080157153 0.17686287 0.54300004 8.1949602e-39
-0.059472684 0.18355218 0.53204966 7.2715633e-39
-0.021482876 0.18052921 0.536686 1.3259236e-38
-0.32233804 0.20722535 0.5441429 9.2166707e-39
-0.29617682 0.21771911 0.53772855 9.0312089e-39
-0.27250469 0.20584778 0.54334629 7.9245068e-39
-0.21680978 0.2285413 0.55731589 6.2646337e-39
-0.054359961 0.20885982 0.54874027 6.9031452e-39
-0.028336868 0.20859304 0.55116785 9.8508802e-39
-0.29108194 0.24175681 0.53659254 9.3056391e-39
-0.25971779 0.24687548 0.5499022 1.0688212e-38
-0.23518214 0.25117865 0.55822718 1.0963361e-38
-0.25634903 0.19514658 0.56427497 1.0226872e-38
-0.23795819 0.19891551 0.57580006 1.0224714e-38
-0.0058000009 0.19439313 0.56471187 1.6759787e-38
-0.28950408 0.22538725 0.56518739 6.2657085e-39
-0.25238118 0.2184113 0.57362509 8.0159807e-39
-0.22551969 0.22302252 0.58486599 8.107819e-39
-0.051579934 0.2291099 0.56821746 6.5354402e-39
-0.019234385 0.22389852 0.57295096 1.132457e-38
-0.29635048 0.24024001 0.57200003 1.189032e-38
-0.24417329 0.24172157 0.57804769 1.3085998e-38
-0.22807446 0.24179967 0.5869621 7.8315881e-39
-0.054891188 0.24111879 0.58134997 6.996424e-39
-0.026395593 0.24608272 0.59018129 8.1002464e-39
-0.20777571 0.23624767 0.60219234 7.8308748e-39
-0.1999381 0.23911905 0.60500002 7.0075811e-39
-0.0037443361 0.2356261 0.60368973 1.4271226e-38
0.013672548 0.23185126 0.6319465 1.519282e-38
-0.20306975 0.24114618 0.60574996 7.36664e-39
-0.1999381 0.24027143 0.60500002 4.7819871e-39
-0.01074273 0.2613233 0.61962658 9.4810187e-39
0.011474315 0.25367668 0.63231856 1.2889373e-38
0.23194011 0.27269828 0.63762915 9.2037101e-39
0.24556205 0.27441323 0.63786995 1.2337641e-38
-0.012824453 0.28228447 0.6379829 4.6018586e-39
0.22846259 0.2831769 0.63720828 8.9299959e-39
0.24896424 0.28318238 0.63755882 1.2062493e-38
-0.0010715873 0.17936049 0.67583334 1.343929e-38
0.021858461 0.1871908 0.66667253 1.4361251e-38
0.052687086 0.19127277 0.67323303 1.6112968e-38
0.025585435 0.21603066 0.64823616 1.4638922e-38
0.059141498 0.21953855 0.66465074 1.6667588e-38
0.081426732 0.22369994 0.67834628 1.7036367e-38
0.23320678 0.23851579 0.67724454 1.3165943e-38
0.25437874 0.23737197 0.67515767 1.5009853e-38
0.027065752 0.26312026 0.64653516 1.1139098e-38
0.056671511 0.25582781 0.66455454 1.2706059e-38
0.081154056 0.24556215 0.677625 1.3719127e-38
0.1879677 0.2674866 0.66671395 1.0401878e-38
0.21861415 0.25752306 0.65560144 1.0769946e-38
0.26020139 0.25744069 0.65387225 1.6116932e-38
0.29463243 0.26400155 0.66537571 2.0359736e-38
0.32199156 0.27633038 0.67844445 2.1558634e-38
-0.012918095 0.28525302 0.64036369 3.6802708e-39
0.026255868 0.28274468 0.65844685 4.9688376e-39
0.043272268 0.28414994 0.67126924 4.5093056e-39
0.15885071 0.2986286 0.67885 8.0984331e-39
0.17841277 0.28853691 0.66353822 8.7434438e-39
0.20854613 0.28425416 0.64299208 8.46758e-39
0.26938549 0.28454894 0.64339948 1.5657757e-38
0.30147019 0.28859928 0.66108871 1.8883524e-38
0.32272694 0.29122505 0.67736852 2.045157e-38
0.038081717 0.15901504 0.71660006 1.3900641e-38
0.060910091 0.15772668 0.7142334 1.5190651e-38
0.085362948 0.15845066 0.71700001 1.7586296e-38
-0.00065809529 0.17636953 0.69100004 1.2980836e-38
0.024233589 0.16941945 0.69425166 1.3991752e-38
0.062363856 0.17418092 0.69261003 1.6295561e-38
0.09798573 0.18146655 0.70406526 1.8601172e-38
0.12488475 0.19037633 0.71581846 1.9799359e-38
0.07944496 0.20178628 0.68040007 1.7404432e-38
0.1007757 0.21917367 0.6938352 1.6944173e-38
0.12702732 0.21774302 0.71316379 1.620733e-38
0.18551762 0.22892822 0.71207315 1.1415304e-38
0.21981972 0.22529428 0.70287573 1.2797161e-38
0.25939724 0.22533309 0.70009506 1.5562306e-38
0.29388931 0.23180768 0.70456028 1.8880995e-38
0.32105407 0.23839881 0.71724999 2.1093686e-38
0.073098004 0.2708863 0.68722892 8.7438025e-39
0.098530442 0.25682825 0.70093155 9.204422e-39
0.14941858 0.26504067 0.70981312 8.8349178e-39
0.17556334 0.25503239 0.69602329 1.0677742e-38
0.20760636 0.24204925 0.68398595 1.1599335e-38
0.27764061 0.24082537 0.68112499 1.7590617e-38
0.30675462 0.24928729 0.68959659 2.0541962e-38
0.33152714 0.26353014 0.70334989 2.0727794e-38
0.064508989 0.2830146 0.68715388 6.2574044e-39
0.11335093 0.30773357 0.71717638 5.7035174e-39
0.14089434 0.29666108 0.7001127 8.0055186e-39
0.16233259 0.28329113 0.68239391 9.3884447e-39
0.34019646 0.2959539 0.69481075 1.9528532e-38
0.11813428 0.32026002 0.71700001 6.532199e-39
0.035835162 0.15790229 0.72508007 1.3901717e-38
0.064154387 0.1507708 0.7332902 1.5098814e-38
0.099706441 0.1497843 0.74037963 1.7401904e-38
0.13840514 0.15263999 0.75185341 1.7125316e-38
0.17704137 0.15644971 0.75605732 1.5927856e-38
0.20357715 0.15954095 0.75800002 1.7033129e-38
0.029567622 0.16090286 0.72200006 1.3901719e-38
0.11239798 0.16490555 0.72447491 1.8968871e-38
0.14176853 0.17766079 0.73598075 1.7401907e-38
0.17996064 0.18054608 0.74071646 1.3625126e-38
0.2186814 0.18199329 0.74143046 1.6573586e-38
0.25767022 0.18995824 0.74599767 1.7587019e-38
0.28613877 0.19593078 0.75336063 1.9154345e-38
0.14882301 0.22130568 0.73020595 9.2037031e-39
0.17541377 0.21222967 0.7254923 1.1598978e-38
0.22083499 0.20452899 0.72331756 1.4730751e-38
0.2611731 0.20710546 0.72722363 1.6666499e-38
0.30046359 0.21550959 0.73608249 1.9524922e-38
0.33429337 0.23018864 0.74485904 2.0540519e-38
0.11820459 0.27774382 0.7432 3.2178409e-39
0.13796131 0.2600469 0.73013192 6.1641326e-39
0.16114287 0.24068573 0.72000003 9.5724786e-39
0.3480584 0.25472081 0.7347343 2.0727434e-38
0.36876538 0.26247263 0.74848127 1.9528893e-38
0.10881047 0.30346745 0.73933315 4.9670299e-39
0.12573168 0.28906029 0.72583514 6.347442e-39
0.35841587 0.28401491 0.72468436 2.0266817e-38
0.36371341 0.28472137 0.72800016 1.9437058e-38
0.099582575 0.32608154 0.7425378 5.9811791e-39
0.39503479 0.077817388 0.79800016 1.1326376e-38
0.11770223 0.11922032 0.79733342 1.5007694e-38
0.14016728 0.11904874 0.79657704 1.5375759e-38
0.16811201 0.11932003 0.79799998 1.6205872e-38
0.3922148 0.10225407 0.79713422 7.9212656e-39
0.072049491 0.14104851 0.77368963 1.4915504e-38
0.1014123 0.13233265 0.77686083 1.5282844e-38
0.14054549 0.13260077 0.77471316 1.6204079e-38
0.18004952 0.13742439 0.77587557 1.7126034e-38
0.21648541 0.14710416 0.77828586 1.823202e-38
0.24862744 0.15567243 0.7896626 1.7586652e-38
0.39296985 0.12692158 0.79682922 4.7884148e-39
0.23208348 0.16351107 0.7638858 1.8507533e-38
0.26153368 0.17110528 0.77342844 1.795508e-38
0.29860219 0.1851601 0.78068364 1.8601528e-38
0.32868227 0.19453616 0.79096967 1.9433091e-38
0.31325039 0.20416263 0.7645672 1.9708236e-38
0.34190789 0.21400499 0.77407587 2.0354686e-38
0.37635499 0.22801334 0.78324807 1.9894433e-38
0.37754616 0.24544579 0.7664392 1.9895872e-38
0.089903779 0.31267542 0.76603937 5.7049523e-39
0.07750421 0.34374893 0.78810865 7.6399787e-39
0.084699623 0.33205861 0.7725094 7.0868049e-39
0.39230254 -0.0065300395 0.83358747 5.8025681e-39
0.40843689 -0.017266609 0.83118385 8.564463e-39
0.38347027 0.022651182 0.82548809 1.1139455e-38
0.40455356 0.016763391 0.81745672 9.1129592e-39
0.35484281 0.066220924 0.83300924 1.0034906e-38
0.3783907 0.05928826 0.81312764 1.0495528e-38
0.40133771 0.053331707 0.80394137 1.2428763e-38
0.1120177 0.11896764 0.81114304 1.4542792e-38
0.14390452 0.11513079 0.80921274 1.4914785e-38
0.17917232 0.11470853 0.81283414 1.5652348e-38
0.20613281 0.11784381 0.82216668 1.5745256e-38
0.35287619 0.1000995 0.82921487 8.2860684e-39
0.37445343 0.099368505 0.80642676 7.2740857e-39
0.40000004 0.096761912 0.80000007 1.0869005e-38
0.1093965 0.1221327 0.80700004 1.4546006e-38
0.12206255 0.12050635 0.81633341 1.4915497e-38
0.1917001 0.12165326 0.80371869 1.6942361e-38
0.21792451 0.12975568 0.80720282 1.7217859e-38
0.26209348 0.15148044 0.81539369 1.6020761e-38
0.29455286 0.15723382 0.83146071 1.4362683e-38
0.35316676 0.13270761 0.83367759 8.1917106e-39
0.37755615 0.13987501 0.81472558 6.7191084e-39
0.40372187 0.15112598 0.81123817 7.0897014e-39
0.27597398 0.16209841 0.80244452 1.7035269e-38
0.3046473 0.16827787 0.81287992 1.6298428e-38
0.33986574 0.17833616 0.82262599 1.786684e-38
0.3773838 0.18711165 0.82852662 1.8513294e-38
0.40467608 0.16156083 0.81557155 1.5670345e-38
0.35493326 0.20351227 0.80502862 2.0356126e-38
0.38304549 0.20985657 0.81275892 1.924978e-38
0.40774682 0.21355581 0.82382858 1.8973192e-38
0.075924926 0.34319004 0.80305558 7.73181e-39
0.3878206 -0.048690062 0.86739373 3.1317774e-39
0.4132221 -0.055620063 0.85290474 3.8682578e-39
0.35684454 -0.0050683804 0.87626684 8.3743026e-39
0.37933466 -0.020682905 0.85927182 3.7764237e-39
0.40881962 -0.03457104 0.84404004 6.4461271e-39
0.35068795 0.026128292 0.86506891 1.1231285e-38
0.3667787 0.012203177 0.85112798 7.0889756e-39
0.34181422 0.059263319 0.85895705 1.0587355e-38
0.31703055 0.11220628 0.87285471 1.2152513e-38
0.33362225 0.099849589 0.85704583 1.1047247e-38
0.23861906 0.1338581 0.87300003 1.3441818e-38
0.26361984 0.13963073 0.86396509 1.3626204e-38
0.30304626 0.14013134 0.85853738 1.2613131e-38
0.33612797 0.14069833 0.84509778 1.1139081e-38
0.36647773 0.15685263 0.84192306 1.0677021e-38
0.35555863 0.16608824 0.84184194 1.5009852e-38
0.38015243 0.17585194 0.84735602 1.7406582e-38
0.41599339 0.1953108 0.86354542 1.777429e-38
0.42405295 0.20361534 0.85486674 1.7406589e-38
0.44150859 0.2015219 0.87800002 1.6760148e-38
0.35642982 -0.043917332 0.90066683 3.6835148e-39
0.37909776 -0.052377019 0.88872021 3.1321361e-39
0.34965575 -0.01901263 0.89481783 6.4439691e-39
0.36424479 -0.03231268 0.88409078 3.0402978e-39
0.33712178 0.017863391 0.8905921 1.0585921e-38
0.31899542 0.076133206 0.91466665 9.3952984e-39
0.32693312 0.059419811 0.89697152 1.0957938e-38
0.23005907 0.11887812 0.89800006 1.5939423e-38
0.27600205 0.11924804 0.9158572 1.298016e-38
0.30688983 0.10438311 0.9001323 1.2153237e-38
0.32195479 0.085587509 0.88592494 1.2337266e-38
0.23229329 0.12505843 0.89323944 1.3349267e-38
0.26139972 0.12681907 0.89232206 1.3258862e-38
0.29286474 0.12489425 0.88796538 1.2889355e-38
0.42731559 0.19155279 0.88797319 1.7405862e-38
0.44985628 0.19396804 0.90614951 1.5655587e-38
0.4425143 0.20030476 0.88000005 1.6668312e-38
0.34712905 -0.033113811 0.921 3.7764251e-39
0.32734942 0.030147817 0.92773652 4.7876917e-39
0.32549629 0.043856557 0.92815405 4.6929752e-39
0.2777524 0.11828572 0.92000002 1.5008831e-38
0.25532299 0.2308867 0.70980614 1.6023645e-38
0.010292977 0.23409815 0.6901834 1.105194e-38
-0.096115939 0.22459559 0.70765758 1.1972461e-38
