# .PCD v0.7 - Point Cloud Data file format
VERSION 0.7
FIELDS x y z rgb
SIZE 4 4 4 4
TYPE F F F F
COUNT 1 1 1 1
WIDTH 278
HEIGHT 1
VIEWPOINT 0 0 0 1 0 0 0
POINTS 278
DATA ascii
-0.16232052 -0.021204077 0.51765174 1.2439943e-38
-0.15485528 -0.022922741 0.51752543 3.871897e-39
-0.24799262 0.19258331 0.51613897 9.3085188e-39
-0.31463742 0.2308812 0.51805884 9.8620443e-39
-0.16124578 -0.087001018 0.54874372 6.4627423e-39
-0.14598389 -0.08916764 0.54978681 1.0799915e-38
-0.16312228 -0.058888808 0.5564059 5.7251786e-39
-0.14865139 -0.062275145 0.55364871 7.3890468e-39
-0.10885058 -0.042488318 0.54252332 5.3466907e-39
-0.16433686 -0.0082692299 0.54803634 5.8173757e-39
-0.1399821 -0.019229889 0.54271275 6.2790895e-39
-0.10919497 -0.02770666 0.54201394 6.913994e-39
-0.17294669 0.023975136 0.5525682 8.8435848e-39
-0.13880351 0.020778643 0.54092163 5.6286642e-39
-0.1044731 0.025492279 0.54847151 5.8112534e-39
-0.16557363 0.064174436 0.55717874 1.0128903e-38
-0.13704515 0.057375997 0.54606956 9.2134715e-39
-0.11644004 0.063794054 0.55466682 8.8674279e-39
-0.12843058 0.091555983 0.55359358 7.8391817e-39
-0.11558805 0.089553811 0.55501759 9.0496415e-39
-0.30121526 0.14045313 0.54472756 1.2441377e-38
-0.32245478 0.18525401 0.53717464 9.1237618e-39
-0.29875129 0.18604654 0.54121214 1.0045003e-38
-0.26910728 0.19476597 0.55036229 1.0228676e-38
-0.32593417 0.20445947 0.54169232 7.9291759e-39
-0.29673851 0.21878202 0.5356952 9.5843854e-39
-0.26085407 0.20747602 0.53045529 8.1103414e-39
-0.29253492 0.24097739 0.53411555 9.6762167e-39
-0.16874141 -0.058489475 0.56093872 6.6453399e-39
-0.1399018 -0.054863628 0.56316578 1.3749814e-38
-0.1806801 -0.0026421489 0.5640403 1.0315476e-38
-0.12468234 -0.010529024 0.56243181 8.20943e-39
-0.11581056 -0.0059766825 0.56203228 9.5689305e-39
-0.20512396 0.022851579 0.58640021 1.0587726e-38
-0.18741398 0.014771157 0.56956869 8.5637511e-39
-0.1228324 0.0065296274 0.56323302 8.6819478e-39
-0.11528217 0.0058188825 0.56512606 1.0588845e-38
-0.20225044 0.053711608 0.57745469 1.0586291e-38
-0.18622863 0.060848735 0.57602203 9.5764513e-39
-0.11537579 0.044865105 0.56133342 9.5984951e-39
-0.16999336 0.094260007 0.58370137 1.0680995e-38
-0.14531454 0.10479785 0.5808847 9.7651796e-39
-0.11774641 0.104701 0.56225932 9.2329482e-39
-0.15288746 0.12149108 0.59426326 9.3898936e-39
-0.25543669 0.19482017 0.56401289 1.1979314e-38
-0.23499939 0.19862276 0.57671887 1.2533225e-38
-0.28141683 0.2094029 0.56431252 9.401076e-39
-0.25306103 0.21773528 0.57199925 9.3074426e-39
-0.22716478 0.22120857 0.58487499 9.8602591e-39
-0.24251497 0.24357739 0.58699995 8.1985755e-39
-0.2289909 0.24180618 0.58758336 7.3702596e-39
-0.20009336 0.077400014 0.60200012 1.4369518e-38
-0.18468153 0.056926172 0.60584849 6.9042228e-39
-0.12846774 0.065653473 0.60849303 1.0594946e-38
-0.10829459 0.062800817 0.61622524 1.7041067e-38
-0.16290286 0.080700569 0.6044001 1.5746685e-38
-0.13212097 0.10012732 0.60593748 1.3547734e-38
-0.11018345 0.099462979 0.62126434 1.842003e-38
-0.13210048 0.141286 0.62002629 1.1233817e-38
-0.11383285 0.13701035 0.63081592 1.6945978e-38
-0.13138787 0.16666557 0.63550323 9.2991483e-39
-0.11757065 0.164279 0.63737506 1.3167401e-38
-0.21485716 0.236 0.60000002 1.0056522e-38
-0.099228859 0.11323008 0.64466667 1.8236358e-38
-0.099260241 0.14319205 0.65474302 1.7682098e-38
-0.13233458 0.18577094 0.64754122 7.9172943e-39
-0.10115438 0.18005475 0.65866494 1.5102427e-38
-0.13037284 0.21783404 0.66624206 7.4566777e-39
-0.101423 0.21918456 0.66840541 1.1049063e-38
0.19753774 0.23872025 0.67700011 1.2061395e-38
0.22162905 0.23770484 0.6767841 1.3351775e-38
0.25009385 0.23793057 0.67685723 1.6300597e-38
-0.12400077 0.2433888 0.67703849 7.3644806e-39
-0.10511296 0.24602972 0.67662358 8.1009667e-39
0.15621842 0.27505437 0.67610312 1.0127096e-38
0.18231867 0.2621415 0.66259682 1.0218211e-38
0.21974345 0.25848335 0.65300447 1.2153602e-38
0.25868967 0.25976014 0.65909398 1.7408391e-38
0.29024094 0.26803231 0.66986477 2.0544847e-38
0.15361725 0.29096866 0.67388064 8.836717e-39
0.17750473 0.28676915 0.65561962 8.3761032e-39
0.21910907 0.28427196 0.64227527 9.5750065e-39
0.26126689 0.28581637 0.64908695 1.5104218e-38
0.30106813 0.29057389 0.66834128 1.8238148e-38
0.32178769 0.30001378 0.67868423 1.5747431e-38
-0.08419048 0.15866667 0.68000001 1.3994663e-38
-0.082742423 0.18262587 0.68423247 1.7128923e-38
-0.076099999 0.18992095 0.69484514 1.6299521e-38
-0.13916348 0.23566847 0.6822353 7.9162209e-39
-0.082154647 0.22112103 0.68221331 1.5379012e-38
-0.070305116 0.2206182 0.70013684 1.6023297e-38
0.15654367 0.23693277 0.71736652 1.1600774e-38
0.18385616 0.22999896 0.70513207 1.1968841e-38
0.21963365 0.22420399 0.70016426 1.344289e-38
0.25875935 0.2263248 0.70001316 1.6761571e-38
0.29202664 0.2326778 0.70984995 1.9620002e-38
-0.12972425 0.25751328 0.68887919 7.7329058e-39
-0.097101286 0.26336762 0.68782812 8.377192e-39
-0.067129165 0.25950488 0.70414025 1.2337999e-38
0.14569935 0.26285848 0.701711 1.1047606e-38
0.17006692 0.24695066 0.69128352 1.1416024e-38
0.2756303 0.24307595 0.68275005 1.9251216e-38
0.30386543 0.25543103 0.6942451 2.0728153e-38
0.33204493 0.26840225 0.70825005 2.0176062e-38
-0.12258546 0.29066154 0.70994747 8.377548e-39
-0.097996689 0.29434168 0.707214 6.6272771e-39
-0.069753408 0.29134107 0.71254516 8.2842761e-39
0.1155151 0.3057023 0.71401191 8.9278365e-39
0.1328669 0.29424396 0.69578296 9.296619e-39
0.31771016 0.28340131 0.68309098 2.072743e-38
0.33796898 0.29279676 0.69395059 1.7961924e-38
0.10940857 0.32070667 0.71800005 8.2828244e-39
0.14892279 0.19134425 0.75302565 1.2704613e-38
0.18069652 0.18770309 0.7475878 1.3809878e-38
0.21948406 0.18799949 0.74515539 1.5008059e-38
0.2567898 0.19248773 0.74904364 1.7680649e-38
0.28552854 0.19867121 0.75555009 1.8602963e-38
-0.054956652 0.23120867 0.73524827 1.3810958e-38
0.032349575 0.2366533 0.75729811 1.0771745e-38
0.063704155 0.23353079 0.75608474 1.0955776e-38
0.09026859 0.23343292 0.75632 1.0127097e-38
0.14107414 0.22111692 0.73947209 1.1416391e-38
0.17713004 0.21146433 0.72829705 1.2705329e-38
0.21938376 0.20564529 0.7256673 1.4086822e-38
0.26150474 0.20769899 0.72955996 1.7312946e-38
0.30088595 0.21677709 0.73873127 1.934233e-38
0.33699107 0.22887622 0.7472921 1.9896233e-38
0.36825812 0.23582351 0.75570512 1.8698764e-38
-0.047798682 0.25957629 0.73263097 1.2613857e-38
-0.018444009 0.26966301 0.75383025 9.204422e-39
0.020740213 0.26059115 0.75456625 9.2969777e-39
0.060024742 0.25957614 0.75411123 8.7441641e-39
0.1057362 0.2619862 0.7499274 8.4682961e-39
0.12977441 0.25484422 0.73072439 1.0127093e-38
0.31809205 0.2425175 0.72137511 2.1186608e-38
0.3449167 0.25463101 0.73007762 1.8976436e-38
0.36681148 0.25470102 0.74166948 1.6948491e-38
-0.097750545 0.31500524 0.72371811 6.6287107e-39
-0.054211892 0.30297801 0.73011333 7.9154894e-39
-0.020239197 0.29954728 0.74782872 7.8225735e-39
0.018178834 0.29731876 0.7525695 7.4537882e-39
0.052015245 0.28792712 0.75576735 6.7165805e-39
0.10453685 0.30065814 0.73843598 8.5594113e-39
0.12111001 0.28204259 0.72090018 1.0218926e-38
-0.093713433 0.32421941 0.73018187 6.8116684e-39
-0.056674618 0.32601377 0.73879462 5.7042418e-39
-0.020108238 0.32811365 0.74986494 6.0719398e-39
0.0075996872 0.32435793 0.75549996 5.3358096e-39
0.093466826 0.32627335 0.7432704 7.1779188e-39
0.38616318 -0.0056876936 0.78972816 5.3430291e-39
0.38439041 0.027713621 0.79438627 1.1324211e-38
0.35715586 0.069510736 0.7974565 9.7586831e-39
0.37672487 0.06032306 0.79023951 1.0681361e-38
0.35693273 0.096845843 0.79717362 6.629075e-39
0.37559128 0.099637136 0.78800303 6.8152711e-39
0.11013434 0.15525594 0.79546726 1.3533292e-38
0.14155006 0.14948334 0.78810126 1.4178301e-38
0.17906848 0.14900632 0.7849018 1.574526e-38
0.21671022 0.15309958 0.78761387 1.6297716e-38
0.24760191 0.15706238 0.79493028 1.6297716e-38
0.35947999 0.12084001 0.79800004 5.6167223e-39
0.38205296 0.12870555 0.79389006 5.1571917e-39
0.026707508 0.19458166 0.78962171 1.3440739e-38
0.061726041 0.18722969 0.7842828 1.3625489e-38
0.10047233 0.18019764 0.78244621 1.2612418e-38
0.13705945 0.17596619 0.76966494 1.279681e-38
0.17917706 0.16799563 0.7658487 1.4546365e-38
0.2207745 0.16812438 0.76828128 1.6020773e-38
0.26095673 0.1741171 0.77806431 1.731151e-38
0.29835084 0.18542007 0.78065169 1.7866483e-38
0.33172971 0.19368479 0.79079318 1.9987701e-38
-0.045431286 0.23577511 0.79292309 1.113945e-38
-0.016986789 0.22669332 0.78192842 1.1597907e-38
0.019006237 0.218721 0.77090377 1.1691183e-38
0.058448374 0.21429743 0.76434916 1.2244717e-38
0.10176723 0.21785848 0.76615649 1.0218571e-38
0.12388322 0.20927286 0.7644946 1.0034539e-38
0.31228444 0.20325069 0.76316369 1.8696245e-38
0.34310859 0.21044037 0.77330226 1.9617485e-38
0.37631527 0.21967286 0.78033197 1.8974273e-38
0.4000181 0.21632859 0.79700005 1.8143793e-38
-0.044300985 0.24711695 0.77909636 9.2026213e-39
-0.02188646 0.25110802 0.76467282 9.7561538e-39
0.004895987 0.24446681 0.76040483 1.0033101e-38
0.077447623 0.27721906 0.76000005 7.1750433e-39
0.10100451 0.26013261 0.763556 6.4410754e-39
0.032495618 0.3142634 0.76174641 5.6106001e-39
0.062941611 0.30382159 0.76731694 4.7826387e-39
0.090272561 0.29806167 0.76832879 4.8755532e-39
-0.0029 0.33828977 0.76162505 4.2301936e-39
0.020697052 0.33212283 0.76774502 3.2189199e-39
0.068228982 0.33312798 0.78243786 3.4036671e-39
0.082266226 0.32849273 0.7636562 5.6131098e-39
0.3920486 -0.080319047 0.83500004 3.962617e-39
0.4127124 -0.08112476 0.82700002 4.2413633e-39
0.38558474 -0.0558814 0.8284415 4.2370375e-39
0.40577188 -0.061637033 0.82169586 4.051933e-39
0.35319376 -0.0090750698 0.83158678 5.3426634e-39
0.37846953 -0.021557609 0.81765664 7.1829704e-39
0.40215385 -0.030876676 0.80795473 1.0865385e-38
0.34685355 0.021762988 0.8238014 9.4831767e-39
0.37396243 0.015268764 0.80644619 1.0127466e-38
0.40093356 0.014131667 0.80225003 8.1135798e-39
0.34099647 0.060184997 0.81799012 9.4831725e-39
0.36227238 0.0459923 0.80114257 1.0128183e-38
0.14436702 0.11509155 0.82770753 1.5008058e-38
0.17536578 0.11473218 0.83014292 1.5469398e-38
0.3386808 0.10025812 0.8189584 7.9172859e-39
0.070612244 0.15403032 0.82630229 1.4087182e-38
0.10060673 0.14233017 0.81592393 1.3994988e-38
0.13799353 0.12958156 0.80939466 1.4824385e-38
0.18062566 0.12899755 0.81132907 1.6390627e-38
0.2189807 0.13999975 0.81462705 1.5837094e-38
0.26050648 0.15049946 0.81906551 1.4732184e-38
0.30415177 0.14788641 0.83118981 1.2890077e-38
0.3400628 0.13861765 0.82735687 1.021857e-38
0.37411192 0.14280346 0.81044841 8.6548523e-39
0.40105665 0.14454822 0.80072737 1.2905593e-38
0.024468064 0.18590052 0.81021655 1.3902796e-38
0.057210442 0.16893804 0.81433684 1.4086463e-38
0.083821356 0.1621688 0.8025834 1.3441817e-38
0.27350309 0.16211005 0.80270576 1.5931086e-38
0.30275175 0.16645657 0.80912846 1.6392071e-38
0.34217849 0.17720254 0.81717402 1.8605845e-38
0.37598485 0.18611518 0.82508415 1.8882075e-38
0.40863943 0.19617942 0.83132255 1.8328544e-38
-0.053416703 0.23726729 0.80384624 1.0678488e-38
-0.0089881681 0.20736681 0.80133337 1.3074839e-38
0.0012698413 0.2008889 0.80000007 1.316559e-38
0.35854381 0.20063144 0.801 1.8881351e-38
0.38546059 0.20512612 0.80478597 1.8974272e-38
0.40605372 0.20665067 0.81494135 1.8328543e-38
-0.055897143 0.2412 0.80400002 1.0400092e-38
0.06711413 0.35104927 0.80200005 2.3923976e-39
0.35874099 -0.082177147 0.87600005 3.0417355e-39
0.38071322 -0.08457949 0.8615461 3.9622555e-39
0.40120828 -0.086821586 0.84933341 4.9764172e-39
0.34965473 -0.05462433 0.8630228 3.0399391e-39
0.3691254 -0.064229518 0.85125202 3.1324934e-39
0.3179718 -0.012342907 0.87585002 1.0584487e-38
0.33932328 -0.020703863 0.85892361 6.0766229e-39
0.36169526 -0.031475514 0.84128577 3.7760566e-39
0.31312954 0.022164622 0.8674472 1.141496e-38
0.32981512 0.017395802 0.85699242 1.0770311e-38
0.3149516 0.063699216 0.8643766 1.1692979e-38
0.32337233 0.055518765 0.84783494 1.0312206e-38
0.11839487 0.11904021 0.8434 1.4543854e-38
0.13341716 0.11436954 0.84371424 1.4454894e-38
0.16603599 0.10828286 0.84219998 1.4454883e-38
0.30770048 0.10224455 0.85850865 1.1784812e-38
0.32121512 0.096979491 0.84258318 1.0402602e-38
0.071021564 0.14746907 0.84521431 1.3993194e-38
0.098610774 0.13124301 0.84857309 1.4270503e-38
0.23314855 0.13499148 0.86561108 1.3535449e-38
0.262436 0.13536984 0.86053711 1.3167026e-38
0.29556483 0.13162784 0.85217202 1.2061756e-38
0.37890029 0.15739366 0.84303218 1.5656656e-38
0.3867248 0.17126596 0.84775031 1.980331e-38
0.41541123 0.18680795 0.8600058 1.7775369e-38
0.35954288 -0.084647626 0.88000005 3.3176049e-39
0.33503926 -0.050845902 0.88993126 3.5005543e-39
0.31341881 -0.007961601 0.88199997 1.0309333e-38
0.32632023 -0.032961823 0.89131349 3.7757034e-39
0.31009993 0.021678092 0.90074378 7.6428668e-39
0.30845356 0.058032416 0.89133126 1.0866824e-38
0.2238775 0.11825548 0.90299994 1.3813141e-38
0.26675889 0.11602085 0.90435535 1.2798611e-38
0.29280752 0.099817462 0.89331096 1.2062478e-38
0.22381262 0.12577826 0.89097041 1.3443253e-38
0.25734961 0.12423808 0.88817924 1.3259939e-38
0.43082044 0.18178868 0.89682448 1.7038523e-38
0.44528461 0.18545796 0.89659721 1.5747787e-38
0.30666667 0.028476192 0.92000002 1.020778e-38
0.43459046 0.17611428 0.92000002 1.704503e-38
-0.002032131 0.19998187 0.63974947 1.2895495e-38
-0.29253492 0.24097739 0.53411555 9.6762167e-39
0.37559128 0.099637136 0.78800303 6.8152711e-39
-0.11835527 0.077437058 0.60216558 1.1148122e-38
