# .PCD v0.7 - Point Cloud Data file format
VERSION 0.7
FIELDS x y z rgb
SIZE 4 4 4 4
TYPE F F F F
COUNT 1 1 1 1
WIDTH 244
HEIGHT 1
VIEWPOINT 0 0 0 1 0 0 0
POINTS 244
DATA ascii
-0.0012698215 -0.0054500597 0.50787503 8.0304183e-39
0.011705253 -0.021708142 0.50971633 9.2322293e-39
-0.0017674905 0.0074762548 0.50423712 7.5647598e-39
0.0047818874 0.011337466 0.50216246 1.0791614e-38
-0.011287455 -0.04935855 0.5582068 5.819919e-39
0.0097081764 -0.043034099 0.52860367 1.0063068e-38
-0.01018648 -0.029814407 0.55499953 4.6210017e-39
0.010776009 -0.037053175 0.52235711 9.602095e-39
-0.017831113 -0.080507301 0.5673334 1.8363502e-38
-0.01591474 -0.059747998 0.56403702 7.8428055e-39
0.024730889 -0.056453757 0.57247049 8.582897e-39
0.04142474 -0.054111302 0.57652766 1.8438773e-38
-0.082918242 -0.0017834015 0.59571439 1.3348214e-38
-0.05568352 -0.012028 0.5836643 1.1140904e-38
-0.024233034 -0.017739072 0.57018709 5.8141247e-39
0.031499878 -0.038462419 0.57426673 1.6231868e-38
-0.08427038 0.010193693 0.59602451 1.3166319e-38
-0.060280021 0.020151721 0.57926911 1.0863227e-38
-0.020948982 0.020562509 0.56954694 1.1603308e-38
0.0029330109 0.033869728 0.5734576 2.0081008e-38
-0.081733383 0.056529149 0.59132254 1.2798255e-38
-0.058751073 0.059373461 0.57744169 1.1784102e-38
-0.028679892 0.055455331 0.57372606 1.5560161e-38
0.00054380955 0.041329525 0.57100004 2.0727434e-38
-0.050473716 0.096017785 0.58468086 1.0126022e-38
-0.026954077 0.099776931 0.59014505 1.6206619e-38
-0.042215239 0.12037048 0.59900004 7.6403389e-39
-0.033388402 0.12170285 0.59853578 1.0126745e-38
-0.043030974 -0.088129982 0.60904551 1.5203295e-38
-0.031052511 -0.089206956 0.60467941 6.5466604e-39
0.011304694 -0.083924331 0.62384182 8.9437468e-39
-0.043742377 -0.060678091 0.60924357 1.4466462e-38
-0.035264384 -0.068025626 0.60859752 6.2780007e-39
0.01007014 -0.071626127 0.62040395 5.9121175e-39
-0.051573943 -0.032114852 0.60642302 1.0954717e-38
-0.085644811 0.029454013 0.60487497 1.2981562e-38
-0.078780249 0.02867629 0.60147375 1.0033102e-38
-0.087085195 0.044936232 0.61038458 1.4270852e-38
-0.015630914 0.065005735 0.6170212 1.5375767e-38
0.003592087 0.064783655 0.62691581 2.0913284e-38
-0.04862 0.11817542 0.6006 7.8243854e-39
-0.0096678212 0.091832906 0.61101907 2.0903905e-38
0.0023426865 0.085263968 0.62633342 1.9996008e-38
-0.048403736 0.14196347 0.6179713 8.7445284e-39
-0.025478028 0.14102894 0.61525041 1.4180832e-38
-0.048858117 0.18035233 0.63017219 7.7314583e-39
-0.028300676 0.17867576 0.62891471 1.1969941e-38
-0.046650823 0.20669867 0.63760012 7.0868119e-39
-0.032036085 0.20720531 0.63691765 9.8505214e-39
-0.058651909 0.15945858 0.6415 9.3005847e-39
-0.062551737 0.19070402 0.64589244 8.9307217e-39
-0.01328002 0.18444729 0.6440624 1.7405514e-38
-0.059336666 0.22341205 0.6500743 7.6399843e-39
-0.018683037 0.22230783 0.65103644 1.3719854e-38
0.00063523813 0.22042763 0.66700006 1.5470472e-38
-0.080833331 0.2584511 0.67900008 8.3775438e-39
-0.057909869 0.25957689 0.65868479 7.3630373e-39
-0.020082034 0.25968009 0.65854853 1.1139818e-38
0.00096885714 0.26341143 0.67820007 1.4547813e-38
0.15920934 0.2776787 0.67900002 1.0216768e-38
0.18428202 0.26632145 0.66666853 1.0217492e-38
0.21969689 0.26102084 0.65929174 1.224472e-38
0.25789395 0.26371804 0.66446644 1.7684259e-38
0.28761199 0.27065822 0.67353076 2.0913271e-38
-0.055403806 0.28989509 0.66816694 6.533641e-39
-0.021059548 0.29002249 0.66850799 8.56014e-39
0.15609035 0.29274172 0.67661166 9.0196748e-39
0.17799225 0.2876237 0.66040564 8.7441669e-39
0.21936324 0.28530738 0.64677924 1.0311494e-38
0.26144177 0.28685403 0.65473741 1.6209851e-38
0.29470605 0.29074144 0.670488 1.9344501e-38
0.18566301 0.23238909 0.71020448 1.1875925e-38
0.22003438 0.2292508 0.70324188 1.3442533e-38
0.25764108 0.23068868 0.70485091 1.6852689e-38
0.28682205 0.23562415 0.71387178 1.9618561e-38
-0.082886681 0.2663154 0.68457377 7.6356964e-39
-0.07886377 0.2694068 0.68114293 7.916937e-39
-0.00064876198 0.25496572 0.68120009 1.5653441e-38
0.0076759732 0.26676285 0.6935063 1.3350343e-38
0.1490144 0.26587132 0.70390385 1.0678104e-38
0.17462371 0.2511498 0.69357491 1.1230917e-38
0.21802405 0.24221317 0.68377441 1.3166663e-38
0.26386374 0.24538203 0.68593365 1.7959401e-38
0.2998822 0.25788212 0.69785756 2.0819271e-38
0.32645255 0.27263114 0.7124244 2.0913267e-38
-0.083087936 0.28766775 0.69202238 8.1877757e-39
-0.07471846 0.29641154 0.68663043 7.2722892e-39
-0.0026313195 0.29698238 0.6832459 1.0125671e-38
0.0081247296 0.29537371 0.69472432 1.0402246e-38
0.11719897 0.31363413 0.71527272 8.2821111e-39
0.13637532 0.29520833 0.69746447 9.2037031e-39
0.31420282 0.29251033 0.68460071 1.9896954e-38
0.33839086 0.29760301 0.70223016 1.8883162e-38
0.36086956 0.29650193 0.71900004 1.9617472e-38
0.11351143 0.32070667 0.71800005 8.0977143e-39
0.077965721 0.19996762 0.75800002 1.3073755e-38
0.080853328 0.19996762 0.75800002 1.3901e-38
0.1509961 0.19225214 0.7539283 1.2612056e-38
0.18042126 0.18917345 0.74896365 1.3901356e-38
0.21905395 0.18991235 0.74790448 1.5560155e-38
0.25280806 0.19438788 0.75194567 1.7956517e-38
0.029055003 0.23199846 0.75351751 1.0859263e-38
0.061991673 0.22443824 0.74877685 1.1875214e-38
0.097956903 0.22134274 0.74922544 1.2612779e-38
0.14355998 0.22250736 0.74157238 1.086214e-38
0.17771716 0.21431179 0.72968149 1.2612774e-38
0.2198282 0.20898685 0.72842121 1.454708e-38
0.26103953 0.21123728 0.73375779 1.7772846e-38
0.29905456 0.22350052 0.73993373 1.9894426e-38
0.33112049 0.23232146 0.7518028 2.035613e-38
0.023569386 0.25892764 0.74199605 9.477769e-39
0.059674364 0.2596671 0.7363528 9.5721241e-39
0.099389739 0.25970867 0.74268204 8.2824671e-39
0.13280983 0.25695175 0.73533052 8.8356394e-39
0.31354821 0.24539456 0.72494745 2.10033e-38
0.34248325 0.2584435 0.73765987 1.9713283e-38
0.36846977 0.26213446 0.74846464 1.6763741e-38
0.028008658 0.30034372 0.72600138 7.6367431e-39
0.059206527 0.29951355 0.73308289 7.3601534e-39
0.10268353 0.30007803 0.74078661 6.2556065e-39
0.12303182 0.28780454 0.72564304 9.2029828e-39
0.35322091 0.28570712 0.72430706 1.8146674e-38
0.3634139 0.28620422 0.72858059 1.6486433e-38
0.028180858 0.32168502 0.7229591 6.8076999e-39
0.0597478 0.32518122 0.73787063 5.4262088e-39
0.094952837 0.32629436 0.74417776 5.7035146e-39
0.39075908 0.033431534 0.79742885 1.206034e-38
0.35868898 0.073304318 0.7978422 9.3909824e-39
0.37991825 0.061492294 0.79380345 1.1233456e-38
0.35740626 0.085534863 0.7970401 7.9180103e-39
0.37860385 0.099591404 0.7930153 7.1833348e-39
0.11462396 0.15854517 0.79652643 1.3348901e-38
0.14391257 0.15297195 0.79116708 1.4085028e-38
0.17938186 0.15120339 0.78788364 1.5467597e-38
0.21558236 0.15470426 0.78967845 1.6389553e-38
0.24233937 0.15877366 0.79766673 1.6389909e-38
0.38224545 0.12804 0.79368103 4.9720816e-39
0.035598274 0.19739375 0.79242873 1.3348541e-38
0.063400462 0.19031194 0.78155714 1.3716966e-38
0.10084106 0.18175915 0.77869976 1.38088e-38
0.13778444 0.17699845 0.77311355 1.2612059e-38
0.17952518 0.1691402 0.76789314 1.4730037e-38
0.22085281 0.16997391 0.77081388 1.629664e-38
0.26049063 0.17843932 0.77799815 1.777141e-38
0.29676613 0.18942514 0.78538066 1.8233827e-38
0.32585433 0.19648407 0.79443258 2.0170293e-38
-0.00072603178 0.23741367 0.76233339 1.3161617e-38
0.019956933 0.21888071 0.77466059 1.1966329e-38
0.053803004 0.20597076 0.76426053 1.2795373e-38
0.10963565 0.20471705 0.76157582 1.3164868e-38
0.12692469 0.21116558 0.76337487 8.7423634e-39
0.27866668 0.20049526 0.76000005 1.9339805e-38
0.30538493 0.20642529 0.76779002 1.9247978e-38
0.34139758 0.21759097 0.77568495 2.0078101e-38
0.37646514 0.22824767 0.78370404 1.9157586e-38
0.40052003 0.22724001 0.79800004 1.8143434e-38
0.0021719048 0.24257155 0.7603001 1.0303221e-38
0.35811746 0.24148034 0.76066673 1.9067545e-38
0.37529442 0.24436457 0.76546395 1.8513657e-38
0.0904762 0.31920004 0.76000005 2.1147345e-39
0.07751146 0.34041455 0.77062064 2.4820765e-39
0.083659984 0.33247894 0.76327902 2.6664664e-39
0.38939664 -0.052048258 0.83416033 4.2359585e-39
0.40710172 -0.059545815 0.82868958 3.5923954e-39
0.35528657 -0.0060758982 0.83412844 4.8816922e-39
0.38086349 -0.018841624 0.82250559 6.9067465e-39
0.40316758 -0.026644269 0.81363046 9.7594034e-39
0.34987918 0.022800673 0.82605112 9.6672078e-39
0.37588522 0.019586828 0.80928648 1.0218581e-38
0.40041146 0.0205727 0.80133337 8.7452613e-39
0.34380263 0.060971819 0.81832379 9.7590377e-39
0.36581457 0.047796335 0.80311346 1.0587362e-38
0.15051322 0.11705624 0.83594745 1.4823309e-38
0.17195466 0.1168604 0.8353737 1.5284645e-38
0.34133846 0.10019446 0.81762469 7.7328974e-39
0.36200202 0.1097629 0.79999959 5.4319737e-39
0.075867213 0.15641174 0.83120006 1.3625488e-38
0.10275199 0.14704433 0.81853777 1.3717323e-38
0.13856807 0.1342666 0.81585616 1.4454887e-38
0.17982221 0.13152111 0.81520414 1.5929291e-38
0.21835887 0.14149942 0.81754428 1.5836735e-38
0.25737211 0.15316004 0.82064891 1.5099888e-38
0.29700983 0.15778993 0.83374196 1.3534007e-38
0.34300825 0.13875464 0.82868177 9.0207496e-39
0.37549302 0.14272784 0.80885518 6.996417e-39
0.40113401 0.14697756 0.80453342 9.3070713e-39
0.033717312 0.19342725 0.81167877 1.3627293e-38
0.060915388 0.17538784 0.81751591 1.380988e-38
0.087860398 0.16454652 0.80496955 1.3716965e-38
0.26895425 0.16384584 0.80617899 1.6482102e-38
0.30294949 0.17086758 0.81443763 1.639135e-38
0.34025741 0.1807027 0.82393962 1.8604408e-38
0.3741819 0.19111194 0.82978326 1.8973192e-38
0.013386336 0.21089941 0.80173916 1.2982641e-38
0.35268432 0.20414475 0.80465621 1.9341617e-38
0.38259989 0.20996422 0.81181759 1.8973193e-38
0.40780792 0.21095665 0.82413417 1.8051238e-38
0.38817567 -0.083706625 0.86817652 4.0537393e-39
0.415539 -0.083198465 0.84927601 5.0678898e-39
0.35194466 -0.050948512 0.86690998 2.9477434e-39
0.37534431 -0.061991286 0.85378164 3.2239716e-39
0.41114524 -0.07784088 0.84661555 4.3317583e-39
0.34328747 -0.019273201 0.8606115 5.0639171e-39
0.36235598 -0.031127509 0.8419767 3.3154413e-39
0.31330806 0.027160006 0.87243754 1.169011e-38
0.3331838 0.018055566 0.85920703 9.9423485e-39
0.31567559 0.063359648 0.86771184 1.1692261e-38
0.32531416 0.057283308 0.84952003 1.0127816e-38
0.13997608 0.11514197 0.85150498 1.4454888e-38
0.17821983 0.1134246 0.84398496 1.47322e-38
0.31004593 0.10142282 0.86205131 1.1692256e-38
0.32239756 0.099111386 0.84427303 9.6661134e-39
0.072518818 0.1556924 0.84850013 1.380988e-38
0.10158947 0.13366146 0.84819221 1.3994269e-38
0.12479827 0.12185748 0.84495652 1.4455247e-38
0.23372194 0.13945322 0.86760008 1.3995707e-38
0.26326203 0.14087622 0.86359996 1.307411e-38
0.30072904 0.13788547 0.85317701 1.1876645e-38
0.32773006 0.137556 0.84142977 1.095469e-38
0.37348405 0.15769193 0.84299982 1.1688655e-38
0.065744206 0.16228881 0.84708327 1.3533299e-38
0.35443357 0.16351566 0.84099972 1.5655592e-38
0.38111681 0.17598388 0.8486619 1.9066103e-38
0.41765517 0.19564255 0.86287761 1.7405869e-38
0.44083336 0.19666667 0.87500006 1.6760854e-38
0.41982231 0.20187214 0.84824562 1.7682817e-38
0.33646467 -0.043700505 0.88867515 3.4076398e-39
0.31485537 -0.0056456388 0.88264012 1.0492284e-38
0.32845864 -0.026538616 0.89131242 4.8798888e-39
0.31133988 0.019432187 0.89726865 8.2875145e-39
0.32501337 0.012990479 0.88000005 9.5717752e-39
0.30890849 0.059013058 0.89349866 1.0589879e-38
0.27359152 0.11811542 0.90734631 1.2337629e-38
0.29520544 0.10231023 0.89733857 1.1969566e-38
0.22821327 0.1290985 0.9000206 1.3350346e-38
0.25914699 0.12720422 0.89435142 1.3258503e-38
0.28517362 0.12275233 0.88529998 1.2613485e-38
0.42370668 0.18854223 0.89097214 1.7497696e-38
0.44696802 0.19051926 0.90269345 1.5562674e-38
0.30782738 0.026972145 0.92350018 6.1637766e-39
0.43897143 0.18662858 0.92000002 1.6203367e-38
0.44335237 0.18356192 0.92000002 1.6120547e-38
-0.012257238 0.10799936 0.89104664 1.3449036e-38
0.29905456 0.22350052 0.73993373 1.9894426e-38
