# .PCD v0.7 - Point Cloud Data file format
VERSION 0.7
FIELDS x y z rgb
SIZE 4 4 4 4
TYPE F F F F
COUNT 1 1 1 1
WIDTH 1013
HEIGHT 1
VIEWPOINT 0 0 0 1 0 0 0
POINTS 1013
DATA ascii
-0.63018513 0.11480309 1.7590003 2.3369359e-38
-0.69383872 0.13760062 1.7267514 2.3369359e-38
-0.66355026 0.14081444 1.7476376 2.3369359e-38
-0.6244179 0.14348635 1.757123 2.3369359e-38
-0.68580508 0.17621495 1.7234613 2.3369359e-38
-0.65763485 0.17899968 1.7318959 2.3369359e-38
-0.61878955 0.18082675 1.7458944 2.3369359e-38
-0.58667582 0.18894143 1.7580004 2.3369359e-38
-0.55785429 0.19767812 1.7590001 2.3369359e-38
-0.64970011 0.21643226 1.7238058 2.3369359e-38
-0.61741823 0.21764591 1.7267947 2.3369359e-38
-0.58143133 0.22112098 1.7497488 2.3369359e-38
-0.5476771 0.22635254 1.758598 2.3369359e-38
-0.64817619 0.24122 1.723 2.3369359e-38
-0.60788792 0.25027359 1.7229997 2.3369359e-38
-0.57867771 0.2584435 1.7324018 2.3369359e-38
-0.54208177 0.26237568 1.7528936 2.3369359e-38
-0.51597333 0.27306384 1.7590001 2.3369359e-38
-0.57218939 0.29274115 1.7243561 2.3369359e-38
-0.54065865 0.29985148 1.7394832 2.3369359e-38
-0.50290978 0.30490008 1.7565397 2.3369359e-38
-0.4754326 0.31460977 1.7590001 2.3369359e-38
-0.56284666 0.32490855 1.723 2.3369359e-38
-0.53145742 0.33840328 1.7301526 2.3369359e-38
-0.49972579 0.34072065 1.7445569 2.3369359e-38
-0.46685073 0.34586927 1.7573433 2.3369359e-38
-0.52872193 0.36797088 1.7236921 2.3369359e-38
-0.49634147 0.37799153 1.7275943 2.3369359e-38
-0.46018052 0.37931824 1.7477623 2.3369359e-38
-0.43165427 0.38824886 1.7559267 2.3369359e-38
-0.49077067 0.41059893 1.7239374 2.3369359e-38
-0.45789468 0.41791502 1.7380403 2.3369359e-38
-0.42586702 0.42189789 1.7500001 2.3369359e-38
-0.36017621 0.42886096 1.7590001 2.3369359e-38
-0.35488895 0.42845798 1.755625 2.3369359e-38
-0.44874632 0.45343575 1.7298644 2.3369359e-38
-0.41985238 0.45980823 1.7420338 2.3369359e-38
-0.3850112 0.46575418 1.7541095 2.3369359e-38
-0.41315985 0.49592349 1.7302719 2.3369359e-38
-0.38429192 0.49911553 1.7441906 2.3369359e-38
-0.40376696 0.52920049 1.7264285 2.3369359e-38
-0.38396999 0.53771216 1.7328188 2.3369359e-38
-0.372168 0.5694105 1.7229998 2.3369359e-38
-0.58971769 0.63259453 1.7320001 2.3369359e-38
-0.60166669 0.64166671 1.7500001 2.3369359e-38
-0.58917654 0.64278829 1.7410001 2.3369359e-38
-0.96171916 -0.41382593 1.6567339 2.3369359e-38
-1.0787095 -0.6855191 1.7950001 2.3369359e-38
-1.0821286 -0.67526191 1.7950001 2.3369359e-38
-1.0821286 -0.61884761 1.7950001 2.3369359e-38
-1.0752906 -0.6030345 1.7950001 2.3369359e-38
-1.0821288 -0.58978575 1.7950001 2.3369359e-38
-1.0720899 -0.57886559 1.7918122 2.3369359e-38
-1.065143 -0.53963149 1.7888054 2.3369359e-38
-1.0539788 -0.5018031 1.7811298 2.3369359e-38
-1.0351062 -0.50010836 1.7918373 2.3369359e-38
-1.0493803 -0.46422088 1.7714052 2.3369359e-38
-1.0266321 -0.45667875 1.7843111 2.3369359e-38
-0.97955722 -0.44504607 1.7950001 2.3369359e-38
-1.0159513 -0.42220986 1.7789826 2.3369359e-38
-0.98347944 -0.41627106 1.7889994 2.3369359e-38
-0.95904291 -0.40515718 1.7950001 2.3369359e-38
-1.0064983 -0.38912651 1.7687502 2.3369359e-38
-0.98274517 -0.38029534 1.7787391 2.3369359e-38
-0.94946229 -0.37601531 1.784988 2.3369359e-38
-0.9715426 -0.3478891 1.7737449 2.3369359e-38
-0.93689162 -0.3400501 1.7787305 2.3369359e-38
-0.90730619 -0.33418185 1.7910525 2.3369359e-38
-0.93016648 -0.30576396 1.7747734 2.3369359e-38
-0.89998817 -0.29785016 1.7853646 2.3369359e-38
-0.87482399 -0.2858246 1.7935002 2.3369359e-38
-0.92104387 -0.2778286 1.7680001 2.3369359e-38
-0.89593667 -0.26247209 1.7738463 2.3369359e-38
-0.87066019 -0.25686345 1.7851818 2.3369359e-38
-0.88334352 -0.2264536 1.7697424 2.3369359e-38
-0.86170262 -0.21884099 1.7829397 2.3369359e-38
-0.83792794 -0.20606656 1.7941 2.3369359e-38
-0.85227811 -0.18241049 1.7714952 2.3369359e-38
-0.82071424 -0.17576857 1.7859989 2.3369359e-38
-0.79766387 -0.16650763 1.7950001 2.3369359e-38
-0.84619856 -0.14792268 1.7680005 2.3369359e-38
-0.81927347 -0.14184591 1.7769996 2.3369359e-38
-0.78546369 -0.13649853 1.7907012 2.3369359e-38
-0.81490171 -0.10308035 1.7706202 2.3369359e-38
-0.78128117 -0.09924531 1.7797868 2.3369359e-38
-0.7519998 -0.08596807 1.7945499 2.3369359e-38
-0.80528194 -0.075350478 1.7679999 2.3369359e-38
-0.76729286 -0.067427605 1.7713751 2.3369359e-38
-0.74339604 -0.058416523 1.7867693 2.3369359e-38
-0.71645331 -0.052832425 1.7950001 2.3369359e-38
-0.76276577 -0.035360001 1.7680001 2.3369359e-38
-0.73768312 -0.022952234 1.7757039 2.3369359e-38
-0.71177864 -0.016631924 1.7914436 2.3369359e-38
-0.7292766 0.0072965091 1.7679998 2.3369359e-38
-0.69871926 0.018546687 1.7810585 2.3369359e-38
-0.65852165 0.027210983 1.7931104 2.3369359e-38
-0.63186383 0.032326713 1.7946085 2.3369359e-38
-0.68818551 0.062197499 1.7686665 2.3369359e-38
-0.66070658 0.061029408 1.7811751 2.3369359e-38
-0.62216258 0.063084438 1.7907505 2.3369359e-38
-0.59662384 0.076928571 1.7950001 2.3369359e-38
-0.68194288 0.085874304 1.7680001 2.3369359e-38
-0.65647787 0.094826244 1.7702 2.3369359e-38
-0.61811405 0.099217594 1.7820582 2.3369359e-38
-0.58366382 0.10539328 1.793517 2.3369359e-38
-0.65247202 0.1294809 1.7685623 2.3369359e-38
-0.60803181 0.13363673 1.7736247 2.3369359e-38
-0.58146709 0.14060795 1.7864136 2.3369359e-38
-0.55074072 0.14968553 1.7943857 2.3369359e-38
-0.60112 0.16332954 1.7680001 2.3369359e-38
-0.57691014 0.17645895 1.7726117 2.3369359e-38
-0.54251122 0.18140787 1.7884238 2.3369359e-38
-0.50718158 0.18879981 1.7949996 2.3369359e-38
-0.53423405 0.21552433 1.7781734 2.3369359e-38
-0.50050098 0.22206062 1.7891233 2.3369359e-38
-0.47500348 0.2317626 1.7950002 2.3369359e-38
-0.52625638 0.25093284 1.7730002 2.3369359e-38
-0.4982602 0.25970566 1.7786294 2.3369359e-38
-0.46531776 0.26401404 1.7906785 2.3369359e-38
-0.43934765 0.2786524 1.7950001 2.3369359e-38
-0.49298209 0.28955394 1.7703878 2.3369359e-38
-0.45987451 0.2994602 1.7804232 2.3369359e-38
-0.4308756 0.30244029 1.7928218 2.3369359e-38
-0.45372131 0.33499625 1.7734938 2.3369359e-38
-0.42314234 0.34276706 1.7861427 2.3369359e-38
-0.39590049 0.35229993 1.7897896 2.3369359e-38
-0.34817302 0.34133491 1.7950001 2.3369359e-38
-0.44284195 0.36201906 1.7680001 2.3369359e-38
-0.41818219 0.37781811 1.7780368 2.3369359e-38
-0.38725835 0.38360417 1.789659 2.3369359e-38
-0.35729051 0.39034128 1.7950001 2.3369359e-38
-0.40800121 0.41734201 1.7723591 2.3369359e-38
-0.3804161 0.41910791 1.7804409 2.3369359e-38
-0.35729128 0.41246411 1.7810911 2.3369359e-38
-0.37792185 0.45163083 1.7712836 2.3369359e-38
-0.3687543 0.48325336 1.7680001 2.3369359e-38
-0.8771925 -0.22767019 1.6488031 2.3369359e-38
-1.0493685 -0.61639631 1.7734594 2.3369359e-38
-1.0781424 -0.69558096 1.8176364 2.3369359e-38
-1.0874468 -0.66402948 1.8213612 2.3369359e-38
-1.0748736 -0.65133464 1.8265486 2.3369359e-38
-1.0837828 -0.62511539 1.8077505 2.3369359e-38
-1.0681992 -0.61784756 1.8222306 2.3369359e-38
-1.0585761 -0.58011401 1.817229 2.3369359e-38
-1.0349702 -0.56978148 1.8282351 2.3369359e-38
-1.0516392 -0.54439914 1.8096173 2.3369359e-38
-1.0250318 -0.53570664 1.8205988 2.3369359e-38
-0.98982 -0.52633297 1.8330001 2.3369359e-38
-1.0434821 -0.485461 1.8140001 2.3369359e-38
-1.0173308 -0.49974915 1.8121467 2.3369359e-38
-0.98441684 -0.49580038 1.8277404 2.3369359e-38
-1.0115631 -0.46508589 1.8090008 2.3369359e-38
-0.9780913 -0.46025199 1.8134401 2.3369359e-38
-0.94363797 -0.45176807 1.8248963 2.3369359e-38
-0.91999143 -0.45912287 1.8330001 2.3369359e-38
-1.0016496 -0.43811432 1.8040001 2.3369359e-38
-0.97172469 -0.42554721 1.8052077 2.3369359e-38
-0.93930238 -0.4195776 1.8136868 2.3369359e-38
-0.91689622 -0.41518602 1.8288685 2.3369359e-38
-0.9324761 -0.38246909 1.8073688 2.3369359e-38
-0.90290368 -0.3782458 1.8226608 2.3369359e-38
-0.9243353 -0.35908195 1.8040001 2.3369359e-38
-0.89340359 -0.34411216 1.8127526 2.3369359e-38
-0.87140816 -0.33331558 1.8272334 2.3369359e-38
-0.88499087 -0.30856994 1.8040005 2.3369359e-38
-0.8608343 -0.29938456 1.8173951 2.3369359e-38
-0.82920283 -0.29269311 1.8328394 2.3369359e-38
-0.85390633 -0.26159385 1.810165 2.3369359e-38
-0.82026362 -0.25793082 1.8247696 2.3369359e-38
-0.79080862 -0.24771686 1.8330001 2.3369359e-38
-0.84559298 -0.2289315 1.8073337 2.3369359e-38
-0.81894767 -0.21971908 1.8102012 2.3369359e-38
-0.78763175 -0.21774562 1.8280305 2.3369359e-38
-0.81746995 -0.19231212 1.8040007 2.3369359e-38
-0.78153032 -0.18054022 1.8194094 2.3369359e-38
-0.75630969 -0.17304954 1.8322501 2.3369359e-38
-0.77046138 -0.14455032 1.8068134 2.3369359e-38
-0.74474728 -0.1382315 1.8260369 2.3369359e-38
-0.71554899 -0.12627333 1.8329999 2.3369359e-38
-0.76979721 -0.11402728 1.8040005 2.3369359e-38
-0.73711747 -0.10224099 1.8104186 2.3369359e-38
-0.70834565 -0.091659285 1.8245 2.3369359e-38
-0.66991788 -0.085976437 1.8330001 2.3369359e-38
-0.73019052 -0.07645525 1.804 2.3369359e-38
-0.70139843 -0.061506879 1.8208026 2.3369359e-38
-0.66104579 -0.056619328 1.8298329 2.3369359e-38
-0.63419312 -0.043144085 1.8330002 2.3369359e-38
-0.69385284 -0.023307819 1.8071965 2.3369359e-38
-0.66081464 -0.020157652 1.8205111 2.3369359e-38
-0.62362999 -0.014405014 1.8306729 2.3369359e-38
-0.59342647 -0.0059354291 1.8330002 2.3369359e-38
-0.6845383 0.010554015 1.8040001 2.3369359e-38
-0.66002566 0.011996366 1.8083426 2.3369359e-38
-0.61807299 0.019622451 1.8206836 2.3369359e-38
-0.58604211 0.023660315 1.8298166 2.3369359e-38
-0.60866928 0.051589083 1.8111432 2.3369359e-38
-0.58019209 0.060681749 1.8248444 2.3369359e-38
-0.54753476 0.064760365 1.8330001 2.3369359e-38
-0.57386386 0.092961319 1.8163757 2.3369359e-38
-0.54187065 0.10176025 1.8266082 2.3369359e-38
-0.51013923 0.10954829 1.8277745 2.3369359e-38
-0.56623518 0.1244392 1.8040001 2.3369359e-38
-0.53571099 0.13757612 1.8100622 2.3369359e-38
-0.49850765 0.14020009 1.8231177 2.3369359e-38
-0.47188452 0.14833371 1.8324002 2.3369359e-38
-0.52511251 0.17259049 1.8040006 2.3369359e-38
-0.49727869 0.17767338 1.8117234 2.3369359e-38
-0.46249974 0.18331569 1.8252025 2.3369359e-38
-0.43817428 0.19552001 1.8330001 2.3369359e-38
-0.49138293 0.20570578 1.804953 2.3369359e-38
-0.46024498 0.21962482 1.8148122 2.3369359e-38
-0.42827144 0.22846884 1.8268945 2.3369359e-38
-0.450436 0.25399464 1.8080012 2.3369359e-38
-0.42027086 0.26057696 1.8210614 2.3369359e-38
-0.39797279 0.26839122 1.8309233 2.3369359e-38
-0.41421214 0.29769582 1.8105384 2.3369359e-38
-0.38782838 0.30478385 1.8256619 2.3369359e-38
-0.35612574 0.30724573 1.8330001 2.3369359e-38
-0.40854502 0.33002198 1.8050816 2.3369359e-38
-0.37924939 0.33921868 1.8161539 2.3369359e-38
-0.35483137 0.33862361 1.8145808 2.3369359e-38
-0.37329027 0.37523764 1.8075452 2.3369359e-38
-0.35781592 0.37676257 1.8106668 2.3369359e-38
-0.95411998 -0.4302482 1.6620255 2.3369359e-38
-0.91378713 -0.36009979 1.6876373 2.3369359e-38
-1.0841495 -0.70225698 1.8464482 2.3369359e-38
-1.0682706 -0.69822556 1.8580964 2.3369359e-38
-1.0864924 -0.67576665 1.8430002 2.3369359e-38
-1.0601634 -0.66003281 1.8558747 2.3369359e-38
-1.0258214 -0.64783293 1.8704516 2.3369359e-38
-1.0515276 -0.62180674 1.8531121 2.3369359e-38
-1.0206552 -0.61974776 1.8679223 2.3369359e-38
-0.99578857 -0.61224562 1.8710958 2.3369359e-38
-1.0500486 -0.59407705 1.8468097 2.3369359e-38
-1.0229048 -0.58104241 1.8529986 2.3369359e-38
-0.98496354 -0.5769586 1.8610002 2.3369359e-38
-0.95790577 -0.56190002 1.8730001 2.3369359e-38
-1.014485 -0.54729432 1.845778 2.3369359e-38
-0.97814399 -0.54164648 1.8508514 2.3369359e-38
-0.95061797 -0.5347591 1.8687356 2.3369359e-38
-1.002241 -0.51077425 1.8430001 2.3369359e-38
-0.96985012 -0.50392783 1.8447247 2.3369359e-38
-0.93914634 -0.49932039 1.8577971 2.3369359e-38
-0.91299218 -0.49199766 1.871065 2.3369359e-38
-0.96128547 -0.47508448 1.8430002 2.3369359e-38
-0.93646109 -0.46700802 1.8470299 2.3369359e-38
-0.90172702 -0.45717871 1.8586496 2.3369359e-38
-0.87716293 -0.44571146 1.8720001 2.3369359e-38
-0.92150003 -0.43529904 1.8430001 2.3369359e-38
-0.89749289 -0.4212836 1.8485969 2.3369359e-38
-0.86153221 -0.41646674 1.8680005 2.3369359e-38
-0.83268243 -0.40492478 1.8730004 2.3369359e-38
-0.88760698 -0.38797915 1.843333 2.3369359e-38
-0.86169368 -0.3805522 1.8545001 2.3369359e-38
-0.83078295 -0.37926832 1.8688979 2.3369359e-38
-0.88288486 -0.35631335 1.8430002 2.3369359e-38
-0.85572934 -0.34262434 1.8466365 2.3369359e-38
-0.82082623 -0.33813766 1.8610314 2.3369359e-38
-0.79405028 -0.32924029 1.8730006 2.3369359e-38
-0.84661001 -0.31389508 1.8430003 2.3369359e-38
-0.81441343 -0.30414572 1.8515437 2.3369359e-38
-0.7853297 -0.29510629 1.8657373 2.3369359e-38
-0.84075904 -0.27557239 1.8430001 2.3369359e-38
-0.80495232 -0.27451923 1.8430003 2.3369359e-38
-0.7792415 -0.26169357 1.8576049 2.3369359e-38
-0.74851555 -0.2489122 1.8726883 2.3369359e-38
-0.76848358 -0.22367956 1.847754 2.3369359e-38
-0.74240983 -0.21817812 1.863304 2.3369359e-38
-0.71188271 -0.20870574 1.8730007 2.3369359e-38
-0.67606384 -0.2015705 1.8730001 2.3369359e-38
-0.76072019 -0.19132096 1.8430001 2.3369359e-38
-0.73775667 -0.18179108 1.8511627 2.3369359e-38
-0.70321208 -0.17845842 1.8707459 2.3369359e-38
-0.67091072 -0.17620082 1.873001 2.3369359e-38
-0.72811127 -0.15015475 1.8439997 2.3369359e-38
-0.7021749 -0.14059818 1.8590163 2.3369359e-38
-0.66368526 -0.13818304 1.8679605 2.3369359e-38
-0.63354963 -0.1284343 1.8730005 2.3369359e-38
-0.69615179 -0.10472926 1.8471382 2.3369359e-38
-0.65860075 -0.10159687 1.8561927 2.3369359e-38
-0.62236971 -0.097079843 1.8693376 2.3369359e-38
-0.59460318 -0.086217463 1.8730005 2.3369359e-38
-0.68454289 -0.075475246 1.8430002 2.3369359e-38
-0.65100574 -0.069666535 1.8463333 2.3369359e-38
-0.6206218 -0.060548019 1.859318 2.3369359e-38
-0.5883683 -0.055008251 1.8698578 2.3369359e-38
-0.55833238 -0.04102762 1.8730001 2.3369359e-38
-0.61328655 -0.029337989 1.8517034 2.3369359e-38
-0.57971305 -0.020006357 1.8614144 2.3369359e-38
-0.54247391 -0.012201861 1.8705648 2.3369359e-38
-0.51445073 -0.0078487629 1.8730004 2.3369359e-38
-0.57155031 0.013673398 1.8536896 2.3369359e-38
-0.54138017 0.019895401 1.8597171 2.3369359e-38
-0.50613207 0.024809737 1.8683758 2.3369359e-38
-0.47984478 0.032108575 1.8730001 2.3369359e-38
-0.53429127 0.055557687 1.8476987 2.3369359e-38
-0.50018859 0.060193159 1.8565487 2.3369359e-38
-0.4725306 0.065758415 1.8689529 2.3369359e-38
-0.52563858 0.087215707 1.8438337 2.3369359e-38
-0.49683195 0.097660892 1.8465141 2.3369359e-38
-0.4604561 0.10095283 1.8614075 2.3369359e-38
-0.43059421 0.10235395 1.8650831 2.3369359e-38
-0.4879562 0.12111144 1.8430001 2.3369359e-38
-0.45780659 0.13840233 1.8537441 2.3369359e-38
-0.42250669 0.14183973 1.8648278 2.3369359e-38
-0.39779487 0.15507257 1.8630002 2.3369359e-38
-0.4473058 0.17105524 1.8436055 2.3369359e-38
-0.42050529 0.18010825 1.857626 2.3369359e-38
-0.39228246 0.1834157 1.8657272 2.3369359e-38
-0.44056478 0.20887332 1.8430001 2.3369359e-38
-0.4154112 0.21650006 1.8488581 2.3369359e-38
-0.38250753 0.22121492 1.8595846 2.3369359e-38
-0.35824665 0.23353682 1.853 2.3369359e-38
-0.40395558 0.24397811 1.8430002 2.3369359e-38
-0.38140416 0.25918046 1.8508121 2.3369359e-38
-0.35433719 0.26242417 1.8451947 2.3369359e-38
-0.37525305 0.29655173 1.8474443 2.3369359e-38
-0.35631332 0.28902918 1.8430003 2.3369359e-38
-0.36684477 0.32120857 1.8430001 2.3369359e-38
-0.97351271 -0.5537203 1.8325709 2.3369359e-38
-1.0161076 -0.70724553 1.907711 2.3369359e-38
-1.0524166 -0.70351624 1.8899883 2.3369359e-38
-1.0203801 -0.69840616 1.90053 2.3369359e-38
-0.98946583 -0.68625426 1.9133503 2.3369359e-38
-1.0445553 -0.67324352 1.8860003 2.3369359e-38
-1.0151789 -0.66470432 1.8863738 2.3369359e-38
-0.98433924 -0.65776157 1.9035981 2.3369359e-38
-0.95639163 -0.64160615 1.9128001 2.3369359e-38
-1.0048646 -0.63065565 1.8830001 2.3369359e-38
-0.98009056 -0.62005413 1.8890951 2.3369359e-38
-0.94827819 -0.61418313 1.9056405 2.3369359e-38
-0.97047985 -0.5878827 1.8835644 2.3369359e-38
-0.94154459 -0.57956547 1.8947872 2.3369359e-38
-0.90888476 -0.57181984 1.9095807 2.3369359e-38
-0.86995715 -0.56720483 1.9150002 2.3369359e-38
-0.93576187 -0.54410905 1.8852004 2.3369359e-38
-0.90062201 -0.5388307 1.8983451 2.3369359e-38
-0.86476958 -0.53358698 1.9138187 2.3369359e-38
-0.9235667 -0.5122956 1.8830001 2.3369359e-38
-0.89582241 -0.50177354 1.8859562 2.3369359e-38
-0.85870445 -0.49948749 1.9020302 2.3369359e-38
-0.83605802 -0.49975923 1.9130592 2.3369359e-38
-0.88836956 -0.47219703 1.8851999 2.3369359e-38
-0.85849661 -0.46106982 1.8889496 2.3369359e-38
-0.82537019 -0.45651367 1.9078498 2.3369359e-38
-0.79700482 -0.45412859 1.9150001 2.3369359e-38
-0.85840899 -0.42852131 1.8830004 2.3369359e-38
-0.8187601 -0.42189053 1.8999362 2.3369359e-38
-0.79216534 -0.41876841 1.9140007 2.3369359e-38
-0.81227505 -0.37948996 1.884988 2.3369359e-38
-0.78380966 -0.37996781 1.9061415 2.3369359e-38
-0.80843461 -0.35340935 1.8836471 2.3369359e-38
-0.77960342 -0.34179136 1.8993058 2.3369359e-38
-0.74834007 -0.33583254 1.911986 2.3369359e-38
-0.77142727 -0.30633995 1.8891239 2.3369359e-38
-0.74237806 -0.29865769 1.9068632 2.3369359e-38
-0.69936091 -0.29110798 1.9150008 2.3369359e-38
-0.76319152 -0.26771909 1.8830004 2.3369359e-38
-0.73737919 -0.26420778 1.8940163 2.3369359e-38
-0.69911283 -0.25798377 1.908407 2.3369359e-38
-0.66415852 -0.2521964 1.9150007 2.3369359e-38
-0.72769499 -0.23173849 1.8829999 2.3369359e-38
-0.69989759 -0.22343479 1.8944914 2.3369359e-38
-0.661663 -0.21850635 1.9080147 2.3369359e-38
-0.63286191 -0.2056852 1.9150001 2.3369359e-38
-0.69999778 -0.18365064 1.8829997 2.3369359e-38
-0.65303224 -0.18179616 1.8920861 2.3369359e-38
-0.6226688 -0.17812642 1.9090385 2.3369359e-38
-0.64702404 -0.15073691 1.8841784 2.3369359e-38
-0.61813855 -0.13991563 1.8982894 2.3369359e-38
-0.58219862 -0.13506025 1.9122941 2.3369359e-38
-0.54167145 -0.12949048 1.9150001 2.3369359e-38
-0.60924751 -0.11021321 1.8864574 2.3369359e-38
-0.57886493 -0.099826843 1.899295 2.3369359e-38
-0.54359299 -0.096592426 1.9118574 2.3369359e-38
-0.51457483 -0.087021783 1.9150004 2.3369359e-38
-0.57183385 -0.063308634 1.8864156 2.3369359e-38
-0.5406512 -0.059644312 1.9008862 2.3369359e-38
-0.50538343 -0.056511249 1.9093775 2.3369359e-38
-0.56669343 -0.037660003 1.8830001 2.3369359e-38
-0.53982556 -0.030402731 1.8853576 2.3369359e-38
-0.49937284 -0.020260889 1.895941 2.3369359e-38
-0.46675077 -0.01150196 1.90906 2.3369359e-38
-0.49402255 0.011631254 1.8870008 2.3369359e-38
-0.46191081 0.01992319 1.8958954 2.3369359e-38
-0.48240671 0.048420005 1.8830001 2.3369359e-38
-0.45971829 0.058559846 1.8900583 2.3369359e-38
-0.4383257 0.077563807 1.8940001 2.3369359e-38
-0.44867378 0.081414431 1.8877145 2.3369359e-38
-0.42695409 0.10831722 1.8852001 2.3369359e-38
-0.42322668 0.12194668 1.8830001 2.3369359e-38
-0.39094669 0.18292001 1.8830001 2.3369359e-38
-0.61937916 0.16867875 1.7340014 2.3369359e-38
-0.84875792 -0.4112626 1.8769897 2.3369359e-38
-0.89196676 0.17306088 1.5647752 2.3369359e-38
-1.0165581 -0.74030584 1.9252381 2.3369359e-38
-0.98357427 -0.73846042 1.9447367 2.3369359e-38
-0.94916385 -0.7263248 1.9580001 2.3369359e-38
0.74490494 -0.75627029 1.9487835 2.3369359e-38
0.78237462 -0.75175029 1.9493331 2.3369359e-38
0.824435 -0.75409961 1.9476869 2.3369359e-38
0.86266959 -0.74764371 1.9470009 2.3369359e-38
0.89809525 -0.74718213 1.9400221 2.3369359e-38
0.93894571 -0.74860215 1.9378899 2.3369359e-38
0.97018546 -0.75141734 1.9448003 2.3369359e-38
-1.0091889 -0.71292222 1.9249998 2.3369359e-38
-0.9780398 -0.70180309 1.9340274 2.3369359e-38
-0.94603467 -0.69712967 1.9526217 2.3369359e-38
-0.91746289 -0.68250287 1.9580001 2.3369359e-38
-0.9666853 -0.66856968 1.9289286 2.3369359e-38
-0.9383207 -0.65890777 1.9331729 2.3369359e-38
-0.90396702 -0.65634483 1.952431 2.3369359e-38
-0.86895108 -0.64707941 1.9569525 2.3369359e-38
-0.93239141 -0.62709475 1.9271741 2.3369359e-38
-0.90205103 -0.62109309 1.9389628 2.3369359e-38
-0.86283976 -0.61996961 1.9514863 2.3369359e-38
-0.83541334 -0.60418284 1.9580001 2.3369359e-38
-0.92216671 -0.5995 1.9250001 2.3369359e-38
-0.89590383 -0.58596164 1.9255728 2.3369359e-38
-0.85954976 -0.58029431 1.9371186 2.3369359e-38
-0.8284241 -0.57791561 1.9554273 2.3369359e-38
-0.88504165 -0.55022919 1.9249997 2.3369359e-38
-0.85332137 -0.54513103 1.9272311 2.3369359e-38
-0.82151061 -0.53930545 1.9476938 2.3369359e-38
-0.79668355 -0.53461295 1.9580001 2.3369359e-38
-0.84296668 -0.50050002 1.9250001 2.3369359e-38
-0.81907237 -0.50077045 1.9353433 2.3369359e-38
-0.78630346 -0.49913651 1.9540102 2.3369359e-38
-0.81058902 -0.46913958 1.9271523 2.3369359e-38
-0.77995116 -0.45905036 1.9418554 2.3369359e-38
-0.74893504 -0.44754285 1.9580001 2.3369359e-38
-0.71718746 -0.44642401 1.9580001 2.3369359e-38
-0.77504784 -0.42157203 1.9290875 2.3369359e-38
-0.74631119 -0.41598856 1.9527196 2.3369359e-38
-0.71384287 -0.41584191 1.9579999 2.3369359e-38
-0.76362121 -0.38266546 1.9331051 2.3369359e-38
-0.7403962 -0.37972546 1.9485443 2.3369359e-38
-0.70569849 -0.37746626 1.9555547 2.3369359e-38
-0.72997606 -0.34218261 1.9285599 2.3369359e-38
-0.6989271 -0.33925098 1.9448663 2.3369359e-38
-0.66731834 -0.33123508 1.9579999 2.3369359e-38
-0.72481376 -0.31004897 1.9249997 2.3369359e-38
-0.69588506 -0.30290964 1.930735 2.3369359e-38
-0.66040897 -0.30004027 1.9515671 2.3369359e-38
-0.63186741 -0.28875124 1.9580001 2.3369359e-38
-0.69902384 -0.27578574 1.9250002 2.3369359e-38
-0.65536547 -0.26569512 1.932987 2.3369359e-38
-0.62381583 -0.25844496 1.9509192 2.3369359e-38
-0.59272081 -0.24867778 1.9575771 2.3369359e-38
-0.64611834 -0.23042159 1.9289286 2.3369359e-38
-0.61964846 -0.222001 1.9393998 2.3369359e-38
-0.58339202 -0.21724167 1.9529575 2.3369359e-38
-0.54900873 -0.21156561 1.9554334 2.3369359e-38
-0.60788733 -0.18685333 1.9271998 2.3369359e-38
-0.58020961 -0.18030083 1.9395871 2.3369359e-38
-0.54028434 -0.17802769 1.9481007 2.3369359e-38
-0.50974643 -0.16653474 1.957389 2.3369359e-38
-0.60536671 -0.15656666 1.9250001 2.3369359e-38
-0.57303524 -0.14960505 1.9293544 2.3369359e-38
-0.53926331 -0.13982688 1.9358122 2.3369359e-38
-0.50503898 -0.13774198 1.9489409 2.3369359e-38
-0.47018638 -0.1228079 1.9580002 2.3369359e-38
-0.56283337 -0.11916667 1.9250001 2.3369359e-38
-0.53236806 -0.11125072 1.9303659 2.3369359e-38
-0.49829051 -0.10112125 1.9379107 2.3369359e-38
-0.46744686 -0.09849634 1.9423451 2.3369359e-38
-0.4901239 -0.066990957 1.9315182 2.3369359e-38
-0.46691251 -0.059953243 1.9353125 2.3369359e-38
-0.48216668 -0.038500004 1.9250001 2.3369359e-38
-0.46184376 -0.026224529 1.9292166 2.3369359e-38
-0.44550002 0.0018333334 1.9250001 2.3369359e-38
-0.89488679 -0.52402776 1.9015762 2.3369359e-38
-0.8836062 -0.5785982 1.9281105 2.3369359e-38
-0.73108459 0.093157947 1.7244625 2.3369359e-38
-0.44874632 0.45343575 1.7298644 2.3369359e-38
-0.3388142 0.32784343 1.7404509 2.3369359e-38
-0.91495734 0.10222935 1.5860195 2.3369359e-38
0.58731061 -0.73631364 1.9775503 2.3369359e-38
0.65680146 -0.76412553 1.9795005 2.3369359e-38
0.69838476 -0.76416552 1.9788651 2.3369359e-38
0.73449779 -0.7650075 1.9902505 2.3369359e-38
0.99762672 -0.76322198 1.9690001 2.3369359e-38
-0.96574771 -0.74736768 1.9690005 2.3369359e-38
-0.93774414 -0.74279761 1.9725606 2.3369359e-38
-0.90856379 -0.73364902 1.9858871 2.3369359e-38
-0.86320007 -0.72976768 1.9920003 2.3369359e-38
0.63136917 -0.75126857 1.9920005 2.3369359e-38
0.66327578 -0.75368881 1.9853621 2.3369359e-38
0.69712776 -0.75369787 1.9895678 2.3369359e-38
0.74381745 -0.75174314 1.9867046 2.3369359e-38
0.77890205 -0.74335515 1.9838438 2.3369359e-38
0.822474 -0.74015385 1.9830577 2.3369359e-38
0.85707802 -0.73435313 1.9809178 2.3369359e-38
0.90019989 -0.7327565 1.9846206 2.3369359e-38
0.94039291 -0.73693985 1.979648 2.3369359e-38
0.97992349 -0.73755157 1.9784893 2.3369359e-38
1.0156691 -0.74368596 1.9887611 2.3369359e-38
-0.9292292 -0.70697916 1.9697185 2.3369359e-38
-0.90098572 -0.69998336 1.9787191 2.3369359e-38
-0.85980624 -0.69571012 1.9884413 2.3369359e-38
-0.83664006 -0.70004576 1.9920002 2.3369359e-38
0.83094859 -0.71901715 1.9920001 2.3369359e-38
0.85770947 -0.71790081 1.9894741 2.3369359e-38
0.88672459 -0.71674061 1.9920002 2.3369359e-38
0.9504686 -0.7180686 1.9920001 2.3369359e-38
0.98231864 -0.71593779 1.9843199 2.3369359e-38
1.0168686 -0.71630692 1.9920006 2.3369359e-38
-0.89877492 -0.67173713 1.9690008 2.3369359e-38
-0.85806507 -0.66302824 1.9752898 2.3369359e-38
-0.83389461 -0.65067178 1.9880003 2.3369359e-38
-0.84592003 -0.62932986 1.9690002 2.3369359e-38
-0.82070953 -0.61763638 1.9759988 2.3369359e-38
-0.79869717 -0.60329151 1.9920001 2.3369359e-38
-0.81025869 -0.58314115 1.9740012 2.3369359e-38
-0.78960949 -0.57505971 1.98685 2.3369359e-38
-0.77922773 -0.54111183 1.9788282 2.3369359e-38
-0.73990196 -0.52669716 1.9905887 2.3369359e-38
-0.77187961 -0.5015747 1.9704901 2.3369359e-38
-0.7445215 -0.49702212 1.9833962 2.3369359e-38
-0.71399003 -0.491745 1.991455 2.3369359e-38
-0.76524144 -0.46895382 1.9690001 2.3369359e-38
-0.74028558 -0.46175835 1.9712875 2.3369359e-38
-0.70620972 -0.4569979 1.9866676 2.3369359e-38
-0.67728001 -0.4420343 1.9920001 2.3369359e-38
-0.73209304 -0.42642927 1.9690008 2.3369359e-38
-0.69655782 -0.42100498 1.9823155 2.3369359e-38
-0.66931206 -0.41517073 1.9919991 2.3369359e-38
-0.68826872 -0.38316232 1.975382 2.3369359e-38
-0.66311365 -0.37739614 1.9887403 2.3369359e-38
-0.63804573 -0.36162668 1.9880002 2.3369359e-38
-0.68258673 -0.35629523 1.9690001 2.3369359e-38
-0.65487367 -0.34360948 1.9747814 2.3369359e-38
-0.62432534 -0.33349726 1.9902341 2.3369359e-38
-0.64320666 -0.31128955 1.9690001 2.3369359e-38
-0.61718106 -0.30200508 1.9772562 2.3369359e-38
-0.58749884 -0.29190582 1.9908569 2.3369359e-38
-0.55617911 -0.2889981 1.9920005 2.3369359e-38
-0.60813498 -0.27318633 1.973125 2.3369359e-38
-0.57726979 -0.26167184 1.9802111 2.3369359e-38
-0.54255122 -0.25776693 1.9873636 2.3369359e-38
-0.51564348 -0.24321373 1.9920002 2.3369359e-38
-0.56994224 -0.23106885 1.9713578 2.3369359e-38
-0.5365594 -0.22318897 1.9788989 2.3369359e-38
-0.50665629 -0.21652941 1.9855 2.3369359e-38
-0.52688533 -0.19072254 1.9697334 2.3369359e-38
-0.49838409 -0.18177865 1.9790828 2.3369359e-38
-0.46629223 -0.17121631 1.9917768 2.3369359e-38
-0.48996061 -0.14450763 1.9737836 2.3369359e-38
-0.46568003 -0.14320901 1.9804413 2.3369359e-38
-0.46693432 -0.11814 1.9690001 2.3369359e-38
-0.053878855 0.38853487 1.9920005 2.3369359e-38
-0.057061251 0.41815779 1.9808491 2.3369359e-38
-0.031282675 0.41967231 1.9919993 2.3369359e-38
-0.83108652 0.015017332 1.6910827 2.3369359e-38
-0.75208604 0.10939635 1.6968509 2.3369359e-38
-0.76627392 -0.24095158 1.7846329 2.3369359e-38
0.3449212 -0.7794624 2.0053232 2.3369359e-38
0.37542197 -0.76964486 2.0094283 2.3369359e-38
0.64936036 -0.743397 2.0000305 2.3369359e-38
-0.21124594 -0.65912598 1.9943331 2.3369359e-38
-0.58623117 -0.46977752 1.9077294 2.3369359e-38
-0.58979046 -0.45376116 1.9002894 2.3369359e-38
-0.51355344 -0.36721042 1.9075581 2.3369359e-38
-0.63052744 -0.046309933 1.8417909 2.3369359e-38
-0.66950762 0.12604097 1.7459735 2.3369359e-38
-0.67171997 0.17760731 1.7276785 2.3369359e-38
-0.52409363 0.31938058 1.7396009 2.3369359e-38
-0.47267884 0.38498688 1.741117 2.3369359e-38
-0.96750581 -0.22692794 1.686247 2.3369359e-38
-0.85134733 -0.56766117 1.9528642 2.3369359e-38
-0.83271009 -0.63631451 1.951256 2.3369359e-38
-0.84503776 -0.75717193 1.9999636 2.3369359e-38
-0.83205545 -0.77508098 2.037364 2.3369359e-38
-0.13399144 -0.79812282 2.039 2.3369359e-38
-0.056613993 -0.79662907 2.0389998 2.3369359e-38
-0.071492791 -0.76206207 2.0304546 2.3369359e-38
-0.021024643 -0.7736603 2.0353246 2.3369359e-38
0.065294072 -0.79509276 2.0367782 2.3369359e-38
0.039930694 -0.70389467 2.0108857 2.3369359e-38
0.039674994 -0.68273765 1.9967357 2.3369359e-38
0.037529178 -0.67773598 1.9976602 2.3369359e-38
0.16465053 -0.72051173 2.0095098 2.3369359e-38
0.23507448 -0.73707581 2.0159714 2.3369359e-38
0.23032689 -0.67286611 1.991924 2.3369359e-38
0.24046531 -0.73529214 1.998298 2.3369359e-38
0.34741426 -0.75330645 2.0083308 2.3369359e-38
0.42075771 -0.77529138 2.0190718 2.3369359e-38
0.45911324 -0.77251929 2.0163758 2.3369359e-38
0.50018948 -0.7698288 2.0163479 2.3369359e-38
0.54020619 -0.77104932 2.0143886 2.3369359e-38
0.57900363 -0.77248573 2.0105004 2.3369359e-38
0.61325949 -0.76573867 2.0054996 2.3369359e-38
0.64286762 -0.76495522 2.003 2.3369359e-38
0.71408546 -0.7700423 2.003 2.3369359e-38
0.73872548 -0.76400137 2.003 2.3369359e-38
1.0396523 -0.76113999 2.003 2.3369359e-38
1.0434676 -0.76113999 2.003 2.3369359e-38
-0.92138004 -0.75732476 2.003 2.3369359e-38
-0.89480054 -0.74212754 2.0029991 2.3369359e-38
-0.85922194 -0.74230468 2.0128279 2.3369359e-38
-0.82632452 -0.7347604 2.0339856 2.3369359e-38
0.34562147 -0.75849843 2.033 2.3369359e-38
0.37877694 -0.75709772 2.0292501 2.3369359e-38
0.43498668 -0.75928479 2.039 2.3369359e-38
0.44749272 -0.75788891 2.0370002 2.3369359e-38
0.50780004 -0.75907463 2.0349998 2.3369359e-38
0.54813093 -0.75916326 2.0366001 2.3369359e-38
0.5818572 -0.75414097 2.0195715 2.3369359e-38
0.62231052 -0.75016719 2.0214353 2.3369359e-38
0.65980983 -0.74116856 2.0197999 2.3369359e-38
0.70236444 -0.74009955 2.0227044 2.3369359e-38
0.73760325 -0.73674285 2.020395 2.3369359e-38
0.77829784 -0.73166484 2.0150003 2.3369359e-38
0.8178277 -0.72666961 2.0194445 2.3369359e-38
0.85453761 -0.72126383 2.0282004 2.3369359e-38
0.90601426 -0.72444475 2.0158572 2.3369359e-38
0.94025302 -0.72557276 2.0213156 2.3369359e-38
0.9775629 -0.723481 2.0150001 2.3369359e-38
1.028924 -0.7412886 2.0037267 2.3369359e-38
1.0453693 -0.73281974 2.0124736 2.3369359e-38
-0.88449943 -0.71790063 2.003 2.3369359e-38
-0.85530019 -0.7077266 2.0029993 2.3369359e-38
-0.81974334 -0.69835508 2.0166998 2.3369359e-38
-0.79150146 -0.68854725 2.0339234 2.3369359e-38
-0.75151718 -0.68160862 2.039 2.3369359e-38
0.79225063 -0.71232837 2.0279601 2.3369359e-38
0.82035756 -0.71056265 2.0314519 2.3369359e-38
0.86163872 -0.70731521 2.0288544 2.3369359e-38
0.89969426 -0.70261717 2.0318458 2.3369359e-38
0.94171047 -0.70116115 2.0278556 2.3369359e-38
0.97888166 -0.70128047 2.0220799 2.3369359e-38
1.0162798 -0.69883054 2.0213861 2.3369359e-38
1.0495158 -0.71042472 2.028091 2.3369359e-38
-0.84453022 -0.67229944 2.0030003 2.3369359e-38
-0.81839806 -0.66262907 2.0087981 2.3369359e-38
-0.78183186 -0.65788633 2.0244613 2.3369359e-38
-0.74395931 -0.65473694 2.0390007 2.3369359e-38
0.90104383 -0.67578286 2.039 2.3369359e-38
0.97317451 -0.67767698 2.0344999 2.3369359e-38
1.0225674 -0.67553407 2.0356667 2.3369359e-38
-0.80914843 -0.63078594 2.0029995 2.3369359e-38
-0.78082067 -0.62035775 2.011286 2.3369359e-38
-0.74013627 -0.61817288 2.0320313 2.3369359e-38
-0.71170807 -0.60296142 2.0389998 2.3369359e-38
-0.77272373 -0.58352464 2.0051627 2.3369359e-38
-0.74123931 -0.58087337 2.0189996 2.3369359e-38
-0.71052665 -0.57616645 2.0333164 2.3369359e-38
-0.76347148 -0.54621494 2.0029998 2.3369359e-38
-0.73979908 -0.5416342 2.0036461 2.3369359e-38
-0.7034834 -0.53708571 2.0215545 2.3369359e-38
-0.73424256 -0.51353109 2.0029998 2.3369359e-38
-0.69694495 -0.50045836 2.0160377 2.3369359e-38
-0.66222924 -0.49733201 2.0375214 2.3369359e-38
-0.69078612 -0.46747646 2.0049994 2.3369359e-38
-0.66096443 -0.46004432 2.0217497 2.3369359e-38
-0.63231421 -0.45234981 2.0380006 2.3369359e-38
-0.65279257 -0.4236452 2.0062563 2.3369359e-38
-0.62281877 -0.41788757 2.0259511 2.3369359e-38
-0.57039034 -0.40479887 2.0389998 2.3369359e-38
-0.52884543 -0.40650541 2.039 2.3369359e-38
-0.51450306 -0.40704519 2.0294003 2.3369359e-38
-0.64845431 -0.38833681 2.0029993 2.3369359e-38
-0.61912012 -0.38051602 2.0155218 2.3369359e-38
-0.57798433 -0.37846792 2.0360324 2.3369359e-38
-0.54669726 -0.37744486 2.039001 2.3369359e-38
-0.51061958 -0.39455694 2.0362308 2.3369359e-38
1.0563962 -0.36313617 2.039 2.3369359e-38
-0.61303592 -0.3475458 2.0062137 2.3369359e-38
-0.57914197 -0.34015915 2.0137866 2.3369359e-38
-0.54120946 -0.33959967 2.0282328 2.3369359e-38
-0.51219279 -0.33243763 2.0354884 2.3369359e-38
-0.4738248 -0.34371716 2.039 2.3369359e-38
1.038919 -0.32429808 2.039 2.3369359e-38
1.0532346 -0.33740947 2.037715 2.3369359e-38
-0.57886589 -0.30653775 2.0037374 2.3369359e-38
-0.53989136 -0.30100656 2.0142562 2.3369359e-38
-0.50509077 -0.29878449 2.0335855 2.3369359e-38
-0.46952492 -0.28948253 2.0390005 2.3369359e-38
1.0357989 -0.29694769 2.0286222 2.3369359e-38
1.0437158 -0.29986784 2.0204191 2.3369359e-38
-0.52771074 -0.2692706 2.0088058 2.3369359e-38
-0.49866152 -0.26135159 2.0183663 2.3369359e-38
-0.46073189 -0.25944394 2.0352354 2.3369359e-38
-0.43229401 -0.25119147 2.0318003 2.3369359e-38
1.0335894 -0.25761151 2.0361586 2.3369359e-38
1.0449407 -0.26207361 2.0270004 2.3369359e-38
-0.49032712 -0.22484304 2.0084536 2.3369359e-38
-0.45987022 -0.21979615 2.0218422 2.3369359e-38
-0.43205971 -0.22087687 2.0370009 2.3369359e-38
1.0351161 -0.23269939 2.0255001 2.3369359e-38
1.0428288 -0.23447631 2.0226367 2.3369359e-38
-0.48262763 -0.19648476 2.003 2.3369359e-38
-0.45892558 -0.18882599 2.0085549 2.3369359e-38
-0.43821812 -0.19690859 2.0270002 2.3369359e-38
-0.051069889 0.30958667 2.0385389 2.3369359e-38
-0.03560159 0.31523585 2.039 2.3369359e-38
-0.082519054 0.35886192 2.0150001 2.3369359e-38
-0.058862176 0.34053633 2.0230646 2.3369359e-38
-0.026153969 0.3453564 2.0362639 2.3369359e-38
-0.083039261 0.37231991 2.0070002 2.3369359e-38
-0.059532981 0.37737343 2.0068352 2.3369359e-38
-0.020090837 0.38090718 2.0248168 2.3369359e-38
0.0058257137 0.38838091 2.039 2.3369359e-38
-0.067529723 0.4067044 2.003 2.3369359e-38
-0.012891644 0.41489249 2.010354 2.3369359e-38
0.011906009 0.41702792 2.0281539 2.3369359e-38
-0.83293724 -0.49676195 1.9247334 2.3369359e-38
-0.7754997 -0.48324051 1.9480023 2.3369359e-38
-0.79042107 -0.80623239 2.0741429 2.3369359e-38
-0.72769499 -0.23173849 1.8829999 2.3369359e-38
-0.69999778 -0.18365064 1.8829997 2.3369359e-38
-0.53982556 -0.030402731 1.8853576 2.3369359e-38
-0.47151461 -0.64126325 1.9428394 2.3369359e-38
-0.32831305 -0.63409001 1.8610811 2.3369359e-38
0.26958215 -0.77902561 2.0023777 2.3369359e-38
-0.67081416 -0.7131092 2.0080168 2.3369359e-38
-0.48563927 -0.75203574 2.0484495 2.3369359e-38
-0.44487855 -0.73232085 2.0489368 2.3369359e-38
-0.39672941 -0.71242774 2.0467124 2.3369359e-38
-0.34568468 -0.69632834 2.0499797 2.3369359e-38
-0.30266157 -0.67272455 2.0431228 2.3369359e-38
-0.30363661 -0.61469752 1.9761691 2.3369359e-38
-0.12950476 -0.75191998 2.0109184 2.3369359e-38
-0.13663644 -0.79172826 2.0397623 2.3369359e-38
-0.10077331 -0.78737813 2.042309 2.3369359e-38
-0.073575556 -0.80412233 2.0510001 2.3369359e-38
-0.027346669 -0.80282009 2.0510004 2.3369359e-38
-0.85176831 -0.79569602 2.0510004 2.3369359e-38
-0.81608534 -0.78031492 2.0625014 2.3369359e-38
-0.78067815 -0.78067023 2.0719299 2.3369359e-38
-0.75300646 -0.77695066 2.0713871 2.3369359e-38
-0.37263513 -0.79726696 2.0738335 2.3369359e-38
-0.35155389 -0.79726696 2.0738335 2.3369359e-38
-0.29433608 -0.79606879 2.0741432 2.3369359e-38
-0.2487061 -0.79639649 2.0658002 2.3369359e-38
-0.21761669 -0.79479861 2.0660622 2.3369359e-38
-0.179625 -0.79572952 2.0674295 2.3369359e-38
-0.1399086 -0.79060221 2.0662713 2.3369359e-38
-0.099068858 -0.79255664 2.0687206 2.3369359e-38
-0.058057096 -0.78425115 2.059495 2.3369359e-38
-0.021255059 -0.78744626 2.0614889 2.3369359e-38
0.022305667 -0.78072649 2.0620778 2.3369359e-38
0.056851268 -0.78162736 2.0611365 2.3369359e-38
0.097945973 -0.77376652 2.0633559 2.3369359e-38
0.14087465 -0.77058756 2.0641854 2.3369359e-38
0.18094079 -0.77067345 2.0655205 2.3369359e-38
0.22009678 -0.77163303 2.063185 2.3369359e-38
0.25839499 -0.7696501 2.0625601 2.3369359e-38
0.30054647 -0.76455408 2.0577693 2.3369359e-38
0.32886076 -0.76571894 2.0585001 2.3369359e-38
0.39432022 -0.76317853 2.0558002 2.3369359e-38
0.41555762 -0.76269019 2.0577826 2.3369359e-38
0.46348175 -0.76477307 2.0520005 2.3369359e-38
0.49115482 -0.7650556 2.0510004 2.3369359e-38
0.53781784 -0.76375335 2.0510004 2.3369359e-38
0.56451333 -0.76375335 2.0510001 2.3369359e-38
0.61530006 -0.76375335 2.0510001 2.3369359e-38
-0.81394094 -0.74693769 2.0536892 2.3369359e-38
-0.78074074 -0.73778105 2.0635896 2.3369359e-38
-0.75356221 -0.73694205 2.0700002 2.3369359e-38
0.11269715 -0.75625718 2.0760002 2.3369359e-38
0.13929872 -0.7568863 2.0760002 2.3369359e-38
0.18031545 -0.75447786 2.0760002 2.3369359e-38
0.22266397 -0.75442129 2.0760002 2.3369359e-38
0.26992962 -0.75340521 2.0732145 2.3369359e-38
0.29916674 -0.75037146 2.0692515 2.3369359e-38
0.33992437 -0.753151 2.0665095 2.3369359e-38
0.38007542 -0.75228947 2.0645983 2.3369359e-38
0.42148265 -0.74760723 2.066323 2.3369359e-38
0.46012238 -0.74436027 2.0612249 2.3369359e-38
0.49984488 -0.74647105 2.0614901 2.3369359e-38
0.54036677 -0.74312788 2.0613673 2.3369359e-38
0.58091402 -0.74192762 2.057991 2.3369359e-38
0.61905569 -0.73595798 2.0579793 2.3369359e-38
0.65665722 -0.73131967 2.058049 2.3369359e-38
0.70128858 -0.73218101 2.0556464 2.3369359e-38
0.74093616 -0.72413182 2.0577428 2.3369359e-38
0.77458268 -0.72752416 2.0624504 2.3369359e-38
-0.80282003 -0.71492004 2.0510001 2.3369359e-38
-0.77857685 -0.70240694 2.0540771 2.3369359e-38
-0.74197906 -0.69671863 2.0610008 2.3369359e-38
-0.71770293 -0.68409151 2.0760002 2.3369359e-38
0.62137222 -0.71643192 2.0695 2.3369359e-38
0.67065495 -0.71635079 2.0570002 2.3369359e-38
0.69932294 -0.71700573 2.0570002 2.3369359e-38
0.7375381 -0.71680617 2.0651336 2.3369359e-38
0.786134 -0.71320146 2.060353 2.3369359e-38
0.81898284 -0.70416516 2.0640438 2.3369359e-38
0.86314481 -0.69335389 2.0673101 2.3369359e-38
0.8947193 -0.684623 2.0609677 2.3369359e-38
0.93904781 -0.68761736 2.0682838 2.3369359e-38
0.973701 -0.68453223 2.0620003 2.3369359e-38
1.006749 -0.68408328 2.0558002 2.3369359e-38
1.0650134 -0.69556189 2.0633667 2.3369359e-38
-0.76583689 -0.66660762 2.0510006 2.3369359e-38
-0.73454916 -0.66395003 2.0534935 2.3369359e-38
-0.70522386 -0.65446347 2.0716469 2.3369359e-38
-0.67816007 -0.64257151 2.0760002 2.3369359e-38
0.86730671 -0.67750108 2.0760002 2.3369359e-38
0.90090925 -0.67685914 2.0690501 2.3369359e-38
0.94682151 -0.6766057 2.0718949 2.3369359e-38
0.98276258 -0.66633517 2.0666046 2.3369359e-38
1.0170858 -0.66712451 2.0670674 2.3369359e-38
1.0583866 -0.6722641 2.0673504 2.3369359e-38
1.0814973 -0.67222863 2.0760002 2.3369359e-38
-0.72175664 -0.63092667 2.0510004 2.3369359e-38
-0.69877088 -0.62128139 2.056875 2.3369359e-38
-0.67453223 -0.61537105 2.0711854 2.3369359e-38
-0.69259101 -0.58128279 2.0514867 2.3369359e-38
-0.667831 -0.57913625 2.0673525 2.3369359e-38
-0.68610835 -0.54237556 2.0509999 2.3369359e-38
-0.6599077 -0.54061574 2.0574272 2.3369359e-38
-0.63171095 -0.53687203 2.0711873 2.3369359e-38
1.0747185 -0.52733231 2.0760002 2.3369359e-38
-0.68562007 -0.51607066 2.0510004 2.3369359e-38
-0.65197217 -0.50137651 2.0509994 2.3369359e-38
-0.62356055 -0.49780592 2.0611656 2.3369359e-38
-0.58464253 -0.49012294 2.0756989 2.3369359e-38
-0.55755436 -0.48044574 2.0760002 2.3369359e-38
1.0714318 -0.4991388 2.0760014 2.3369359e-38
-0.64460003 -0.47075334 2.0510001 2.3369359e-38
-0.61530733 -0.4633106 2.0557773 2.3369359e-38
-0.57889026 -0.45868427 2.0737786 2.3369359e-38
-0.54810756 -0.45718035 2.0756021 2.3369359e-38
1.0632396 -0.45795938 2.0718658 2.3369359e-38
-0.60686988 -0.42716312 2.0510001 2.3369359e-38
-0.5817759 -0.42193219 2.0542819 2.3369359e-38
-0.5438413 -0.4188399 2.0613518 2.3369359e-38
1.0380001 -0.40926862 2.0760002 2.3369359e-38
1.0579906 -0.41906762 2.068491 2.3369359e-38
-0.58683717 -0.39317814 2.0510004 2.3369359e-38
-0.53002578 -0.38316762 2.0573528 2.3369359e-38
-0.5050723 -0.37417173 2.063853 2.3369359e-38
1.0312257 -0.37637815 2.0732353 2.3369359e-38
1.0547106 -0.38122928 2.0631003 2.3369359e-38
-0.49717173 -0.34324437 2.0564392 2.3369359e-38
-0.47468048 -0.33072254 2.0526364 2.3369359e-38
1.0336437 -0.33892164 2.0701437 2.3369359e-38
1.0471393 -0.34331939 2.0582991 2.3369359e-38
-0.49008617 -0.31112242 2.0514798 2.3369359e-38
-0.46133539 -0.30080444 2.0547657 2.3369359e-38
1.0308857 -0.30248502 2.0680475 2.3369359e-38
1.0423405 -0.31485468 2.0534 2.3369359e-38
-0.44536 -0.27053669 2.0510004 2.3369359e-38
-0.41225481 -0.25192845 2.0688262 2.3369359e-38
-0.38646635 -0.2551837 2.0683646 2.3369359e-38
1.0237792 -0.25909004 2.0679502 2.3369359e-38
-0.41601244 -0.22512387 2.0568833 2.3369359e-38
-0.39187172 -0.23180483 2.0625498 2.3369359e-38
0.99845725 -0.22539431 2.0760002 2.3369359e-38
1.0150931 -0.23467463 2.072381 2.3369359e-38
-0.043923855 0.26776069 2.0522633 2.3369359e-38
-0.025243979 0.26534855 2.0701249 2.3369359e-38
0.0019771431 0.27482289 2.0760002 2.3369359e-38
-0.054472085 0.30123976 2.0527143 2.3369359e-38
-0.019181546 0.30009401 2.060714 2.3369359e-38
0.0048010438 0.30372605 2.0753813 2.3369359e-38
-0.068419531 0.3244862 2.0525002 2.3369359e-38
-0.012083416 0.3343758 2.0518899 2.3369359e-38
0.017262479 0.34336114 2.063885 2.3369359e-38
0.041520003 0.34995434 2.0760002 2.3369359e-38
-0.0019533334 0.36722666 2.0510001 2.3369359e-38
0.022343896 0.3778173 2.0567935 2.3369359e-38
0.051388457 0.38506958 2.0692608 2.3369359e-38
0.027283644 0.40774259 2.0509994 2.3369359e-38
0.047475338 0.40738678 2.0576665 2.3369359e-38
-0.64893162 0.0071150959 1.8019748 2.3369359e-38
-0.72395629 -0.51522809 1.9929258 2.3369359e-38
-0.71523112 -0.66887629 2.0512323 2.3369359e-38
-0.68994135 -0.73282748 2.0801656 2.3369359e-38
-0.64249784 -0.72396606 2.0771561 2.3369359e-38
-0.60276699 -0.69718081 2.067775 2.3369359e-38
-0.56560963 -0.79822445 2.0919991 2.3369359e-38
-0.5404253 -0.80966759 2.1001992 2.3369359e-38
-0.53328532 -0.80242264 2.0872247 2.3369359e-38
-0.47294495 -0.80392498 2.0917029 2.3369359e-38
-0.44863412 -0.79449201 2.0861716 2.3369359e-38
-0.3842105 -0.80193752 2.0952225 2.3369359e-38
-0.33038631 -0.80263066 2.0945001 2.3369359e-38
-0.31716716 -0.80188811 2.0945001 2.3369359e-38
-0.26580572 -0.8013944 2.0880003 2.3369359e-38
-0.80238867 -0.7805143 2.0880001 2.3369359e-38
-0.79178286 -0.7775315 2.0879998 2.3369359e-38
-0.73737168 -0.77910006 2.0952945 2.3369359e-38
-0.71363682 -0.78192669 2.1088598 2.3369359e-38
-0.60601336 -0.7992934 2.1140001 2.3369359e-38
-0.57765627 -0.79656547 2.1133807 2.3369359e-38
-0.54203403 -0.79728013 2.1139998 2.3369359e-38
-0.50074482 -0.79929346 2.1140003 2.3369359e-38
-0.4473778 -0.79898894 2.1096668 2.3369359e-38
-0.41358122 -0.7905907 2.1095741 2.3369359e-38
-0.38169414 -0.79288942 2.107389 2.3369359e-38
-0.34032482 -0.79127067 2.1079566 2.3369359e-38
-0.29873157 -0.79082865 2.104249 2.3369359e-38
-0.25867832 -0.78784662 2.1034362 2.3369359e-38
-0.22206235 -0.7806778 2.1031182 2.3369359e-38
-0.18039159 -0.78047663 2.1025782 2.3369359e-38
-0.14035434 -0.77273226 2.1003237 2.3369359e-38
-0.10023586 -0.77575845 2.1021805 2.3369359e-38
-0.061607044 -0.7690419 2.0958922 2.3369359e-38
-0.018902376 -0.7708658 2.0925293 2.3369359e-38
0.017685713 -0.76747602 2.0917912 2.3369359e-38
0.06210595 -0.76714128 2.0905998 2.3369359e-38
0.091287471 -0.76706862 2.0927672 2.3369359e-38
0.16372573 -0.76294863 2.0880001 2.3369359e-38
0.24658287 -0.76162291 2.0880001 2.3369359e-38
-0.7368477 -0.74064982 2.0894253 2.3369359e-38
-0.70050675 -0.73816729 2.1023118 2.3369359e-38
-0.67849344 -0.73419559 2.1140003 2.3369359e-38
-0.24562666 -0.75902671 2.1140001 2.3369359e-38
-0.16871732 -0.756208 2.1140001 2.3369359e-38
-0.15043554 -0.7562167 2.1131878 2.3369359e-38
-0.055491794 -0.75255591 2.1082919 2.3369359e-38
-0.020384569 -0.75480616 2.10815 2.3369359e-38
0.01850646 -0.75565839 2.1076756 2.3369359e-38
0.062071659 -0.75368088 2.1057749 2.3369359e-38
0.10311551 -0.74941534 2.1027322 2.3369359e-38
0.13897154 -0.75021261 2.1000142 2.3369359e-38
0.18058458 -0.74546337 2.0980883 2.3369359e-38
0.21860549 -0.74627519 2.0987988 2.3369359e-38
0.2599 -0.74644256 2.094841 2.3369359e-38
0.2996265 -0.73805696 2.1055765 2.3369359e-38
0.33939958 -0.73714751 2.1038561 2.3369359e-38
0.38042453 -0.74005407 2.105629 2.3369359e-38
0.41844219 -0.73229486 2.1053932 2.3369359e-38
0.4581975 -0.7288335 2.1007586 2.3369359e-38
0.50232857 -0.72921586 2.0976508 2.3369359e-38
0.54147196 -0.72713614 2.0999737 2.3369359e-38
0.5785597 -0.72679555 2.0969553 2.3369359e-38
0.61462098 -0.72462481 2.0999167 2.3369359e-38
0.66149652 -0.72429216 2.090364 2.3369359e-38
0.70421368 -0.7254827 2.0880003 2.3369359e-38
0.73037392 -0.72355598 2.0880003 2.3369359e-38
0.77786291 -0.7235086 2.0879998 2.3369359e-38
-0.73015153 -0.71147633 2.0880003 2.3369359e-38
-0.69956791 -0.70032972 2.0949159 2.3369359e-38
-0.66630691 -0.69699597 2.1095991 2.3369359e-38
0.34140384 -0.71703428 2.1140003 2.3369359e-38
0.41716266 -0.71795475 2.1140001 2.3369359e-38
0.46628198 -0.71591872 2.1090477 2.3369359e-38
0.49952677 -0.71678412 2.1121426 2.3369359e-38
0.54032815 -0.71338624 2.1119311 2.3369359e-38
0.58246922 -0.71221584 2.1086028 2.3369359e-38
0.62260556 -0.71194166 2.1053326 2.3369359e-38
0.66088045 -0.70863336 2.1026242 2.3369359e-38
0.69841141 -0.70794404 2.1008365 2.3369359e-38
0.73983967 -0.70361602 2.0974779 2.3369359e-38
0.78072894 -0.70539683 2.0992963 2.3369359e-38
0.82152587 -0.69896287 2.0978789 2.3369359e-38
0.85173088 -0.69204515 2.0911775 2.3369359e-38
0.88093716 -0.68208003 2.0880001 2.3369359e-38
-0.69405258 -0.66878837 2.0899498 2.3369359e-38
-0.66040325 -0.65878475 2.0990679 2.3369359e-38
-0.63536155 -0.64571232 2.112143 2.3369359e-38
0.83708978 -0.67526644 2.0977502 2.3369359e-38
0.85891032 -0.67211592 2.0936131 2.3369359e-38
0.90125817 -0.67222518 2.0954747 2.3369359e-38
0.94156826 -0.66483915 2.0988321 2.3369359e-38
0.97769231 -0.65419292 2.0936749 2.3369359e-38
1.0231724 -0.64995384 2.1004791 2.3369359e-38
1.0587616 -0.66071999 2.1035528 2.3369359e-38
1.0898976 -0.65662748 2.108799 2.3369359e-38
-0.65793633 -0.62293386 2.0959761 2.3369359e-38
-0.63001931 -0.61852145 2.105814 2.3369359e-38
0.98854667 -0.63822669 2.1140001 2.3369359e-38
1.0328401 -0.63822669 2.1140001 2.3369359e-38
1.0716425 -0.61223638 2.1140003 2.3369359e-38
1.0883632 -0.61813259 2.1072392 2.3369359e-38
-0.65026283 -0.5857693 2.0883093 2.3369359e-38
-0.62215358 -0.57933867 2.0998049 2.3369359e-38
-0.58673722 -0.57161957 2.1089995 2.3369359e-38
1.0757911 -0.58621562 2.1140003 2.3369359e-38
1.0872401 -0.58107084 2.1055605 2.3369359e-38
-0.61386198 -0.53987288 2.0915604 2.3369359e-38
-0.58020949 -0.54079211 2.0989244 2.3369359e-38
-0.55317932 -0.52565783 2.1110001 2.3369359e-38
1.0730468 -0.5316869 2.106735 2.3369359e-38
1.0846957 -0.54802686 2.0981114 2.3369359e-38
-0.61087018 -0.51049465 2.0880003 2.3369359e-38
-0.57729363 -0.50615627 2.0888803 2.3369359e-38
-0.54422462 -0.4991003 2.0997691 2.3369359e-38
1.0616173 -0.49826601 2.1061256 2.3369359e-38
-0.60253716 -0.47526857 2.0880001 2.3369359e-38
-0.59657151 -0.4673143 2.0879998 2.3369359e-38
-0.54054052 -0.46871796 2.0879998 2.3369359e-38
1.0318902 -0.45223141 2.1115623 2.3369359e-38
1.0488003 -0.46114287 2.0980442 2.3369359e-38
1.0316458 -0.42051291 2.1017795 2.3369359e-38
1.0445668 -0.42120919 2.0909717 2.3369359e-38
1.0229239 -0.37865144 2.1046855 2.3369359e-38
1.0430865 -0.39812493 2.0901668 2.3369359e-38
1.0227183 -0.33897427 2.1017635 2.3369359e-38
1.041098 -0.33907288 2.090167 2.3369359e-38
1.018052 -0.2969085 2.0985913 2.3369359e-38
-0.40694967 -0.27146706 2.0970001 2.3369359e-38
-0.39572573 -0.27243429 2.0880001 2.3369359e-38
0.99676013 -0.25555021 2.1010001 2.3369359e-38
1.006588 -0.26351094 2.0959992 2.3369359e-38
0.99540305 -0.23263225 2.0966668 2.3369359e-38
1.017953 -0.23274037 2.0886843 2.3369359e-38
-0.017544763 0.15502667 2.1140003 2.3369359e-38
-0.043838669 0.19585352 2.1114004 2.3369359e-38
-0.026043752 0.18442468 2.1102493 2.3369359e-38
-0.043586817 0.21633393 2.102 2.3369359e-38
-0.020881724 0.22055577 2.0989463 2.3369359e-38
0.012744235 0.2330984 2.1106293 2.3369359e-38
-0.013576584 0.25124374 2.0894125 2.3369359e-38
0.018038083 0.26153505 2.1008477 2.3369359e-38
0.048320003 0.27179998 2.1139998 2.3369359e-38
-0.0033142855 0.28171432 2.0880001 2.3369359e-38
0.02336414 0.29844904 2.0967183 2.3369359e-38
0.04673107 0.30697283 2.1102085 2.3369359e-38
0.027513366 0.32701838 2.088897 2.3369359e-38
