# .PCD v0.7 - Point Cloud Data file format
VERSION 0.7
FIELDS x y z rgb
SIZE 4 4 4 4
TYPE F F F F
COUNT 1 1 1 1
WIDTH 1016
HEIGHT 1
VIEWPOINT 0 0 0 1 0 0 0
POINTS 1016
DATA ascii
-0.98127884 -0.70055956 1.932845 4.7655414e-39
-0.9376049 -0.69766831 1.9415435 4.7655414e-39
-0.91040945 -0.69376177 1.9575417 4.7655414e-39
-0.87830287 -0.68063813 1.9580001 4.7655414e-39
-0.96446282 -0.66813189 1.9257855 4.7655414e-39
-0.93898541 -0.66243744 1.9282367 4.7655414e-39
-0.90185964 -0.65785789 1.9452192 4.7655414e-39
-0.86470103 -0.64794999 1.9579999 4.7655414e-39
-0.97533339 -0.63738889 1.9250001 4.7655414e-39
-0.93401295 -0.63306415 1.925 4.7655414e-39
-0.89817095 -0.62484252 1.9319011 4.7655414e-39
-0.86270899 -0.61986041 1.9521805 4.7655414e-39
-0.83727813 -0.6172362 1.9580001 4.7655414e-39
-0.88550007 -0.59624076 1.9250001 4.7655414e-39
-0.8586576 -0.5816164 1.9392267 4.7655414e-39
-0.82645935 -0.57635218 1.9560865 4.7655414e-39
-0.85104096 -0.54428959 1.9281435 4.7655414e-39
-0.82178509 -0.53975409 1.9484726 4.7655414e-39
-0.78783131 -0.53086835 1.9575418 4.7655414e-39
-0.7589581 -0.52213335 1.9580001 4.7655414e-39
-0.84149998 -0.51883334 1.9250001 4.7655414e-39
-0.81611913 -0.50027412 1.9305018 4.7655414e-39
-0.78145653 -0.49828255 1.9512779 4.7655414e-39
-0.75125587 -0.49643198 1.9580001 4.7655414e-39
-0.80732661 -0.46911338 1.9249995 4.7655414e-39
-0.7791853 -0.45924407 1.9348003 4.7655414e-39
-0.74351126 -0.45854145 1.9544749 4.7655414e-39
-0.71718746 -0.44642401 1.9580001 4.7655414e-39
-0.77338099 -0.42232677 1.9270014 4.7655414e-39
-0.74064738 -0.41969728 1.9465185 4.7655414e-39
-0.71331668 -0.41467807 1.9576766 4.7655414e-39
-0.76908338 -0.39416668 1.9250001 4.7655414e-39
-0.73879194 -0.38205373 1.9368703 4.7655414e-39
-0.70674753 -0.37691861 1.9512304 4.7655414e-39
-0.72714591 -0.35291669 1.9249997 4.7655414e-39
-0.69788438 -0.34091023 1.9413055 4.7655414e-39
-0.66466236 -0.33063269 1.9575217 4.7655414e-39
-0.63961333 -0.32446858 1.9580001 4.7655414e-39
-0.68931538 -0.30529103 1.933446 4.7655414e-39
-0.66167039 -0.29998088 1.9473935 4.7655414e-39
-0.63965946 -0.30331087 1.9536002 4.7655414e-39
-0.68016672 -0.27683336 1.9250001 4.7655414e-39
-0.65493786 -0.27417278 1.9289597 4.7655414e-39
-0.63655895 -0.26880044 1.9286667 4.7655414e-39
-0.20304807 0.27433106 1.9407146 4.7655414e-39
-0.18915339 0.26973325 1.9545951 4.7655414e-39
-0.21246037 0.30447614 1.936666 4.7655414e-39
-0.18196599 0.30179939 1.9524992 4.7655414e-39
-0.15726161 0.31265843 1.9580001 4.7655414e-39
-0.20922917 0.33492705 1.9249995 4.7655414e-39
-0.18035027 0.33899954 1.9337859 4.7655414e-39
-0.1490387 0.34316075 1.9562256 4.7655414e-39
-0.17777747 0.37526059 1.9268345 4.7655414e-39
-0.14217849 0.38150331 1.9429671 4.7655414e-39
-0.11307239 0.39312577 1.9580001 4.7655414e-39
-0.16903335 0.41909999 1.9249996 4.7655414e-39
-0.13911965 0.41767818 1.9300179 4.7655414e-39
-0.10454381 0.42401475 1.9542933 4.7655414e-39
-0.07546667 0.43439242 1.9500003 4.7655414e-39
-0.16574802 0.44578916 1.9294001 4.7655414e-39
-0.12890956 0.44851899 1.926833 4.7655414e-39
-0.10852688 0.44889295 1.9422051 4.7655414e-39
-0.94675207 -0.61566007 1.9091412 4.7655414e-39
-0.89750594 -0.63785356 1.9398994 4.7655414e-39
-0.91432619 -0.77091759 1.9905887 4.7655414e-39
-0.85704845 0.013452423 1.6595023 4.7655414e-39
-0.2622205 -0.48754722 1.8375574 4.7655414e-39
0.56960374 -0.7592535 1.9723015 4.7655414e-39
0.70253235 -0.76471436 1.9826565 4.7655414e-39
0.72936481 -0.76555192 1.9897003 4.7655414e-39
0.82563722 -0.76498187 1.9788756 4.7655414e-39
0.84043431 -0.76075435 1.9920001 4.7655414e-39
0.71498716 -0.64921081 1.9336685 4.7655414e-39
-0.97099841 -0.75797129 1.9690001 4.7655414e-39
-0.92575341 -0.74429977 1.9699175 4.7655414e-39
-0.90655833 -0.73572129 1.9819622 4.7655414e-39
-0.85763514 -0.72812361 1.9920006 4.7655414e-39
0.67005509 -0.7520175 1.9809731 4.7655414e-39
0.69747239 -0.74831021 1.9879346 4.7655414e-39
0.74251115 -0.75307369 1.9849381 4.7655414e-39
0.77956992 -0.75238281 1.9818357 4.7655414e-39
0.82119256 -0.74831468 1.9866112 4.7655414e-39
0.85684949 -0.73656476 1.9796755 4.7655414e-39
0.9004454 -0.73377037 1.9858476 4.7655414e-39
0.93805492 -0.73440993 1.981424 4.7655414e-39
0.98015451 -0.73609203 1.9820315 4.7655414e-39
1.0193648 -0.73768908 1.992 4.7655414e-39
-0.89593697 -0.70316488 1.9741561 4.7655414e-39
-0.8598516 -0.69699281 1.9869516 4.7655414e-39
-0.83650744 -0.70782632 1.9872004 4.7655414e-39
0.86169523 -0.71797526 1.9900005 4.7655414e-39
0.90607548 -0.71749938 1.9920005 4.7655414e-39
0.92201149 -0.71901715 1.9920001 4.7655414e-39
0.991171 -0.71729249 1.9920005 4.7655414e-39
1.0104183 -0.71825832 1.9920002 4.7655414e-39
-0.8892957 -0.67321044 1.9690001 4.7655414e-39
-0.86014938 -0.66253412 1.9754111 4.7655414e-39
-0.83186299 -0.65021497 1.98536 4.7655414e-39
-0.79110873 -0.64611268 1.9920006 4.7655414e-39
-0.84573239 -0.62749034 1.9690003 4.7655414e-39
-0.82210505 -0.6180343 1.9760809 4.7655414e-39
-0.78994662 -0.62008977 1.9915545 4.7655414e-39
-0.81036389 -0.58408141 1.9744042 4.7655414e-39
-0.7790038 -0.57852578 1.9838481 4.7655414e-39
-0.75506282 -0.57198858 1.9920005 4.7655414e-39
-0.80072671 -0.55694574 1.9690001 4.7655414e-39
-0.77727765 -0.545766 1.9757403 4.7655414e-39
-0.74625278 -0.53547996 1.9874381 4.7655414e-39
-0.71648765 -0.52424383 1.9920003 4.7655414e-39
-0.7349304 -0.50145829 1.9816703 4.7655414e-39
-0.71407318 -0.49860355 1.9920006 4.7655414e-39
-0.72833979 -0.47148132 1.9765339 4.7655414e-39
-0.70579004 -0.45642719 1.987625 4.7655414e-39
-0.67728001 -0.4420343 1.9920001 4.7655414e-39
-0.69602448 -0.42086488 1.9824773 4.7655414e-39
-0.66414529 -0.41077471 1.9912791 4.7655414e-39
-0.63737148 -0.40731433 1.9800001 4.7655414e-39
-0.68998361 -0.38511586 1.9761729 4.7655414e-39
-0.66031826 -0.3798503 1.9854996 4.7655414e-39
-0.63542396 -0.38197973 1.9767393 4.7655414e-39
-0.68071145 -0.35817048 1.9690001 4.7655414e-39
-0.65726852 -0.34805349 1.970186 4.7655414e-39
-0.6381855 -0.35016146 1.9767001 4.7655414e-39
-0.64883244 -0.30566382 1.9690001 4.7655414e-39
-0.55586284 -0.27129143 1.9920001 4.7655414e-39
-0.1791309 0.23359406 1.9880003 4.7655414e-39
-0.17493221 0.25694752 1.9766703 4.7655414e-39
-0.15380654 0.27475134 1.9842004 4.7655414e-39
-0.2306543 0.30566382 1.9690001 4.7655414e-39
-0.16655524 0.28861621 1.9690001 4.7655414e-39
-0.14215173 0.30086395 1.9794168 4.7655414e-39
-0.11952001 0.31492573 1.9920001 4.7655414e-39
-0.13192081 0.33692491 1.972432 4.7655414e-39
-0.10844164 0.34460199 1.9883387 4.7655414e-39
-0.12587537 0.36918753 1.969 4.7655414e-39
-0.098784432 0.37815726 1.9765323 4.7655414e-39
-0.063049063 0.38497144 1.991585 4.7655414e-39
-0.088018343 0.41317111 1.970651 4.7655414e-39
-0.060344815 0.41574606 1.9821424 4.7655414e-39
-0.029785307 0.41848198 1.9899999 4.7655414e-39
0.0068297139 0.42458057 1.9920005 4.7655414e-39
-0.57476604 0.19531088 1.7609847 4.7655414e-39
-0.45140314 0.18249044 1.8418146 4.7655414e-39
-0.21749333 -0.80589044 2.039 4.7655414e-39
-0.18642287 -0.80394858 2.0389998 4.7655414e-39
-0.1310993 -0.80369395 2.037909 4.7655414e-39
-0.10044944 -0.80447823 2.0389998 4.7655414e-39
-0.10829761 -0.78295583 2.0210414 4.7655414e-39
-0.40082017 -0.63031316 1.9220076 4.7655414e-39
-0.3424964 -0.58764893 1.9203029 4.7655414e-39
-0.27523169 -0.5554769 1.9249921 4.7655414e-39
-0.31008166 -0.43292442 1.8951099 4.7655414e-39
-0.67711359 0.13726166 1.7270666 4.7655414e-39
-0.60746527 0.22740418 1.7240586 4.7655414e-39
-0.45913988 0.41254982 1.7299836 4.7655414e-39
-1.0405596 -0.5130592 1.7865461 4.7655414e-39
-0.55864406 -0.55641198 1.8678336 4.7655414e-39
-0.77153587 -0.1283517 1.7879851 4.7655414e-39
-0.86842149 -0.69764322 1.9923487 4.7655414e-39
-0.85988128 -0.7773518 2.0242393 4.7655414e-39
-0.8315919 -0.7761631 2.0380402 4.7655414e-39
-0.057061769 -0.79474843 2.0364289 4.7655414e-39
-0.0065460708 -0.79494572 2.0352497 4.7655414e-39
0.016052058 -0.7927683 2.0369518 4.7655414e-39
0.062658019 -0.79557371 2.0366929 4.7655414e-39
0.088499524 -0.776622 2.0296457 4.7655414e-39
0.10464706 -0.74985445 2.0182834 4.7655414e-39
0.12004743 -0.69942451 2.0043404 4.7655414e-39
0.17023362 -0.72109121 2.00934 4.7655414e-39
0.22110991 -0.78125763 2.0245535 4.7655414e-39
0.15371005 -0.69743192 1.9843744 4.7655414e-39
0.22902779 -0.71185255 1.9887707 4.7655414e-39
0.37928617 -0.77538621 2.0192778 4.7655414e-39
0.42034626 -0.77471495 2.0179675 4.7655414e-39
0.39021194 -0.73575157 2.0056362 4.7655414e-39
0.49900934 -0.77166724 2.016715 4.7655414e-39
0.53876257 -0.76968366 2.0128624 4.7655414e-39
0.5800724 -0.77305824 2.0118644 4.7655414e-39
0.62034732 -0.76866269 2.0090945 4.7655414e-39
0.64952087 -0.76656884 2.010304 4.7655414e-39
0.71106499 -0.76447827 2.003 4.7655414e-39
1.0282067 -0.76114005 2.003 4.7655414e-39
-0.89236647 -0.7451691 2.0029991 4.7655414e-39
-0.86079842 -0.74390811 2.0083025 4.7655414e-39
-0.82086855 -0.73780882 2.0276475 4.7655414e-39
-0.78867579 -0.7297889 2.0390007 4.7655414e-39
0.34169433 -0.75867724 2.0270002 4.7655414e-39
0.37907955 -0.75913292 2.0360003 4.7655414e-39
0.43692857 -0.75928479 2.039 4.7655414e-39
0.49822265 -0.75872338 2.0374999 4.7655414e-39
0.54243058 -0.75605428 2.0273533 4.7655414e-39
0.58199334 -0.75202441 2.023 4.7655414e-39
0.62182105 -0.75381815 2.0241768 4.7655414e-39
0.66319114 -0.74833173 2.0205886 4.7655414e-39
0.70080519 -0.74058181 2.0225387 4.7655414e-39
0.73920947 -0.73824942 2.0166173 4.7655414e-39
0.77936488 -0.73434806 2.0178113 4.7655414e-39
0.81873649 -0.73249209 2.022222 4.7655414e-39
0.85225111 -0.72556293 2.0203335 4.7655414e-39
0.90073144 -0.72521287 2.0206003 4.7655414e-39
0.94519955 -0.72391266 2.0093529 4.7655414e-39
0.97305477 -0.72417158 2.0100586 4.7655414e-39
1.0247228 -0.74224544 2.0058465 4.7655414e-39
1.052493 -0.73325932 2.0238423 4.7655414e-39
-0.88322765 -0.71917236 2.003 4.7655414e-39
-0.85520053 -0.69921577 2.0029995 4.7655414e-39
-0.82307899 -0.70067811 2.0142429 4.7655414e-39
-0.78487039 -0.69672918 2.0311148 4.7655414e-39
-0.75475371 -0.68290323 2.039 4.7655414e-39
0.78026313 -0.71427691 2.0377369 4.7655414e-39
0.82090479 -0.71471429 2.0382941 4.7655414e-39
0.86526549 -0.70924914 2.0289261 4.7655414e-39
0.90150738 -0.70269358 2.0270956 4.7655414e-39
0.93872279 -0.70330948 2.0219917 4.7655414e-39
0.97844076 -0.70263159 2.0264771 4.7655414e-39
1.0195101 -0.7115261 2.0248184 4.7655414e-39
1.0496947 -0.71075708 2.0335457 4.7655414e-39
-0.84380352 -0.67402542 2.0030003 4.7655414e-39
-0.82006919 -0.66310906 2.0079708 4.7655414e-39
-0.77776539 -0.66106844 2.0177269 4.7655414e-39
-0.74666768 -0.65661716 2.0388269 4.7655414e-39
0.90557492 -0.67772478 2.039 4.7655414e-39
0.97289425 -0.67772478 2.039 4.7655414e-39
-0.81141144 -0.63164634 2.003 4.7655414e-39
-0.77271914 -0.62265176 2.0060418 4.7655414e-39
-0.73992443 -0.61752254 2.0277324 4.7655414e-39
-0.71364999 -0.60296142 2.039 4.7655414e-39
-0.76241177 -0.59581304 2.003 4.7655414e-39
-0.73892617 -0.5818668 2.0185878 4.7655414e-39
-0.70431507 -0.57580245 2.0371675 4.7655414e-39
-0.73247689 -0.54866064 2.0029991 4.7655414e-39
-0.70140976 -0.53992772 2.0233805 4.7655414e-39
-0.6665588 -0.5247997 2.0389998 4.7655414e-39
-0.72489524 -0.51696473 2.003 4.7655414e-39
-0.69519043 -0.50110024 2.0157924 4.7655414e-39
-0.66164356 -0.49960443 2.0375888 4.7655414e-39
-0.62612563 -0.48963749 2.0389998 4.7655414e-39
-0.72298765 -0.47499713 2.003 4.7655414e-39
-0.69008553 -0.4675028 2.0047553 4.7655414e-39
-0.66004157 -0.45914567 2.0176179 4.7655414e-39
-0.6248244 -0.46153969 2.0313485 4.7655414e-39
-0.65826768 -0.42947465 2.0045261 4.7655414e-39
-0.63748479 -0.4302642 2.0150001 4.7655414e-39
-0.64477527 -0.3796162 2.003 4.7655414e-39
-0.56121045 -0.36507809 2.039 4.7655414e-39
-0.54829329 -0.36988339 2.0362732 4.7655414e-39
-0.56343061 -0.33580256 2.0362306 4.7655414e-39
-0.55268031 -0.34265876 2.033462 4.7655414e-39
1.0533447 -0.32207879 2.039 4.7655414e-39
-0.56328046 -0.29322243 2.0255003 4.7655414e-39
-0.55248189 -0.30206355 2.0165997 4.7655414e-39
1.0376244 -0.2886965 2.039 4.7655414e-39
1.0475556 -0.2996054 2.0330007 4.7655414e-39
-0.56228095 -0.27826193 2.0150001 4.7655414e-39
-0.55844289 -0.27826193 2.0150001 4.7655414e-39
1.0251096 -0.24856935 2.0350003 4.7655414e-39
1.0514854 -0.26141384 2.0379343 4.7655414e-39
1.0507814 -0.23482487 2.0346363 4.7655414e-39
-0.26866668 -0.12090001 2.0150001 4.7655414e-39
-0.28495821 -0.10731101 2.0323336 4.7655414e-39
-0.27185398 -0.1042256 2.0194571 4.7655414e-39
-0.2427381 0.060199048 2.039 4.7655414e-39
-0.22331904 0.056315243 2.039 4.7655414e-39
-0.21197347 0.10596322 2.0335147 4.7655414e-39
-0.19095397 0.11543546 2.0389998 4.7655414e-39
-0.20351163 0.12700059 2.0389998 4.7655414e-39
-0.18366593 0.14122289 2.0301502 4.7655414e-39
-0.17793576 0.17852186 2.0186825 4.7655414e-39
-0.1460001 0.19063145 2.0306282 4.7655414e-39
-0.17275006 0.21533416 2.0031924 4.7655414e-39
-0.14026399 0.22052899 2.0180237 4.7655414e-39
-0.11065065 0.22853278 2.0320914 4.7655414e-39
-0.16214763 0.24799046 2.003 4.7655414e-39
-0.13851626 0.2593303 2.0092919 4.7655414e-39
-0.1036067 0.26356885 2.0321431 4.7655414e-39
-0.065296546 0.27332309 2.0389998 4.7655414e-39
-0.12581883 0.29022333 2.0053995 4.7655414e-39
-0.099771909 0.29979375 2.0142286 4.7655414e-39
-0.057917923 0.30081472 2.0369554 4.7655414e-39
-0.036896192 0.30682096 2.039 4.7655414e-39
-0.093199633 0.33570772 2.0073631 4.7655414e-39
-0.059293445 0.33881155 2.0187204 4.7655414e-39
-0.025430264 0.34477493 2.0349362 4.7655414e-39
-0.055690363 0.37370449 2.0037374 4.7655414e-39
-0.020067982 0.38046527 2.0228536 4.7655414e-39
0.0055972543 0.38872361 2.0389998 4.7655414e-39
-0.040059999 0.4025076 2.003 4.7655414e-39
-0.013394814 0.41229576 2.0118885 4.7655414e-39
0.012157148 0.41391787 2.0319097 4.7655414e-39
-0.54564172 -0.21181233 1.9279697 4.7655414e-39
-0.64460838 -0.35859272 1.9274094 4.7655414e-39
-0.5736019 -0.58383703 1.9932792 4.7655414e-39
-0.67941529 -0.76447678 2.0548887 4.7655414e-39
-0.64974433 -0.737957 2.0528386 4.7655414e-39
-0.60949135 -0.67571729 2.0444705 4.7655414e-39
-0.46214971 -0.57289547 2.0544341 4.7655414e-39
-0.35758421 -0.39390877 2.0246685 4.7655414e-39
-0.41939089 -0.71970326 2.0303974 4.7655414e-39
-0.44249633 -0.76072782 2.0473156 4.7655414e-39
-0.27294961 -0.79618859 2.0605426 4.7655414e-39
-0.23866142 -0.7977522 2.058795 4.7655414e-39
-0.16949297 -0.79693329 2.0630798 4.7655414e-39
-0.01691604 -0.78656077 2.0493419 4.7655414e-39
-0.10030159 -0.7784124 2.0466902 4.7655414e-39
-0.12081528 -0.77026969 2.0445025 4.7655414e-39
-0.26912346 -0.76105255 2.0449116 4.7655414e-39
-0.15928923 -0.76757902 2.0503755 4.7655414e-39
-0.076180004 -0.80282003 2.0510001 4.7655414e-39
-0.029300002 -0.80282003 2.0510004 4.7655414e-39
-0.84709561 -0.79696012 2.0510004 4.7655414e-39
-0.81749582 -0.78289372 2.0523007 4.7655414e-39
-0.78197235 -0.78021115 2.0691521 4.7655414e-39
-0.7534799 -0.77404302 2.0724139 4.7655414e-39
-0.42904001 -0.79678869 2.0760002 4.7655414e-39
-0.37112099 -0.79750603 2.0727501 4.7655414e-39
-0.33475369 -0.79774517 2.0716667 4.7655414e-39
-0.29415503 -0.7966091 2.0714502 4.7655414e-39
-0.25486624 -0.79506272 2.0642898 4.7655414e-39
-0.21864921 -0.79261625 2.0658591 4.7655414e-39
-0.18014513 -0.79410607 2.0645587 4.7655414e-39
-0.13997832 -0.79052591 2.0645139 4.7655414e-39
-0.098859191 -0.79207581 2.0694368 4.7655414e-39
-0.058743674 -0.78167921 2.0597596 4.7655414e-39
-0.021669453 -0.78543591 2.0600843 4.7655414e-39
0.022163153 -0.7794646 2.0613871 4.7655414e-39
0.057242185 -0.78153962 2.0620933 4.7655414e-39
0.098357834 -0.77727503 2.0600011 4.7655414e-39
0.14161164 -0.7691111 2.0658073 4.7655414e-39
0.18073216 -0.76934963 2.0651593 4.7655414e-39
0.21927646 -0.76989758 2.0655763 4.7655414e-39
0.26084453 -0.76691431 2.0627637 4.7655414e-39
0.29886672 -0.76756036 2.0639844 4.7655414e-39
0.33230481 -0.76482069 2.0573997 4.7655414e-39
0.38619232 -0.76303899 2.0570002 4.7655414e-39
0.41915008 -0.76347649 2.0565996 4.7655414e-39
0.46290156 -0.76442868 2.0559413 4.7655414e-39
0.48886037 -0.76397228 2.0560005 4.7655414e-39
0.52544665 -0.76375335 2.0510001 4.7655414e-39
-0.81174958 -0.75817239 2.0510004 4.7655414e-39
-0.77682197 -0.74326092 2.0527806 4.7655414e-39
-0.75179166 -0.7365784 2.0671444 4.7655414e-39
0.14159386 -0.75633335 2.0760002 4.7655414e-39
0.1783136 -0.75267375 2.0760002 4.7655414e-39
0.22100067 -0.75526851 2.0760002 4.7655414e-39
0.26592574 -0.75625724 2.0760002 4.7655414e-39
0.30615374 -0.75228894 2.072 4.7655414e-39
0.34052014 -0.74981719 2.068094 4.7655414e-39
0.37896979 -0.75101954 2.0663786 4.7655414e-39
0.42146379 -0.74897873 2.0680156 4.7655414e-39
0.45958346 -0.74625206 2.0667665 4.7655414e-39
0.50195295 -0.74728256 2.0634291 4.7655414e-39
0.53924668 -0.74271047 2.0605931 4.7655414e-39
0.58016342 -0.74045241 2.0595407 4.7655414e-39
0.62187338 -0.73801458 2.0619357 4.7655414e-39
0.65925187 -0.73523062 2.0593202 4.7655414e-39
0.6980902 -0.72620541 2.0584321 4.7655414e-39
0.74012721 -0.72556084 2.0527878 4.7655414e-39
0.77249223 -0.72515517 2.0523336 4.7655414e-39
0.82821339 -0.72468674 2.0510001 4.7655414e-39
-0.76717162 -0.70857167 2.0510004 4.7655414e-39
-0.74303114 -0.69981432 2.0629797 4.7655414e-39
0.70745057 -0.71428043 2.0645909 4.7655414e-39
0.74469972 -0.71074557 2.0658233 4.7655414e-39
0.77636671 -0.71133143 2.0565758 4.7655414e-39
0.82235456 -0.70591015 2.0574296 4.7655414e-39
0.86125648 -0.69611293 2.055882 4.7655414e-39
0.89767075 -0.68448412 2.0600541 4.7655414e-39
0.941365 -0.68620592 2.0682313 4.7655414e-39
0.97650403 -0.68674177 2.0674579 4.7655414e-39
1.0222814 -0.69340926 2.0657001 4.7655414e-39
1.0548412 -0.69914889 2.0674253 4.7655414e-39
1.0814973 -0.70386291 2.0760002 4.7655414e-39
-0.73046428 -0.66629565 2.0567968 4.7655414e-39
-0.702277 -0.6549527 2.07004 4.7655414e-39
-0.67750108 -0.65048003 2.0760002 4.7655414e-39
0.8936435 -0.67563653 2.0703335 4.7655414e-39
0.94561362 -0.67672223 2.0760002 4.7655414e-39
0.98430151 -0.67585212 2.0746844 4.7655414e-39
1.0175411 -0.67506534 2.0760002 4.7655414e-39
-0.7216481 -0.62919044 2.0510004 4.7655414e-39
-0.69896668 -0.62091887 2.0581582 4.7655414e-39
-0.6746664 -0.61284751 2.0737393 4.7655414e-39
-0.68943495 -0.58552504 2.051286 4.7655414e-39
-0.66812402 -0.57803243 2.0656416 4.7655414e-39
-0.6309284 -0.57600772 2.0760007 4.7655414e-39
-0.68301564 -0.54888672 2.0510004 4.7655414e-39
-0.6587913 -0.54387546 2.0603542 4.7655414e-39
-0.62300658 -0.53785104 2.0693393 4.7655414e-39
-0.59512001 -0.54371434 2.0760002 4.7655414e-39
-0.64477766 -0.5030722 2.0510006 4.7655414e-39
-0.61941159 -0.50223368 2.0583854 4.7655414e-39
-0.58904499 -0.49222162 2.0726879 4.7655414e-39
-0.55478638 -0.48123661 2.0760002 4.7655414e-39
-0.64655334 -0.47075334 2.0510001 4.7655414e-39
-0.60568517 -0.47553125 2.0582001 4.7655414e-39
-0.57913196 -0.4629322 2.0745704 4.7655414e-39
-0.55278015 -0.45720229 2.0760009 4.7655414e-39
1.0755658 -0.45474288 2.0760002 4.7655414e-39
-0.56875825 -0.42350402 2.0760002 4.7655414e-39
-0.55287063 -0.42289707 2.0749173 4.7655414e-39
1.0667827 -0.41666135 2.0745299 4.7655414e-39
-0.56350595 -0.37967169 2.0536671 4.7655414e-39
-0.55280983 -0.39112023 2.0587649 4.7655414e-39
1.0368704 -0.37142044 2.0760002 4.7655414e-39
1.0578966 -0.37899074 2.0703459 4.7655414e-39
-0.56581557 -0.35420448 2.0510004 4.7655414e-39
1.0389061 -0.34458038 2.0673337 4.7655414e-39
1.0536219 -0.34016851 2.0657697 4.7655414e-39
1.0367799 -0.29466394 2.071455 4.7655414e-39
1.0447452 -0.3010723 2.066838 4.7655414e-39
1.0274421 -0.26321 2.0710015 4.7655414e-39
1.0448625 -0.26510689 2.0565515 4.7655414e-39
-0.26652667 -0.087143607 2.0687621 4.7655414e-39
-0.23923431 -0.081062868 2.0760002 4.7655414e-39
-0.24993412 -0.071346782 2.0681109 4.7655414e-39
-0.23589405 -0.071515791 2.0615716 4.7655414e-39
-0.2085202 0.034046985 2.0623336 4.7655414e-39
-0.19407411 0.033937145 2.0736365 4.7655414e-39
-0.24312943 0.06706138 2.0542731 4.7655414e-39
-0.2181568 0.059524789 2.0544286 4.7655414e-39
-0.18474698 0.061886385 2.0687814 4.7655414e-39
-0.1561943 0.073154293 2.0760002 4.7655414e-39
-0.21271801 0.088486031 2.0510004 4.7655414e-39
-0.17836088 0.098121904 2.0575242 4.7655414e-39
-0.15058377 0.10511859 2.0690901 4.7655414e-39
-0.20900668 0.12892 2.0510001 4.7655414e-39
-0.16663438 0.13613231 2.0509999 4.7655414e-39
-0.14043593 0.14084478 2.0625582 4.7655414e-39
-0.11100294 0.14941205 2.0716667 4.7655414e-39
-0.16505668 0.16896334 2.0510001 4.7655414e-39
-0.1382459 0.17395005 2.0515463 4.7655414e-39
-0.10239378 0.1811316 2.0668082 4.7655414e-39
-0.065870084 0.19532095 2.0760002 4.7655414e-39
-0.12306001 0.2051 2.0510001 4.7655414e-39
-0.096119009 0.21668264 2.0581434 4.7655414e-39
-0.059969347 0.2211107 2.0646932 4.7655414e-39
-0.037565719 0.23264384 2.0760002 4.7655414e-39
-0.088922031 0.25101379 2.0521247 4.7655414e-39
-0.058666695 0.25851455 2.0557578 4.7655414e-39
-0.024707342 0.26447865 2.0699446 4.7655414e-39
-0.069929332 0.29604715 2.0509996 4.7655414e-39
-0.020230748 0.30124465 2.060153 4.7655414e-39
0.005321173 0.31071505 2.0740001 4.7655414e-39
-0.011521611 0.33337846 2.0514905 4.7655414e-39
0.017232459 0.34387398 2.0617027 4.7655414e-39
0.041520003 0.34995431 2.0760002 4.7655414e-39
-0.0019533334 0.36918002 2.0510001 4.7655414e-39
0.021887572 0.37824467 2.0561166 4.7655414e-39
0.053609181 0.38117555 2.0703657 4.7655414e-39
0.027901363 0.40630889 2.0514798 4.7655414e-39
0.045281824 0.40469518 2.0510006 4.7655414e-39
-0.61887342 -0.61559838 2.0117602 4.7655414e-39
-0.6132533 -0.74147093 2.0580435 4.7655414e-39
-0.57480586 -0.80280262 2.0902302 4.7655414e-39
-0.68289131 -0.79366839 2.0858488 4.7655414e-39
-0.61936307 -0.80502868 2.0985234 4.7655414e-39
-0.57950228 -0.80735695 2.0969646 4.7655414e-39
-0.53892082 -0.80590129 2.0987794 4.7655414e-39
-0.50035208 -0.80937541 2.0990872 4.7655414e-39
-0.46735284 -0.80925405 2.097333 4.7655414e-39
-0.41751945 -0.80297393 2.0921366 4.7655414e-39
-0.3909395 -0.80267179 2.0898576 4.7655414e-39
-0.33783999 -0.80161387 2.090889 4.7655414e-39
-0.27243429 -0.80139434 2.0880001 4.7655414e-39
-0.73677081 -0.78042287 2.094713 4.7655414e-39
-0.71027923 -0.78025371 2.108799 4.7655414e-39
-0.61406672 -0.7987901 2.1140001 4.7655414e-39
-0.58168298 -0.79656547 2.1133807 4.7655414e-39
-0.54327017 -0.79671252 2.110862 4.7655414e-39
-0.50252795 -0.79848808 2.1140001 4.7655414e-39
-0.4484677 -0.7931416 2.1079998 4.7655414e-39
-0.41986832 -0.79155016 2.108515 4.7655414e-39
-0.38106549 -0.79264522 2.105799 4.7655414e-39
-0.34007454 -0.79221916 2.1072164 4.7655414e-39
-0.29990017 -0.79141158 2.1043539 4.7655414e-39
-0.25861561 -0.78266871 2.1034818 4.7655414e-39
-0.22102827 -0.7761116 2.1018658 4.7655414e-39
-0.18032983 -0.77712977 2.1025746 4.7655414e-39
-0.14005458 -0.77320069 2.1027644 4.7655414e-39
-0.10059373 -0.77516603 2.1026042 4.7655414e-39
-0.061191708 -0.76766235 2.0932496 4.7655414e-39
-0.018739203 -0.76974797 2.0931993 4.7655414e-39
0.017520258 -0.76755685 2.0931454 4.7655414e-39
0.062239707 -0.76702917 2.0898056 4.7655414e-39
0.099634677 -0.76708972 2.0932548 4.7655414e-39
0.24459429 -0.76162291 2.0880001 4.7655414e-39
-0.73289847 -0.74062186 2.0892177 4.7655414e-39
-0.70207697 -0.73817503 2.1008592 4.7655414e-39
-0.67483282 -0.72864372 2.1140003 4.7655414e-39
-0.24361333 -0.75902671 2.1140001 4.7655414e-39
-0.23354667 -0.75902671 2.1140001 4.7655414e-39
-0.17268208 -0.75685847 2.1140003 4.7655414e-39
-0.14912091 -0.75634229 2.1140003 4.7655414e-39
-0.056530885 -0.75329304 2.1066663 4.7655414e-39
-0.020740476 -0.75280559 2.1069574 4.7655414e-39
0.018814228 -0.75673145 2.1096668 4.7655414e-39
0.06339965 -0.75212741 2.1040173 4.7655414e-39
0.099124797 -0.75017726 2.1071794 4.7655414e-39
0.13869981 -0.74853092 2.1000569 4.7655414e-39
0.18057384 -0.74341488 2.0973504 4.7655414e-39
0.21948555 -0.74585575 2.0972843 4.7655414e-39
0.25993443 -0.74376172 2.0941963 4.7655414e-39
0.29854631 -0.74498534 2.0992422 4.7655414e-39
0.33923507 -0.7335583 2.1048126 4.7655414e-39
0.37989038 -0.73600966 2.1072581 4.7655414e-39
0.41886026 -0.73294079 2.1043754 4.7655414e-39
0.45950705 -0.73060042 2.1034756 4.7655414e-39
0.50161481 -0.73319525 2.1025512 4.7655414e-39
0.54186785 -0.72830552 2.0980453 4.7655414e-39
0.5784651 -0.72633642 2.0991035 4.7655414e-39
0.61695886 -0.72494781 2.0995562 4.7655414e-39
0.66331363 -0.72450912 2.0972261 4.7655414e-39
0.69522125 -0.72199214 2.0917146 4.7655414e-39
0.73776001 -0.72185147 2.0880001 4.7655414e-39
-0.72565567 -0.70421362 2.0880003 4.7655414e-39
-0.69951719 -0.69974017 2.0922081 4.7655414e-39
-0.66291106 -0.69936383 2.1119306 4.7655414e-39
-0.63587779 -0.69191563 2.1140003 4.7655414e-39
0.34226668 -0.71876007 2.1140001 4.7655414e-39
0.39058667 -0.71876007 2.1140001 4.7655414e-39
0.41743112 -0.71808898 2.1140003 4.7655414e-39
0.45098668 -0.71876007 2.1140001 4.7655414e-39
0.51440871 -0.71174777 2.1094117 4.7655414e-39
0.53810966 -0.71107161 2.1119096 4.7655414e-39
0.5829739 -0.713135 2.1106737 4.7655414e-39
0.62071717 -0.71432328 2.1073408 4.7655414e-39
0.66032314 -0.71380246 2.1112785 4.7655414e-39
0.69914067 -0.70665014 2.1051826 4.7655414e-39
0.73956907 -0.69982368 2.1000204 4.7655414e-39
0.78238702 -0.70193177 2.098804 4.7655414e-39
0.81805897 -0.69953656 2.0983989 4.7655414e-39
0.85971457 -0.69228852 2.1015811 4.7655414e-39
0.88847989 -0.68410939 2.090167 4.7655414e-39
0.93860573 -0.68208003 2.0880001 4.7655414e-39
0.97241145 -0.68208003 2.0880001 4.7655414e-39
1.0705221 -0.6928491 2.0905004 4.7655414e-39
1.0854596 -0.68973637 2.0968401 4.7655414e-39
-0.69211757 -0.67204237 2.0880003 4.7655414e-39
-0.6615712 -0.65991825 2.0971262 4.7655414e-39
-0.63434213 -0.65619016 2.1073332 4.7655414e-39
0.86935735 -0.67501545 2.1071579 4.7655414e-39
0.89989841 -0.67190534 2.0991418 4.7655414e-39
0.94010288 -0.6663149 2.1007249 4.7655414e-39
0.97886747 -0.66048634 2.0983984 4.7655414e-39
1.0168996 -0.66000581 2.0947397 4.7655414e-39
1.0574752 -0.6681338 2.1012313 4.7655414e-39
1.0904554 -0.66711956 2.110069 4.7655414e-39
-0.68208003 -0.63833147 2.0880001 4.7655414e-39
-0.6589849 -0.62263411 2.0920613 4.7655414e-39
-0.62643361 -0.61775142 2.0990131 4.7655414e-39
-0.59473866 -0.60440266 2.1140001 4.7655414e-39
0.98854667 -0.63822669 2.1140001 4.7655414e-39
1.0948032 -0.61509478 2.1108618 4.7655414e-39
-0.65403068 -0.58683795 2.0879998 4.7655414e-39
-0.61395603 -0.58251572 2.0929594 4.7655414e-39
-0.59033948 -0.5748499 2.1106565 4.7655414e-39
1.0771333 -0.56172001 2.1140001 4.7655414e-39
1.0930252 -0.57934624 2.112973 4.7655414e-39
-0.60842323 -0.54733437 2.0880003 4.7655414e-39
-0.57977581 -0.53997952 2.0964177 4.7655414e-39
-0.55103838 -0.53137088 2.1116781 4.7655414e-39
1.0720485 -0.53768343 2.1074049 4.7655414e-39
1.0843307 -0.53900713 2.0952802 4.7655414e-39
-0.57662159 -0.5063175 2.0888512 4.7655414e-39
-0.54244703 -0.50006586 2.1026056 4.7655414e-39
1.072183 -0.49791029 2.1022491 4.7655414e-39
1.0849028 -0.50346172 2.099762 4.7655414e-39
-0.58719677 -0.4502694 2.0880003 4.7655414e-39
-0.53972816 -0.46520895 2.0894768 4.7655414e-39
1.0641339 -0.45989048 2.1002414 4.7655414e-39
1.0837715 -0.47725713 2.0880001 4.7655414e-39
-0.58265144 -0.43748569 2.0880001 4.7655414e-39
-0.54486859 -0.43748569 2.0880001 4.7655414e-39
1.0365336 -0.40830582 2.1075001 4.7655414e-39
1.0509465 -0.42233327 2.095799 4.7655414e-39
1.0329003 -0.37971544 2.0989316 4.7655414e-39
1.0453169 -0.3857072 2.0886502 4.7655414e-39
1.031885 -0.337502 2.0976799 4.7655414e-39
1.0434005 -0.34148777 2.0890403 4.7655414e-39
-0.36391002 -0.28790668 2.1140001 4.7655414e-39
-0.35636002 -0.29596001 2.1140001 4.7655414e-39
1.0275137 -0.30185106 2.0985498 4.7655414e-39
1.040746 -0.29991278 2.0879998 4.7655414e-39
-0.36602399 -0.27663204 2.1140001 4.7655414e-39
0.98760831 -0.24618123 2.0891821 4.7655414e-39
1.0135679 -0.26304129 2.0986593 4.7655414e-39
-0.25592518 -0.12926608 2.1102853 4.7655414e-39
-0.23556001 -0.12793818 2.1140003 4.7655414e-39
-0.255559 -0.10190609 2.1009994 4.7655414e-39
-0.22481424 -0.097259998 2.1083772 4.7655414e-39
-0.19730666 -0.086573333 2.1140001 4.7655414e-39
-0.26209375 -0.074372575 2.0880001 4.7655414e-39
-0.21873923 -0.077330858 2.1036003 4.7655414e-39
-0.17784445 -0.044964444 2.1140001 4.7655414e-39
-0.17498212 -0.015707256 2.1096661 4.7655414e-39
-0.15010519 -0.0033555555 2.1140001 4.7655414e-39
-0.17431678 0.020693855 2.0999005 4.7655414e-39
-0.14546601 0.022368025 2.1106157 4.7655414e-39
-0.1683128 0.053157117 2.091152 4.7655414e-39
-0.13989627 0.059891071 2.1017866 4.7655414e-39
-0.11090112 0.06098723 2.1139991 4.7655414e-39
-0.1610743 0.081531428 2.0880001 4.7655414e-39
-0.13356431 0.09758693 2.0953991 4.7655414e-39
-0.10185941 0.10198808 2.1109986 4.7655414e-39
-0.065917812 0.10795543 2.1111732 4.7655414e-39
-0.12660572 0.12329143 2.0880003 4.7655414e-39
-0.096523963 0.13674374 2.0980911 4.7655414e-39
-0.060848683 0.14091891 2.1047907 4.7655414e-39
-0.030596504 0.15347123 2.1111109 4.7655414e-39
-0.084182866 0.17088458 2.0879998 4.7655414e-39
-0.058801323 0.17717047 2.0908055 4.7655414e-39
-0.025750587 0.18195269 2.1047134 4.7655414e-39
-0.044411428 0.20614858 2.0880001 4.7655414e-39
-0.020533996 0.22000848 2.0976439 4.7655414e-39
0.011568415 0.23290017 2.1096666 4.7655414e-39
-0.012430429 0.25091052 2.0892999 4.7655414e-39
0.017882813 0.26168081 2.0998034 4.7655414e-39
0.048786987 0.27210623 2.1133807 4.7655414e-39
-0.0041579218 0.28906599 2.0879998 4.7655414e-39
0.021613616 0.29779148 2.0942099 4.7655414e-39
0.049436927 0.30051577 2.1096661 4.7655414e-39
0.027418183 0.32811424 2.0880003 4.7655414e-39
0.059070431 0.34074521 2.1007252 4.7655414e-39
0.097638346 0.35325778 2.1091251 4.7655414e-39
0.067354813 0.36687049 2.0980003 4.7655414e-39
0.094824031 0.36826307 2.108428 4.7655414e-39
-0.69064307 -0.80418134 2.1320865 4.7655414e-39
-0.66330963 -0.80760467 2.1320727 4.7655414e-39
-0.62299925 -0.80089378 2.1270003 4.7655414e-39
-0.57462764 -0.80015725 2.1270003 4.7655414e-39
-0.52465999 -0.80218291 2.1270001 4.7655414e-39
-0.49505341 -0.80171561 2.1270003 4.7655414e-39
-0.47118115 -0.80380356 2.1270003 4.7655414e-39
-0.69352388 -0.78255486 2.1359651 4.7655414e-39
-0.65931553 -0.77857071 2.1370966 4.7655414e-39
-0.62132776 -0.7811597 2.1406128 4.7655414e-39
-0.57961732 -0.78439057 2.1385186 4.7655414e-39
-0.54051483 -0.78560913 2.1385751 4.7655414e-39
-0.5006783 -0.7862348 2.1396747 4.7655414e-39
-0.46151954 -0.78285843 2.1399996 4.7655414e-39
-0.42126128 -0.77521718 2.1375144 4.7655414e-39
-0.37863049 -0.77522421 2.1387465 4.7655414e-39
-0.34100571 -0.77376658 2.1367061 4.7655414e-39
-0.30035955 -0.77370703 2.1389995 4.7655414e-39
-0.26724127 -0.76864588 2.1352103 4.7655414e-39
-0.21668035 -0.76250315 2.138088 4.7655414e-39
-0.19398512 -0.7620399 2.1400001 4.7655414e-39
-0.12485789 -0.7616092 2.1414444 4.7655414e-39
-0.10115246 -0.76356465 2.1399999 4.7655414e-39
-0.077946864 -0.76111335 2.1426001 4.7655414e-39
-0.68698722 -0.74991947 2.1270006 4.7655414e-39
-0.65857226 -0.74162972 2.1350627 4.7655414e-39
-0.62374443 -0.73717362 2.1446564 4.7655414e-39
-0.59668857 -0.72586858 2.1530001 4.7655414e-39
-0.36293429 -0.75662571 2.1530001 4.7655414e-39
-0.35419694 -0.75650263 2.14975 4.7655414e-39
-0.30552098 -0.75662571 2.1530001 4.7655414e-39
-0.25217256 -0.75502408 2.1445 4.7655414e-39
-0.22043326 -0.75320685 2.1485527 4.7655414e-39
-0.18000869 -0.75199538 2.1457198 4.7655414e-39
-0.13908523 -0.75051695 2.1458905 4.7655414e-39
-0.10251163 -0.75036645 2.1516666 4.7655414e-39
-0.059251707 -0.73934066 2.1431704 4.7655414e-39
-0.020234108 -0.73677635 2.1412854 4.7655414e-39
0.02108423 -0.74101549 2.1424212 4.7655414e-39
0.05927432 -0.74002647 2.1422834 4.7655414e-39
0.10135965 -0.73519903 2.1392119 4.7655414e-39
0.13944426 -0.73260587 2.1342216 4.7655414e-39
0.17913164 -0.73168254 2.1345994 4.7655414e-39
0.2203328 -0.73150051 2.1348784 4.7655414e-39
0.2581282 -0.73021698 2.1347539 4.7655414e-39
0.3005659 -0.7295934 2.1307495 4.7655414e-39
0.33424288 -0.72419286 2.1270001 4.7655414e-39
0.37712047 -0.7245304 2.1270003 4.7655414e-39
0.46157351 -0.72318012 2.1270001 4.7655414e-39
0.49382415 -0.72610605 2.1270001 4.7655414e-39
-0.65354615 -0.70900005 2.1270003 4.7655414e-39
-0.61822426 -0.7013151 2.1353469 4.7655414e-39
-0.59013706 -0.69740635 2.1480474 4.7655414e-39
-0.050236668 -0.71817935 2.1530001 4.7655414e-39
-0.024419308 -0.71897155 2.1530001 4.7655414e-39
0.031782381 -0.7197172 2.1530001 4.7655414e-39
0.14444251 -0.71609521 2.1513751 4.7655414e-39
0.17964545 -0.71636868 2.149657 4.7655414e-39
0.21521132 -0.71509933 2.1467094 4.7655414e-39
0.26281422 -0.7121768 2.1450868 4.7655414e-39
0.3013733 -0.71432716 2.1441362 4.7655414e-39
0.34043926 -0.71164721 2.1343961 4.7655414e-39
0.38225988 -0.71232939 2.1399996 4.7655414e-39
0.42118415 -0.70996028 2.1379855 4.7655414e-39
0.45808876 -0.71116114 2.1384306 4.7655414e-39
0.5005635 -0.70942825 2.1378965 4.7655414e-39
0.54149383 -0.69663769 2.1419826 4.7655414e-39
0.57948464 -0.69972104 2.1430871 4.7655414e-39
0.61987466 -0.69994247 2.1394796 4.7655414e-39
0.65964967 -0.69937766 2.1403127 4.7655414e-39
0.70091718 -0.69274735 2.1404557 4.7655414e-39
0.73520166 -0.68974859 2.1361349 4.7655414e-39
0.78003174 -0.68822205 2.1429431 4.7655414e-39
0.81891555 -0.68777943 2.1399994 4.7655414e-39
0.84862328 -0.68539757 2.1306112 4.7655414e-39
-0.61510843 -0.66171032 2.1281228 4.7655414e-39
-0.58061832 -0.65937179 2.1422319 4.7655414e-39
-0.55795747 -0.65843076 2.1530001 4.7655414e-39
0.71899295 -0.67186904 2.1508334 4.7655414e-39
0.73800462 -0.67576993 2.1474285 4.7655414e-39
0.78253633 -0.67330188 2.1530001 4.7655414e-39
0.82055032 -0.66915828 2.1517813 4.7655414e-39
0.86032248 -0.66831869 2.1432931 4.7655414e-39
0.90192908 -0.66480809 2.1436322 4.7655414e-39
0.93828475 -0.65025145 2.1339996 4.7655414e-39
0.97792113 -0.64586771 2.1280398 4.7655414e-39
1.0234959 -0.64581627 2.1285756 4.7655414e-39
1.0632609 -0.65170676 2.1325366 4.7655414e-39
1.0927387 -0.64965779 2.1300228 4.7655414e-39
-0.61131155 -0.62774426 2.1280258 4.7655414e-39
-0.57887459 -0.62034392 2.1360197 4.7655414e-39
-0.54903674 -0.61234581 2.1523955 4.7655414e-39
0.94212955 -0.63630402 2.1430001 4.7655414e-39
0.98131359 -0.63563108 2.1383333 4.7655414e-39
1.0203336 -0.63044226 2.1448224 4.7655414e-39
1.0618114 -0.62088311 2.1424997 4.7655414e-39
1.0902704 -0.62104952 2.1348486 4.7655414e-39
-0.57500881 -0.58378369 2.1281462 4.7655414e-39
-0.54036736 -0.5783549 2.1430671 4.7655414e-39
-0.50819093 -0.56448054 2.1461174 4.7655414e-39
1.0676212 -0.57909226 2.1414216 4.7655414e-39
1.0885485 -0.58445156 2.1344745 4.7655414e-39
-0.56112289 -0.55302 2.1270001 4.7655414e-39
-0.53574097 -0.54151773 2.129072 4.7655414e-39
-0.50366515 -0.53992063 2.1458952 4.7655414e-39
-0.47776097 -0.52492189 2.1530001 4.7655414e-39
1.0395916 -0.52697241 2.1530004 4.7655414e-39
1.0555221 -0.53813809 2.1350241 4.7655414e-39
1.0857829 -0.5206086 2.1270001 4.7655414e-39
-0.52364713 -0.50668186 2.1270003 4.7655414e-39
-0.49964264 -0.50828797 2.1401997 4.7655414e-39
-0.46117574 -0.5017817 2.1471131 4.7655414e-39
-0.42923304 -0.49894923 2.1530001 4.7655414e-39
1.0373886 -0.50147772 2.1470416 4.7655414e-39
1.0555413 -0.50120497 2.1334295 4.7655414e-39
1.0311836 -0.45535883 2.140481 4.7655414e-39
1.0483706 -0.46360368 2.1310441 4.7655414e-39
1.0272766 -0.41786227 2.1398518 4.7655414e-39
1.0439183 -0.43282765 2.1270001 4.7655414e-39
-0.36393604 -0.36735353 2.1508336 4.7655414e-39
-0.35473242 -0.3670353 2.1530001 4.7655414e-39
1.0224422 -0.37869531 2.1357138 4.7655414e-39
-0.3663137 -0.3429876 2.1437914 4.7655414e-39
-0.34268445 -0.33965653 2.1456447 4.7655414e-39
0.99656391 -0.32400256 2.1486669 4.7655414e-39
1.0207773 -0.34110275 2.1349189 4.7655414e-39
1.0447621 -0.34791645 2.1270001 4.7655414e-39
-0.36509606 -0.30245477 2.1270003 4.7655414e-39
-0.34055001 -0.30011022 2.1319394 4.7655414e-39
-0.31497249 -0.29163998 2.1484118 4.7655414e-39
0.98865277 -0.30136806 2.144186 4.7655414e-39
1.0125996 -0.29935998 2.1316979 4.7655414e-39
-0.36260286 -0.27549714 2.1270001 4.7655414e-39
-0.3545 -0.27752286 2.1270003 4.7655414e-39
0.98909533 -0.26298881 2.1379998 4.7655414e-39
1.0075281 -0.27267048 2.1290526 4.7655414e-39
-0.21653718 -0.16949065 2.1466665 4.7655414e-39
-0.1988962 -0.16403809 2.1530001 4.7655414e-39
-0.24142835 -0.14608358 2.13025 4.7655414e-39
-0.21825817 -0.14041018 2.140295 4.7655414e-39
-0.19128016 -0.13304664 2.1530001 4.7655414e-39
-0.20906708 -0.10678288 2.1313334 4.7655414e-39
-0.18241075 -0.099366136 2.1453731 4.7655414e-39
-0.15378572 -0.084069528 2.1530001 4.7655414e-39
-0.20452972 -0.07318572 2.1348002 4.7655414e-39
-0.17786211 -0.062339049 2.1364281 4.7655414e-39
-0.14661312 -0.056506455 2.1522641 4.7655414e-39
-0.16630203 -0.028676892 2.1274998 4.7655414e-39
-0.13798678 -0.021739172 2.1436341 4.7655414e-39
-0.10930419 -0.016833859 2.152658 4.7655414e-39
-0.064736471 -0.00732313 2.1530001 4.7655414e-39
-0.12757534 0.01343622 2.1306558 4.7655414e-39
-0.10212387 0.021927075 2.1439435 4.7655414e-39
-0.061407361 0.024408398 2.1514707 4.7655414e-39
-0.091939509 0.060324144 2.1309993 4.7655414e-39
-0.06126665 0.061253775 2.1446798 4.7655414e-39
-0.028637167 0.067886569 2.1515555 4.7655414e-39
-0.087555885 0.086205408 2.1270001 4.7655414e-39
-0.056073349 0.095091417 2.1313326 4.7655414e-39
-0.020994646 0.10041321 2.1458273 4.7655414e-39
0.0052050552 0.10867525 2.1530001 4.7655414e-39
-0.043552861 0.12660715 2.1270001 4.7655414e-39
-0.018685877 0.13624418 2.1339426 4.7655414e-39
0.0154639 0.14337903 2.1498485 4.7655414e-39
-0.0070958035 0.17519195 2.1298435 4.7655414e-39
0.020430105 0.17954683 2.1424696 4.7655414e-39
0.052044176 0.18835337 2.1522779 4.7655414e-39
-0.0026044899 0.20922737 2.1270001 4.7655414e-39
0.022280524 0.21651722 2.1350849 4.7655414e-39
0.0598884 0.22180688 2.1466413 4.7655414e-39
0.084069528 0.23990573 2.1530001 4.7655414e-39
0.034226499 0.2493377 2.1285298 4.7655414e-39
0.06346561 0.25842315 2.139071 4.7655414e-39
0.0934304 0.2629959 2.1530001 4.7655414e-39
0.070493966 0.30121163 2.1350939 4.7655414e-39
0.09812022 0.30165997 2.1476469 4.7655414e-39
0.13933472 0.30981722 2.1530001 4.7655414e-39
0.074214809 0.32687664 2.1270003 4.7655414e-39
0.10156649 0.33971149 2.1379633 4.7655414e-39
0.13432556 0.33924773 2.1485798 4.7655414e-39
0.09520857 0.36665431 2.1270001 4.7655414e-39
-0.61127436 -0.76701874 2.1719677 4.7655414e-39
-0.57906085 -0.7692588 2.1776428 4.7655414e-39
-0.54081315 -0.77112782 2.1792254 4.7655414e-39
-0.49836808 -0.77023613 2.1750171 4.7655414e-39
-0.46246099 -0.76883596 2.170125 4.7655414e-39
-0.41923803 -0.76567322 2.1670001 4.7655414e-39
-0.38696429 -0.76412553 2.1670001 4.7655414e-39
-0.33423889 -0.7664597 2.1670001 4.7655414e-39
-0.29869679 -0.76462758 2.1677368 4.7655414e-39
-0.27655047 -0.7656734 2.1670001 4.7655414e-39
-0.60987449 -0.7511611 2.1737199 4.7655414e-39
-0.57931125 -0.74017113 2.1850319 4.7655414e-39
-0.54414195 -0.74334264 2.1937969 4.7655414e-39
-0.49899724 -0.75424856 2.1913335 4.7655414e-39
-0.45965341 -0.74991387 2.1838522 4.7655414e-39
-0.41991365 -0.75215554 2.1804643 4.7655414e-39
-0.38004547 -0.75064182 2.1802456 4.7655414e-39
-0.34149539 -0.74668932 2.182549 4.7655414e-39
-0.30022916 -0.7477358 2.1819637 4.7655414e-39
-0.25834402 -0.74551445 2.181746 4.7655414e-39
-0.21933837 -0.73584145 2.1761329 4.7655414e-39
-0.18001238 -0.73281378 2.1755917 4.7655414e-39
-0.1423475 -0.73574591 2.1781185 4.7655414e-39
-0.097495288 -0.73773873 2.1793792 4.7655414e-39
-0.069655545 -0.72781533 2.1778333 4.7655414e-39
-0.014446667 -0.72150791 2.1670001 4.7655414e-39
0.01975479 -0.72225559 2.1760001 4.7655414e-39
0.060493033 -0.72562742 2.1783137 4.7655414e-39
0.099404857 -0.72399116 2.1777112 4.7655414e-39
0.12662515 -0.72377652 2.1726 4.7655414e-39
0.23527429 -0.72026956 2.1670001 4.7655414e-39
0.24146572 -0.72026956 2.1670001 4.7655414e-39
-0.57531571 -0.70474732 2.174 4.7655414e-39
-0.54173279 -0.6978991 2.1879127 4.7655414e-39
-0.51611239 -0.68327427 2.194 4.7655414e-39
-0.20268381 -0.71670663 2.194 4.7655414e-39
-0.05354587 -0.71423519 2.1854799 4.7655414e-39
-0.020339783 -0.71368724 2.1863079 4.7655414e-39
0.018797792 -0.71477294 2.1915913 4.7655414e-39
0.060964935 -0.71080697 2.194 4.7655414e-39
0.10194538 -0.70875615 2.19192 4.7655414e-39
0.14202674 -0.70028377 2.1807058 4.7655414e-39
0.17927913 -0.69965172 2.182812 4.7655414e-39
0.22012691 -0.70111752 2.1810238 4.7655414e-39
0.25641239 -0.70081455 2.1815155 4.7655414e-39
0.30228212 -0.7007221 2.1838801 4.7655414e-39
0.34018755 -0.69606727 2.175705 4.7655414e-39
0.37973115 -0.69467813 2.176548 4.7655414e-39
0.41962123 -0.69222927 2.174866 4.7655414e-39
0.46119925 -0.69268411 2.1734548 4.7655414e-39
0.49859357 -0.69503808 2.1756544 4.7655414e-39
0.53706086 -0.68751997 2.1747499 4.7655414e-39
0.58202887 -0.68558997 2.1702354 4.7655414e-39
0.61885518 -0.68767577 2.179553 4.7655414e-39
0.65741676 -0.68606168 2.1734722 4.7655414e-39
0.69653571 -0.68621647 2.1670001 4.7655414e-39
0.72026956 -0.68518478 2.1670001 4.7655414e-39
-0.53789896 -0.66067231 2.1794486 4.7655414e-39
-0.50721508 -0.65051574 2.194 4.7655414e-39
0.14835618 -0.67909521 2.194 4.7655414e-39
0.34552819 -0.67541498 2.1893573 4.7655414e-39
0.37880081 -0.67611021 2.194 4.7655414e-39
0.42397273 -0.67695862 2.1885264 4.7655414e-39
0.46473566 -0.67782193 2.1907499 4.7655414e-39
0.4927485 -0.67843139 2.1907501 4.7655414e-39
0.55133128 -0.67629009 2.1799047 4.7655414e-39
0.57894802 -0.67301005 2.1823673 4.7655414e-39
0.62424338 -0.67553735 2.1916788 4.7655414e-39
0.66184205 -0.67425114 2.1837442 4.7655414e-39
0.70177019 -0.67369181 2.1786168 4.7655414e-39
0.73968422 -0.66652024 2.1891079 4.7655414e-39
0.78002727 -0.66987437 2.1849723 4.7655414e-39
0.81858355 -0.65764838 2.1862333 4.7655414e-39
0.86029464 -0.6539008 2.1858749 4.7655414e-39
0.90023285 -0.65270448 2.1869826 4.7655414e-39
0.93295687 -0.64821655 2.1813591 4.7655414e-39
0.96792668 -0.64184475 2.1670001 4.7655414e-39
-0.53473544 -0.62391758 2.1725154 4.7655414e-39
-0.5012812 -0.61914468 2.1905634 4.7655414e-39
-0.47253692 -0.61516625 2.19192 4.7655414e-39
0.83511299 -0.63451868 2.194 4.7655414e-39
0.85943717 -0.63409013 2.1940002 4.7655414e-39
0.8922267 -0.63730472 2.194 4.7655414e-39
0.94706911 -0.62869614 2.1859424 4.7655414e-39
0.98051614 -0.62197834 2.1852453 4.7655414e-39
1.0144876 -0.61802024 2.1824386 4.7655414e-39
1.0515068 -0.61287338 2.1803584 4.7655414e-39
-0.52214384 -0.58818573 2.1670001 4.7655414e-39
-0.49871334 -0.5835799 2.1776874 4.7655414e-39
-0.46341267 -0.57842022 2.1850834 4.7655414e-39
-0.43671048 -0.56417143 2.194 4.7655414e-39
1.0374485 -0.59029043 2.194 4.7655414e-39
1.0545875 -0.58114934 2.1836312 4.7655414e-39
-0.48551366 -0.54726815 2.1684 4.7655414e-39
-0.45950097 -0.54116976 2.171771 4.7655414e-39
-0.42499447 -0.53664637 2.1836116 4.7655414e-39
1.0234611 -0.53218019 2.1916182 4.7655414e-39
1.0487754 -0.5458923 2.1859512 4.7655414e-39
-0.45238706 -0.51595229 2.1670001 4.7655414e-39
-0.41777292 -0.50818884 2.1726818 4.7655414e-39
-0.38106793 -0.4946757 2.1866043 4.7655414e-39
-0.35626382 -0.48685905 2.194 4.7655414e-39
1.0237981 -0.5003562 2.1848485 4.7655414e-39
1.0433025 -0.49592832 2.1787894 4.7655414e-39
-0.36804488 -0.47232684 2.1898949 4.7655414e-39
-0.35083491 -0.45245096 2.1911564 4.7655414e-39
0.993182 -0.44480237 2.1927001 4.7655414e-39
1.0174575 -0.46034446 2.1837854 4.7655414e-39
1.0406486 -0.47982001 2.181 4.7655414e-39
-0.3635 -0.42166004 2.1810002 4.7655414e-39
-0.34058002 -0.41960251 2.1824939 4.7655414e-39
-0.3132979 -0.40708572 2.1920002 4.7655414e-39
0.99217427 -0.42672285 2.1902859 4.7655414e-39
1.0112674 -0.42108694 2.1830308 4.7655414e-39
-0.36116666 -0.37974095 2.1670001 4.7655414e-39
-0.33748338 -0.38060409 2.1711497 4.7655414e-39
-0.30471721 -0.37906647 2.1853187 4.7655414e-39
-0.26536953 -0.36148763 2.194 4.7655414e-39
0.99049354 -0.37742153 2.1916366 4.7655414e-39
1.0099837 -0.38289273 2.1787207 4.7655414e-39
-0.32726121 -0.34524587 2.1670001 4.7655414e-39
-0.30017531 -0.34039381 2.1745412 4.7655414e-39
-0.26423761 -0.33835196 2.1847706 4.7655414e-39
0.98985922 -0.34067559 2.1833963 4.7655414e-39
1.0098156 -0.34639046 2.175842 4.7655414e-39
-0.32401809 -0.31576288 2.1670003 4.7655414e-39
-0.29803446 -0.30312178 2.1693349 4.7655414e-39
-0.25868729 -0.29952738 2.1743886 4.7655414e-39
-0.23341893 -0.29215631 2.1922669 4.7655414e-39
0.97693545 -0.29801622 2.178103 4.7655414e-39
-0.2916851 -0.27792636 2.1670001 4.7655414e-39
-0.2154796 -0.25917974 2.185909 4.7655414e-39
-0.19362922 -0.25004634 2.194 4.7655414e-39
0.97891802 -0.27026719 2.183465 4.7655414e-39
-0.20988443 -0.21926729 2.1793542 4.7655414e-39
-0.18904705 -0.21692137 2.1908481 4.7655414e-39
-0.20638101 -0.18761906 2.1670001 4.7655414e-39
-0.17878929 -0.18016091 2.1815507 4.7655414e-39
-0.15089995 -0.17361218 2.194 4.7655414e-39
-0.17567758 -0.14445871 2.1726122 4.7655414e-39
-0.14753014 -0.13562796 2.184463 4.7655414e-39
-0.11910286 -0.1232819 2.194 4.7655414e-39
-0.16598926 -0.10613879 2.1670001 4.7655414e-39
-0.1400733 -0.10034773 2.1751912 4.7655414e-39
-0.11403152 -0.10034921 2.1919687 4.7655414e-39
-0.068954289 -0.085670479 2.194 4.7655414e-39
-0.13183323 -0.065354563 2.1680501 4.7655414e-39
-0.10072307 -0.05764899 2.1812375 4.7655414e-39
-0.062583983 -0.056368869 2.1917968 4.7655414e-39
-0.039700951 -0.043880001 2.194 4.7655414e-39
-0.092426576 -0.022937316 2.1692581 4.7655414e-39
-0.059799612 -0.021937996 2.1823497 4.7655414e-39
-0.026489772 -0.016042147 2.194 4.7655414e-39
-0.083584279 0.012038889 2.1670001 4.7655414e-39
-0.05783179 0.010960221 2.1691539 4.7655414e-39
-0.020959545 0.020760337 2.1879094 4.7655414e-39
0.0071043815 0.029671237 2.194 4.7655414e-39
-0.014323308 0.055917237 2.1753206 4.7655414e-39
0.015207303 0.062311895 2.189635 4.7655414e-39
-0.0037148574 0.087918282 2.1670001 4.7655414e-39
0.022130199 0.098700389 2.1814029 4.7655414e-39
0.051790345 0.10984927 2.1940002 4.7655414e-39
0.030565266 0.13256638 2.1731765 4.7655414e-39
0.059568916 0.14170028 2.1858714 4.7655414e-39
0.089588337 0.15149048 2.194 4.7655414e-39
0.065235093 0.17587592 2.1755455 4.7655414e-39
0.092387304 0.18070267 2.1900163 4.7655414e-39
0.076360956 0.20638096 2.1670001 4.7655414e-39
0.098635033 0.22113593 2.1846466 4.7655414e-39
0.13537914 0.23149721 2.194 4.7655414e-39
0.10990667 0.25544849 2.1771305 4.7655414e-39
0.14028284 0.26047087 2.1878638 4.7655414e-39
0.17045182 0.26642725 2.1936176 4.7655414e-39
0.11426 0.28987139 2.1670001 4.7655414e-39
0.14099368 0.29753426 2.1721671 4.7655414e-39
0.17780295 0.30273041 2.1909413 4.7655414e-39
0.20268381 0.31760764 2.194 4.7655414e-39
0.14389992 0.33354735 2.1692581 4.7655414e-39
0.17675333 0.33011064 2.1846111 4.7655414e-39
0.20268381 0.3238762 2.194 4.7655414e-39
-0.56566858 -0.74651438 2.2080002 4.7655414e-39
-0.53222096 -0.73696488 2.2114377 4.7655414e-39
-0.50124115 -0.7361517 2.2222738 4.7655414e-39
-0.45855725 -0.73207086 2.2213795 4.7655414e-39
-0.42069715 -0.73614484 2.2249794 4.7655414e-39
-0.380656 -0.73327047 2.2233434 4.7655414e-39
-0.33918828 -0.72967488 2.2230785 4.7655414e-39
-0.29968098 -0.73142207 2.2253845 4.7655414e-39
-0.2612226 -0.72944313 2.211 4.7655414e-39
-0.22579636 -0.72412091 2.2088335 4.7655414e-39
-0.17784168 -0.72278219 2.2080002 4.7655414e-39
-0.1400582 -0.72629088 2.2089093 4.7655414e-39
-0.10229781 -0.72659874 2.2080002 4.7655414e-39
-0.07780572 -0.7254858 2.2080002 4.7655414e-39
-0.52886868 -0.7118172 2.2080002 4.7655414e-39
-0.50050241 -0.69960308 2.220335 4.7655414e-39
-0.4591316 -0.70094836 2.2337821 4.7655414e-39
-0.42585853 -0.71205258 2.2369998 4.7655414e-39
-0.37922475 -0.71797043 2.2369998 4.7655414e-39
-0.33493328 -0.71483094 2.2369998 4.7655414e-39
-0.30641258 -0.71471214 2.2369998 4.7655414e-39
-0.25856322 -0.70940071 2.228714 4.7655414e-39
-0.2204687 -0.70724595 2.2239339 4.7655414e-39
-0.18039513 -0.71035987 2.2243021 4.7655414e-39
-0.13966669 -0.71134323 2.2251697 4.7655414e-39
-0.10013397 -0.70985359 2.2225313 4.7655414e-39
-0.062009618 -0.70549375 2.2205644 4.7655414e-39
-0.018870391 -0.70116645 2.2200534 4.7655414e-39
0.020532561 -0.70159501 2.2198038 4.7655414e-39
