# .PCD v0.7 - Point Cloud Data file format
VERSION 0.7
FIELDS x y z rgb
SIZE 4 4 4 4
TYPE F F F F
COUNT 1 1 1 1
WIDTH 193
HEIGHT 1
VIEWPOINT 0 0 0 1 0 0 0
POINTS 193
DATA ascii
-0.015509016 -0.10826229 0.50098711 1.9632994e-38
-0.23424125 -0.13138334 0.55662906 1.9724475e-38
-0.22752622 -0.1179534 0.55788881 1.9816671e-38
-0.33027095 0.22208755 0.5530951 7.6493548e-39
-0.307345 0.21215327 0.54953641 8.0177814e-39
-0.17025831 0.20709571 0.55550009 1.7881282e-38
-0.15476289 0.20759879 0.55662489 1.8433737e-38
-0.08678133 -0.1740495 0.5768432 1.8526287e-38
-0.076385051 -0.1718438 0.56950009 1.8248981e-38
-0.29369661 -0.12318154 0.5988 1.9448965e-38
-0.26071134 -0.12536119 0.59185189 1.9632999e-38
-0.23145965 -0.13770331 0.56921047 1.9724834e-38
-0.081015721 -0.15877858 0.56900007 1.9357491e-38
-0.077616639 -0.15868711 0.56807691 1.95408e-38
-0.25649104 -0.11060639 0.59748578 1.9725194e-38
-0.23219669 -0.11502866 0.56531262 1.981703e-38
-0.1770335 0.19902234 0.56327271 1.8157148e-38
-0.33963799 0.22782519 0.56006253 5.8972819e-39
-0.29904246 0.21421324 0.56079185 1.3821772e-38
-0.17226088 0.20443721 0.56234407 1.8065313e-38
-0.14862451 0.21045603 0.56448233 1.852665e-38
-0.33224612 -0.22085196 0.62534463 1.8342613e-38
-0.36833495 -0.23096986 0.62892854 1.86192e-38
-0.35886994 -0.22896571 0.6274001 1.871104e-38
-0.29170573 -0.12579249 0.60640001 1.9448609e-38
-0.27720168 -0.12533019 0.60503572 1.9632638e-38
-0.29273587 -0.11334392 0.61055917 1.9540803e-38
-0.26332703 -0.10412157 0.60369962 1.9725196e-38
-0.25927389 -0.042119581 0.6388889 2.0001781e-38
-0.26451224 -0.035132796 0.63896668 2.0001781e-38
-0.32569534 0.030930961 0.63184536 1.9172379e-38
-0.3105911 0.027610337 0.63071436 1.935677e-38
-0.25398466 0.039186984 0.60411114 1.9817028e-38
-0.32682824 0.040178731 0.62966669 1.898907e-38
-0.29915738 0.049232762 0.62630826 1.9448607e-38
-0.2625016 0.045045756 0.60955048 1.9724833e-38
-0.35209242 0.11353239 0.639 1.8341537e-38
-0.30780768 0.19445066 0.6305297 1.3271137e-38
-0.32062283 0.21616381 0.634 1.041019e-38
-0.30545688 0.21314494 0.62851423 1.1242468e-38
-0.36256173 -0.22865373 0.64127856 1.8342613e-38
-0.38540384 -0.23866096 0.64200008 1.852772e-38
-0.28968853 -0.14402261 0.65233493 1.963264e-38
-0.27688536 -0.14760697 0.65952271 1.9633e-38
-0.32421517 -0.081891507 0.67899996 1.9540446e-38
-0.31132385 -0.080238096 0.67400002 1.9633359e-38
-0.32627758 -0.074392296 0.6768375 1.9540803e-38
-0.30494878 -0.074312188 0.66963387 1.9725196e-38
-0.25016713 -0.042639229 0.6449827 2.0002141e-38
-0.25770652 -0.029492615 0.6456635 2.000214e-38
-0.31091112 0.029969843 0.64233351 1.9540084e-38
-0.37226349 0.11034667 0.65837485 1.8249701e-38
-0.35545024 0.11444653 0.64135903 1.82497e-38
-0.37245664 0.1291108 0.65772891 1.6037362e-38
-0.35103148 0.12676193 0.64635783 1.788092e-38
-0.38027772 0.1710289 0.67506248 1.0135044e-38
-0.36087331 -0.17943239 0.70300001 1.9263139e-38
-0.34663579 -0.17469233 0.710783 1.9356053e-38
-0.33422643 -0.15076897 0.70125222 1.9448609e-38
-0.32834288 -0.081877559 0.68000001 1.9448612e-38
-0.3353315 -0.067180917 0.68829185 1.9541163e-38
-0.40227714 0.18577172 0.68442857 1.3087099e-38
-0.38699695 0.18442713 0.68455458 1.1519416e-38
-0.40388384 0.20955014 0.69354361 1.1982555e-38
-0.39609912 0.20581365 0.6950351 1.2350975e-38
-0.36033431 -0.17496 0.72900003 1.9631565e-38
-0.34656772 -0.17065255 0.72321099 1.9448249e-38
-0.30404976 0.22842696 0.78994751 1.8156431e-38
-0.38376203 -0.2865352 0.83596778 1.9171659e-38
-0.3855198 -0.27876097 0.83739996 1.917166e-38
-0.41874853 -0.13074112 0.81927204 1.9356772e-38
-0.4147743 -0.11586232 0.82219487 1.9448607e-38
-0.26750341 0.19718722 0.83900011 1.9356408e-38
-0.33983883 0.23900911 0.83257157 1.7879482e-38
-0.30402496 0.23365103 0.81504244 1.8433015e-38
-0.26591751 0.20478532 0.83885199 1.935569e-38
-0.33490327 0.24630211 0.83501798 1.7788004e-38
-0.31180221 0.24350667 0.8257274 1.8064953e-38
-0.40748 -0.28060001 0.85400003 1.9263496e-38
-0.38013861 -0.29117802 0.84506053 1.9263137e-38
-0.33865714 -0.28179622 0.87800002 1.9448246e-38
-0.40760171 -0.26177883 0.86465466 1.9263499e-38
-0.38315928 -0.2586025 0.85793543 1.9356053e-38
-0.3429015 -0.26788452 0.87090909 1.9448246e-38
-0.41042489 -0.2357575 0.87354052 1.9540084e-38
-0.36514747 -0.23873071 0.86276931 1.963192e-38
-0.35610023 -0.23832421 0.85640001 1.9632636e-38
-0.44083384 0.1509324 0.86600012 1.8801439e-38
-0.43386573 0.1550868 0.87033331 1.8801797e-38
-0.42822087 0.16725387 0.86205834 1.8525569e-38
-0.28998756 0.19369864 0.86758214 1.9448246e-38
-0.27624252 0.19788216 0.85982609 1.9448246e-38
-0.290115 0.20943804 0.86259353 1.9263493e-38
-0.27166918 0.21021336 0.8518244 1.9355689e-38
-0.33629507 0.26266137 0.84766632 1.7603613e-38
-0.37326199 -0.32562172 0.9003213 1.9171658e-38
-0.35898668 -0.3208867 0.88900006 1.9263139e-38
-0.37180597 -0.30968013 0.90728527 1.9263855e-38
-0.35046786 -0.29784152 0.89447093 1.9355691e-38
-0.40937862 -0.2499525 0.881037 1.9447889e-38
-0.39546123 -0.25394288 0.88000011 1.944789e-38
-0.3454915 -0.27246457 0.88642865 1.9448247e-38
-0.30670455 -0.23174106 0.91123074 1.9817028e-38
-0.30043998 -0.18609604 0.91026598 2.0002138e-38
-0.25733763 -0.1651721 0.90138799 2.0094693e-38
-0.23689082 -0.16552252 0.90990913 2.0369842e-38
-0.28361619 -0.14848579 0.89765644 2.0094696e-38
-0.25931072 -0.14559089 0.90087521 2.018653e-38
-0.25690457 -0.11854211 0.90460008 2.0279087e-38
-0.5273028 -0.0017463494 0.91666663 1.889615e-38
-0.52487338 0.00087333343 0.91700006 1.8896154e-38
-0.43002948 0.15518481 0.88307995 1.8894353e-38
-0.44369322 0.18470339 0.89305001 1.8341181e-38
-0.42948395 0.18122083 0.89059347 1.8525212e-38
-0.38989046 -0.32542095 0.921 1.9263494e-38
-0.32249838 -0.22429141 0.92662966 1.9909224e-38
-0.31328785 -0.21508135 0.92556584 1.9817747e-38
-0.29603878 -0.19246332 0.93011671 1.9910302e-38
-0.24095237 -0.17260952 0.92000002 2.0278362e-38
-0.2392 -0.17260952 0.92000002 2.0278005e-38
-0.56172484 0.026071157 0.95328581 1.8895434e-38
-0.54259712 0.018478962 0.94495261 1.8803237e-38
-0.5398286 0.040285718 0.94000006 1.8803237e-38
-0.60104859 -0.071214288 0.99700004 1.8803595e-38
-0.59250522 -0.073459044 0.9894399 1.8896148e-38
-0.55392164 -0.051076084 0.99522209 1.8988349e-38
-0.56207812 0.033975877 0.98200005 1.8711758e-38
-0.54788053 0.028578315 0.96609086 1.8803597e-38
-0.55456388 0.040010478 0.97700006 1.8803595e-38
-0.52572042 0.17597431 0.99531996 1.8525569e-38
-0.51408893 0.17063656 0.99399978 1.8618126e-38
-0.50909871 0.22216302 0.99545443 1.8064593e-38
-0.50741339 0.2414 0.99400002 1.7696166e-38
-0.2240708 -0.37887901 1.0343078 1.7696523e-38
-0.60064095 -0.12171143 1.039 1.8988708e-38
-0.58667666 -0.12344473 1.0293751 1.8988349e-38
-0.60578859 -0.09690886 1.0176462 1.889615e-38
-0.58864421 -0.098182335 1.0181314 1.8987988e-38
-0.61336732 -0.056503657 1.0260419 1.889579e-38
-0.58435184 -0.06004405 1.0116291 1.8987987e-38
-0.55356169 -0.052477527 1.0017999 1.9080185e-38
-0.56578892 0.016487263 1.0298681 1.8987629e-38
-0.55727875 0.011237294 1.029844 1.9079823e-38
-0.59074575 0.053143252 1.0389998 1.8803235e-38
-0.55237383 0.054420579 1.0264474 1.8988347e-38
-0.45967925 0.097072229 1.0365001 1.954116e-38
-0.52791589 0.18936618 1.0159535 1.8433735e-38
-0.51732409 0.18706349 1.0184546 1.8617765e-38
-0.5255456 0.20454986 1.0189525 1.8341179e-38
-0.50498372 0.22530557 1.0080534 1.8156428e-38
-0.52165717 0.2613143 1.0200002 1.7786206e-38
-0.50564009 0.25085333 1.0076836 1.7695448e-38
-0.24037142 -0.40198284 1.074 1.7605049e-38
-0.23664001 -0.40086004 1.0710001 1.7605049e-38
-0.24759977 -0.37758529 1.0629815 1.7696525e-38
-0.22223465 -0.38069588 1.0596385 1.7788359e-38
-0.196179 -0.38733119 1.0555135 1.7696522e-38
-0.25082892 -0.34523731 1.0641011 1.8987265e-38
-0.2361391 -0.35217154 1.0535836 1.8065306e-38
-0.64815044 -0.12240191 1.0740001 1.9171653e-38
-0.61610878 -0.12985784 1.0582201 1.8987989e-38
-0.59808004 -0.13528001 1.0680001 1.8988351e-38
-0.64385146 -0.11900572 1.0680001 1.9171658e-38
-0.62654138 -0.11262765 1.0493507 1.8987987e-38
-0.60985547 -0.061057713 1.0443672 1.8896151e-38
-0.59400332 -0.068915628 1.0456002 1.9080184e-38
-0.57346284 0.035323903 1.0466667 1.8987628e-38
-0.55871052 0.036718097 1.0420001 1.9080184e-38
-0.58151883 0.049832117 1.0507634 1.8895791e-38
-0.55407941 0.048295878 1.0420001 1.917166e-38
-0.45104504 0.099868193 1.0618805 1.9632999e-38
-0.42550275 0.093377203 1.0732269 1.9817387e-38
-0.28306171 -0.36796108 1.1087335 1.9264931e-38
-0.27573991 -0.36888921 1.1068667 1.9264572e-38
-0.23452908 -0.38319463 1.0812502 1.7604688e-38
-0.28203809 -0.35675713 1.105 1.9724826e-38
-0.25713795 -0.35304132 1.0867264 1.9356766e-38
-0.23936002 -0.35748574 1.0880001 1.8802151e-38
-0.46033204 0.092314921 1.0848666 1.9724833e-38
-0.43219939 0.097496413 1.0817406 1.9817027e-38
-0.40823168 -0.019953677 1.1357014 2.0186531e-38
-0.39606601 -0.018978378 1.1389003 2.0186531e-38
-0.3345153 0.061317217 0.68233079 1.2903072e-38
-0.23444811 0.040518221 0.70227242 1.7326302e-38
-0.25332028 -0.15628922 1.0380079 1.889579e-38
-0.33885127 0.09783756 0.69072419 1.6037725e-38
-0.42684025 -0.18230103 0.89211547 1.917166e-38
-0.40760171 -0.26177883 0.86465466 1.9263499e-38
-0.38315928 -0.2586025 0.85793543 1.9356053e-38
-0.26670808 -0.033061657 1.0472068 1.7418857e-38
-0.3953805 -0.26019067 0.86129504 1.9263857e-38
-0.35477853 -0.031480178 0.87399381 1.8341538e-38
-0.19899404 -0.23530486 1.078037 1.8527006e-38
