# .PCD v0.7 - Point Cloud Data file format
VERSION 0.7
FIELDS x y z rgb
SIZE 4 4 4 4
TYPE F F F F
COUNT 1 1 1 1
WIDTH 269
HEIGHT 1
VIEWPOINT 0 0 0 1 0 0 0
POINTS 269
DATA ascii
-0.015616343 -0.042922378 0.5178197 1.3168844e-38
0.033269469 -0.051892698 0.5184074 5.3589213e-39
0.057924524 -0.051273122 0.50797373 8.119021e-39
-0.018021299 -0.020007171 0.5132944 1.1693347e-38
0.014938249 -0.0098942174 0.51015413 1.1602243e-38
0.056655183 -0.019570846 0.51318961 8.1150525e-39
-0.040037148 0.0093914298 0.51900005 1.1231647e-38
-0.017757991 0.017315386 0.51493114 1.0771386e-38
0.010442981 0.023855137 0.51789302 1.1417481e-38
0.052054964 0.0056493483 0.51702166 8.4798708e-39
-0.011271477 0.042068481 0.51895171 1.2797889e-38
0.0014828573 0.040602047 0.51900005 1.3441101e-38
-0.31491402 0.2313412 0.5187059 9.7698501e-39
0.039482385 -0.12148523 0.53150004 1.3092536e-38
0.054948591 -0.12450927 0.5238921 1.061335e-38
-0.0040354109 -0.083146349 0.54813647 1.1440494e-38
0.029566195 -0.093023077 0.52878243 8.1215293e-39
0.053464677 -0.10245012 0.52507865 9.4155318e-39
-0.04700027 -0.048773259 0.55208069 1.1600072e-38
-0.018062931 -0.059497222 0.54167569 9.2192043e-39
0.017750949 -0.061927859 0.52789688 6.8336814e-39
0.04769161 -0.071092442 0.52703255 1.1170498e-38
-0.049557187 -0.01827288 0.53010881 1.1232729e-38
-0.018841501 -0.022735791 0.52824932 5.5295924e-39
0.010782713 -0.026944589 0.52215874 5.0798036e-39
0.045547828 -0.015411263 0.52060878 8.0325959e-39
-0.05018511 0.018613119 0.53629839 1.0955776e-38
-0.022753896 0.023280725 0.53219658 8.3782598e-39
0.022529026 0.018953539 0.52993256 7.0961992e-39
0.045952905 0.020827588 0.53067768 1.4013765e-38
-0.045392219 0.049907461 0.54063028 1.2430905e-38
-0.020236688 0.06071059 0.532785 1.0404408e-38
0.022201383 0.063153617 0.54033101 7.2910596e-39
0.044785384 0.05378608 0.54234844 1.5958522e-38
-0.017764451 0.087381355 0.54877973 8.838889e-39
0.012681257 0.083959244 0.53923595 1.4199944e-38
-0.30257586 0.1403434 0.54636061 1.1980398e-38
-0.32246828 0.18066861 0.53473651 1.0137198e-38
-0.29906332 0.1861131 0.54198849 1.0044643e-38
-0.27396369 0.19378765 0.55398506 1.0320147e-38
-0.32071131 0.20520356 0.54214287 9.1266359e-39
-0.29584795 0.21759899 0.53652942 9.7680578e-39
-0.27351269 0.20390169 0.54423535 8.570595e-39
-0.28999379 0.24166675 0.53705746 1.041199e-38
-0.2629945 0.24600285 0.54782122 1.1794918e-38
-0.0012543417 0.051043481 0.57411766 1.4830162e-38
0.010206758 0.051953267 0.57967836 1.8790611e-38
-0.04373255 0.1118774 0.58714724 9.3902523e-39
-0.022591911 0.10745131 0.57034016 1.1047979e-38
-0.047087163 0.14122233 0.59290129 8.2846293e-39
-0.025397792 0.13839616 0.58617789 1.0955783e-38
-0.2561014 0.19513117 0.56415373 1.1979312e-38
-0.23611395 0.19903795 0.57645458 1.2440291e-38
-0.045583315 0.16485871 0.59789521 7.1786404e-39
-0.032483939 0.16538434 0.59734219 9.1133137e-39
-0.28154185 0.20949458 0.56456256 9.7691396e-39
-0.25425076 0.21738599 0.57239395 9.2148855e-39
-0.22578171 0.22211097 0.58546013 9.7680634e-39
-0.24212964 0.24292107 0.58747059 7.1858613e-39
-0.22932045 0.24222389 0.58843309 7.3709743e-39
-0.061985858 0.14810637 0.61470664 9.6679238e-39
-0.012129012 0.15228567 0.60312665 1.6668667e-38
-0.082565732 0.19222519 0.63047934 8.6555712e-39
-0.061100937 0.18127741 0.61332703 7.916567e-39
-0.023268605 0.18223359 0.61163384 1.3167039e-38
-0.21598105 0.23624356 0.60009086 1.1060239e-38
-0.083492979 0.2172704 0.63489628 8.1013212e-39
-0.059700258 0.2196003 0.62156671 7.6392641e-39
-0.026092472 0.21803455 0.62589049 1.2614225e-38
-0.081287764 0.24247229 0.63900006 7.7321786e-39
-0.057892703 0.25027227 0.63359058 7.0868091e-39
-0.032840855 0.24681838 0.63463187 1.0311137e-38
0.19620714 0.27374199 0.63702005 9.1118732e-39
0.21937284 0.26791114 0.63376111 1.0586642e-38
0.25046724 0.2728003 0.63679212 1.5841428e-38
0.19328217 0.2827982 0.63624191 8.4675828e-39
0.21848191 0.28178272 0.63068169 9.7586789e-39
0.25482261 0.28270113 0.63554537 1.5104222e-38
-0.081129998 0.17080095 0.64050007 9.4853333e-39
-0.092286997 0.2269619 0.64971972 8.1020415e-39
-0.01076691 0.22946315 0.64984769 1.5378647e-38
0.19608088 0.23858355 0.67610008 1.141638e-38
0.22195442 0.23561771 0.67098886 1.3074827e-38
0.25477549 0.23591642 0.67339134 1.6301311e-38
-0.089684233 0.25682369 0.65462297 7.6403473e-39
-0.061765347 0.26938993 0.64573884 6.6261939e-39
-0.019917158 0.26122409 0.65702146 1.1416042e-38
0.15479009 0.27261055 0.67237735 1.0125651e-38
0.18107113 0.26048842 0.65859878 1.0494434e-38
0.2190174 0.2484421 0.65042645 1.2429105e-38
0.26133031 0.25528672 0.65246958 1.7869008e-38
0.29409224 0.26441759 0.66571724 2.082107e-38
0.32115668 0.27915382 0.67850006 2.1096201e-38
-0.087786414 0.29038218 0.67141336 7.1800936e-39
-0.060100764 0.28867146 0.65828007 5.9819063e-39
-0.026492542 0.28900254 0.66763949 8.007685e-39
0.14932323 0.28979227 0.6690582 9.0196706e-39
0.17244759 0.28521881 0.64964706 8.7441669e-39
0.274479 0.28434294 0.64271671 1.7777172e-38
0.30226347 0.28826252 0.66119468 1.9528889e-38
0.32383007 0.29511499 0.6772688 1.8882798e-38
-0.0020927549 0.23528139 0.7159642 1.0397563e-38
0.021046016 0.23166032 0.71613365 1.0583752e-38
0.05601484 0.23110081 0.71650708 1.1415674e-38
0.15223542 0.22950494 0.71349472 1.0862852e-38
0.18072176 0.22263278 0.70406222 1.196812e-38
0.2190561 0.21791565 0.70020503 1.3534366e-38
0.25938711 0.22121841 0.69983429 1.6668654e-38
0.29432014 0.23043635 0.70506096 1.9895865e-38
0.32101303 0.23944923 0.71766675 2.0911465e-38
-0.0023942599 0.26015571 0.70575666 9.4756054e-39
0.019887693 0.25995722 0.70649147 9.9409052e-39
0.059344247 0.25878412 0.71362233 9.2962575e-39
0.083297707 0.25458142 0.71873093 9.2040632e-39
0.14280175 0.26081651 0.70095366 1.0033455e-38
0.16929951 0.24621904 0.68759978 1.1139077e-38
0.30689472 0.25086504 0.69157577 2.0819269e-38
0.33190045 0.26491576 0.70620704 2.054448e-38
-0.10327078 0.30423766 0.69946247 8.4690303e-39
-0.0082956748 0.29899257 0.69427001 7.2693997e-39
0.019689906 0.29717571 0.70307541 7.4534309e-39
0.049726319 0.29015818 0.71524763 6.7158616e-39
0.11236304 0.30313492 0.71084541 7.8214875e-39
0.12975143 0.29261366 0.6931141 8.9267561e-39
0.34047464 0.29206389 0.69399965 1.8975714e-38
0.10183905 0.3205578 0.71766675 6.5339871e-39
0.15100938 0.15831591 0.7579999 1.3992828e-38
0.17834602 0.15789735 0.75664264 1.537576e-38
-0.0023981817 0.19830227 0.74972737 1.2335472e-38
0.024335548 0.19165763 0.74467659 1.2703171e-38
0.060629129 0.18575738 0.74157095 1.4085388e-38
0.10010818 0.18354507 0.7465719 1.4454167e-38
0.14097831 0.1807861 0.74591643 1.2059244e-38
0.17971234 0.18018675 0.73769367 1.4086104e-38
0.21928142 0.1823364 0.73905343 1.5744903e-38
0.2568571 0.18863147 0.74301052 1.7864323e-38
0.2878384 0.19576816 0.75307393 1.9063222e-38
-0.0047451658 0.21555796 0.7296778 1.1871609e-38
0.018544907 0.21190773 0.72753489 1.1227683e-38
0.061872665 0.21246579 0.72366226 1.2612779e-38
0.099165246 0.21955633 0.7286253 1.2521302e-38
0.13703001 0.21774216 0.7321831 9.4802858e-39
0.17633596 0.20228823 0.72167867 1.2704969e-38
0.21989065 0.20105015 0.72085321 1.454744e-38
0.26503173 0.20497975 0.72592431 1.7957955e-38
0.30221051 0.21324565 0.73739314 1.9526001e-38
0.33641824 0.22641142 0.74491572 2.0264293e-38
0.36803478 0.23567569 0.75525004 1.9435609e-38
0.07607913 0.2743572 0.72134799 7.0839225e-39
0.10220815 0.26085794 0.72961909 6.716942e-39
0.12582341 0.25471279 0.72725362 7.3619513e-39
0.34836617 0.25510514 0.73011738 1.9621086e-38
0.36675778 0.25431949 0.74123198 1.7962281e-38
0.03820562 0.31691137 0.72150004 3.1270872e-39
0.061801918 0.29955518 0.72551185 4.6904444e-39
0.097763576 0.29925403 0.73645979 5.2432553e-39
0.35817146 0.28091431 0.72000003 1.7316556e-38
0.35999998 0.28114286 0.72000003 1.6668668e-38
0.037837144 0.32080734 0.72233343 1.6566417e-39
0.075188845 0.32893202 0.75194442 3.7713706e-39
0.087564655 0.32550544 0.74097484 4.9673901e-39
0.38815832 -0.012776509 0.7941398 7.9201796e-39
0.35805628 0.033493698 0.79779184 1.0955783e-38
0.37908861 0.022842595 0.79271728 1.0771396e-38
0.35314614 0.063191295 0.793392 9.6664847e-39
0.37537548 0.059602581 0.78481483 1.049661e-38
0.14953001 0.11932002 0.79799998 1.5284639e-38
0.35170898 0.098332793 0.79350501 6.8131033e-39
0.37597367 0.099996127 0.78520077 6.7227168e-39
0.069534823 0.15467148 0.78797537 1.3993546e-38
0.10215368 0.14666311 0.78039908 1.3809156e-38
0.14011651 0.1401037 0.7762534 1.4546721e-38
0.17899239 0.13978043 0.77677965 1.6390266e-38
0.216824 0.14919722 0.77937728 1.7034916e-38
0.25402662 0.1558723 0.79074383 1.6482102e-38
0.35702863 0.12483515 0.79547739 6.3514035e-39
0.37865806 0.13277552 0.79015255 6.2617386e-39
-0.00072507933 0.19649462 0.76133341 1.2704259e-38
0.024052743 0.17961544 0.76996571 1.3625488e-38
0.058157958 0.16669986 0.77188367 1.4362328e-38
0.096909106 0.16423725 0.76361763 1.390135e-38
0.12750329 0.16174404 0.76025808 1.3441099e-38
0.22791608 0.16311681 0.76350003 1.6758333e-38
0.26274711 0.16942249 0.77326208 1.7403704e-38
0.29941863 0.18213119 0.7785961 1.8142708e-38
0.33273375 0.19204141 0.78836948 2.0356123e-38
0.361 0.19988 0.79800004 1.9064314e-38
0.31353226 0.20130023 0.76111782 1.9524922e-38
0.34524959 0.20919861 0.77288848 2.007774e-38
0.37648675 0.21934368 0.78011733 1.9342336e-38
0.4000181 0.21632859 0.79700005 1.8420382e-38
0.077758938 0.31702575 0.76500005 2.7579403e-39
0.081543922 0.31385723 0.76088232 2.2984055e-39
0.073315904 0.33554953 0.7731989 3.7713706e-39
0.080395713 0.32158238 0.76050007 3.2196346e-39
0.39221877 -0.083261892 0.82819992 4.3310394e-39
0.41177976 -0.086702578 0.83025473 5.1586505e-39
0.35737458 -0.045940444 0.83583742 3.0399391e-39
0.38181907 -0.057703596 0.82455748 4.1444817e-39
0.40384844 -0.062734075 0.81527197 4.1441258e-39
0.35212556 -0.016914645 0.82926762 4.8813265e-39
0.37645489 -0.023004562 0.8113721 7.2751647e-39
0.40173173 -0.035659052 0.80500001 1.1048697e-38
0.34435022 0.021309579 0.81750345 9.6668476e-39
0.36740774 0.0075667747 0.80324882 1.095542e-38
0.31863344 0.069403969 0.83584851 1.0311125e-38
0.33455148 0.058848646 0.81675011 9.4831696e-39
0.1172913 0.11875157 0.82500005 1.3993913e-38
0.14266478 0.1150944 0.81408972 1.4639275e-38
0.17523798 0.11443701 0.81073725 1.5745619e-38
0.31614169 0.10389979 0.83596599 1.0863212e-38
0.3325412 0.10026507 0.81636274 8.1931525e-39
0.065353326 0.14910193 0.80578864 1.3994267e-38
0.1007675 0.13054766 0.81125677 1.4086103e-38
0.12680393 0.12241758 0.80593181 1.4547437e-38
0.19373535 0.12380958 0.80528879 1.6943076e-38
0.22071694 0.13528033 0.81030428 1.5744891e-38
0.26119787 0.14650795 0.81870925 1.4270847e-38
0.30280477 0.14314149 0.82849944 1.2337261e-38
0.33914533 0.13917944 0.82165498 1.0218211e-38
0.36909103 0.14889248 0.81702387 1.0771383e-38
0.038905714 0.16477619 0.801 1.4266897e-38
0.045359153 0.16302963 0.80577791 1.4269782e-38
0.3060329 0.16511676 0.80737156 1.6392067e-38
0.34287116 0.17557622 0.81437594 1.8881353e-38
0.37631279 0.18457511 0.82319254 1.9342333e-38
0.40912139 0.19647993 0.8322655 1.851293e-38
0.38704118 0.20519644 0.80496657 1.9433812e-38
0.40720278 0.20643249 0.81723386 1.8604412e-38
0.35916668 -0.081666671 0.87500006 3.5009228e-39
0.37471107 -0.085838236 0.85837573 3.5012773e-39
0.34552857 -0.055051118 0.85767466 3.0399377e-39
0.36805305 -0.073301919 0.84949082 3.224689e-39
0.31367198 -0.009780026 0.87052286 1.0861065e-38
0.33480069 -0.02086859 0.85563654 6.4439649e-39
0.31238508 0.020980654 0.86190677 1.1506433e-38
0.32779863 0.015867889 0.85154563 1.0862503e-38
0.31188911 0.06172616 0.86105019 1.1784815e-38
0.32106477 0.048186615 0.84575605 1.1139448e-38
0.19533715 0.1135262 0.87650001 1.7422805e-38
0.27327374 0.11840484 0.87473929 1.2706404e-38
0.30123952 0.10122862 0.85679889 1.196848e-38
0.22714312 0.12874189 0.86605614 1.3442892e-38
0.26194236 0.13035405 0.85822171 1.3074471e-38
0.29016009 0.12767372 0.84791255 1.2061395e-38
0.38624382 0.15768211 0.84560007 1.6858779e-38
0.38875195 0.17022358 0.84643531 1.980295e-38
0.41572094 0.1872502 0.86049098 1.78672e-38
0.35632163 -0.085996732 0.89333332 3.6849469e-39
0.36679545 -0.092588097 0.88487041 3.5005613e-39
0.33514404 -0.058676679 0.89193654 3.4998354e-39
0.36096001 -0.079360001 0.89600003 3.5927527e-39
0.3178049 -0.027622104 0.89300007 4.052649e-39
0.32335794 -0.033308711 0.88884616 3.9593758e-39
0.30754161 0.022485759 0.89641154 6.5390416e-39
0.30359957 0.060585812 0.89123291 9.9470289e-39
0.19780955 0.1155543 0.88133347 1.6396051e-38
0.22030504 0.11680012 0.88750595 1.3626584e-38
0.2646974 0.1139713 0.89348316 1.2706052e-38
0.28992456 0.096560664 0.89037549 1.2061759e-38
0.22432452 0.12099975 0.88127768 1.3442893e-38
0.25041348 0.12178505 0.88225698 1.3167382e-38
0.43154764 0.18255676 0.8967272 1.685341e-38
0.44465393 0.1866792 0.89123935 1.5747782e-38
0.44431621 0.18088762 0.92200005 1.6306372e-38
0.10602161 0.10301138 0.66053915 1.262215e-38
0.10172153 0.15148996 0.70020843 1.160584e-38
-0.041038498 0.18077092 0.68278617 1.2523829e-38
-0.027428972 0.17953718 0.6494199 1.225049e-38
