# .PCD v0.7 - Point Cloud Data file format
VERSION 0.7
FIELDS x y z rgb
SIZE 4 4 4 4
TYPE F F F F
COUNT 1 1 1 1
WIDTH 1015
HEIGHT 1
VIEWPOINT 0 0 0 1 0 0 0
POINTS 1015
DATA ascii
-0.84334576 0.38101432 1.6110001 1.9243052e-38
-0.83469886 0.38112709 1.6046 1.9243052e-38
-0.69397545 0.37503174 1.6051427 1.9243052e-38
-0.6621933 0.38125888 1.6202636 1.9243052e-38
-0.63519329 0.39025411 1.6334482 1.9243052e-38
-0.65525842 0.41599849 1.6101815 1.9243052e-38
-0.62553352 0.42339888 1.6281449 1.9243052e-38
-0.64476228 0.44222447 1.603 1.9243052e-38
-0.6179893 0.45792934 1.617227 1.9243052e-38
-0.58505225 0.46874583 1.6295666 1.9243052e-38
-0.61034513 0.49070609 1.6087562 1.9243052e-38
-0.58089805 0.49992546 1.6171223 1.9243052e-38
-0.55245113 0.50607461 1.6275556 1.9243052e-38
-0.57474017 0.5308581 1.606527 1.9243052e-38
-0.54077393 0.54086459 1.6216513 1.9243052e-38
-0.51496381 0.54974693 1.6316773 1.9243052e-38
-0.568515 0.58035886 1.6201599 1.9243052e-38
-0.5369094 0.57520908 1.6127499 1.9243052e-38
-0.50824189 0.58236712 1.6260893 1.9243052e-38
-0.52238286 0.60251236 1.618 1.9243052e-38
-0.49560913 0.61790264 1.6251321 1.9243052e-38
-0.46899626 0.63329297 1.6280869 1.9243052e-38
-0.48645237 0.65110064 1.6196429 1.9243052e-38
-0.45933491 0.66163778 1.6201632 1.9243052e-38
-0.43366724 0.66858453 1.6239315 1.9243052e-38
-0.4483124 0.7002582 1.6089514 1.9243052e-38
-0.42361891 0.7025997 1.6183531 1.9243052e-38
-0.44688001 0.72238094 1.6070001 1.9243052e-38
-0.41225713 0.72325963 1.619 1.9243052e-38
-0.39825082 0.72814101 1.6313334 1.9243052e-38
-1.0038 -0.20235334 1.6730001 1.9243052e-38
-0.99902004 -0.20235334 1.6730001 1.9243052e-38
-1.0022942 -0.18545443 1.6695002 1.9243052e-38
-0.98693329 -0.17433201 1.6704608 1.9243052e-38
-1.0005857 -0.15222856 1.6650001 1.9243052e-38
-0.97687811 -0.1396275 1.6595988 1.9243052e-38
-0.95540452 -0.12858346 1.6666975 1.9243052e-38
-0.97493207 -0.10204925 1.6464249 1.9243052e-38
-0.94388312 -0.097679965 1.6613525 1.9243052e-38
-0.91510451 -0.085508898 1.6730002 1.9243052e-38
-0.97187394 -0.078366123 1.641 1.9243052e-38
-0.93419218 -0.062672891 1.6508926 1.9243052e-38
-0.90497667 -0.056302056 1.6659415 1.9243052e-38
-0.8729192 -0.043930482 1.6730002 1.9243052e-38
-0.93281347 -0.032369498 1.6419694 1.9243052e-38
-0.89860016 -0.020946963 1.6546384 1.9243052e-38
-0.86915523 -0.019060886 1.668164 1.9243052e-38
-0.89196664 0.01763374 1.64688 1.9243052e-38
-0.86053556 0.020488439 1.6624998 1.9243052e-38
-0.83552939 0.030260272 1.6724288 1.9243052e-38
-0.88609213 0.048105042 1.6419414 1.9243052e-38
-0.85771 0.056409657 1.6457602 1.9243052e-38
-0.82673091 0.062947132 1.6655612 1.9243052e-38
-0.79666668 0.078073338 1.6730001 1.9243052e-38
-0.85566431 0.08712928 1.6409999 1.9243052e-38
-0.81847054 0.097996488 1.6563821 1.9243052e-38
-0.79014504 0.10549092 1.6719321 1.9243052e-38
-0.80870563 0.13301998 1.6480591 1.9243052e-38
-0.78031921 0.14190114 1.661 1.9243052e-38
-0.74995691 0.15321159 1.6730002 1.9243052e-38
-0.80330861 0.16410002 1.641 1.9243052e-38
-0.77683741 0.17756645 1.6519715 1.9243052e-38
-0.74127901 0.18024677 1.6668345 1.9243052e-38
-0.71797407 0.1961962 1.6703336 1.9243052e-38
-0.76383752 0.2093441 1.6442002 1.9243052e-38
-0.73795211 0.21848279 1.6504103 1.9243052e-38
-0.70677602 0.22374062 1.667796 1.9243052e-38
-0.73258311 0.25168917 1.6418417 1.9243052e-38
-0.69870847 0.25924629 1.6573136 1.9243052e-38
-0.67090523 0.27060124 1.6679769 1.9243052e-38
-0.7288124 0.28860766 1.641 1.9243052e-38
-0.68835747 0.29407111 1.6475003 1.9243052e-38
-0.66366732 0.30109701 1.6631994 1.9243052e-38
-0.63786447 0.31176227 1.6730001 1.9243052e-38
-0.65546024 0.33531404 1.6523923 1.9243052e-38
-0.62659657 0.34623462 1.6672161 1.9243052e-38
-0.64839041 0.36434108 1.6410003 1.9243052e-38
-0.62011635 0.37913209 1.6559491 1.9243052e-38
-0.58678347 0.38524228 1.6648537 1.9243052e-38
-0.60882902 0.41331828 1.6480397 1.9243052e-38
-0.57964522 0.42075571 1.6567835 1.9243052e-38
-0.5504961 0.43362409 1.670143 1.9243052e-38
-0.60163081 0.44300222 1.6436667 1.9243052e-38
-0.57515424 0.45460144 1.6468563 1.9243052e-38
-0.5412271 0.46166196 1.6612669 1.9243052e-38
-0.51783335 0.47800004 1.6730001 1.9243052e-38
-0.53658861 0.49755794 1.6517949 1.9243052e-38
-0.50840706 0.50895619 1.6645873 1.9243052e-38
-0.52823269 0.52614701 1.643 1.9243052e-38
-0.49857807 0.53840232 1.6536664 1.9243052e-38
-0.46631157 0.54920518 1.6682763 1.9243052e-38
-0.58330357 0.59242696 1.6468184 1.9243052e-38
-0.49086592 0.57628357 1.6469271 1.9243052e-38
-0.45885393 0.57925779 1.6573278 1.9243052e-38
-0.43192908 0.58733636 1.6705995 1.9243052e-38
-0.48618978 0.60365272 1.6424547 1.9243052e-38
-0.45927173 0.61899287 1.6481485 1.9243052e-38
-0.42405164 0.62297136 1.6613426 1.9243052e-38
-0.39992669 0.63892668 1.6730001 1.9243052e-38
-0.45592284 0.64232957 1.645 1.9243052e-38
-0.41676098 0.65868825 1.6485918 1.9243052e-38
-0.38765079 0.66550201 1.6689341 1.9243052e-38
-0.3585 0.67557335 1.6730001 1.9243052e-38
-0.40992591 0.69524711 1.6425771 1.9243052e-38
-0.37945899 0.69754183 1.65267 1.9243052e-38
-0.34409818 0.70505583 1.6715176 1.9243052e-38
-0.31165603 0.70882082 1.6730003 1.9243052e-38
-0.40269619 0.72151911 1.6410002 1.9243052e-38
-0.37863353 0.72981715 1.6494213 1.9243052e-38
-0.34016052 0.73340166 1.6663625 1.9243052e-38
-0.31269416 0.74168807 1.6713034 1.9243052e-38
-1.0249879 -0.32847941 1.7146667 1.9243052e-38
-1.0145411 -0.29877463 1.7081513 1.9243052e-38
-0.99691242 -0.28422669 1.7132 1.9243052e-38
-1.0093228 -0.26262555 1.6978488 1.9243052e-38
-0.98445469 -0.25805226 1.709571 1.9243052e-38
-1.006498 -0.22354427 1.6848078 1.9243052e-38
-0.98050898 -0.21978681 1.698088 1.9243052e-38
-0.94444555 -0.21372299 1.7135682 1.9243052e-38
-0.97168314 -0.18473883 1.6835747 1.9243052e-38
-0.94075233 -0.17894974 1.7011859 1.9243052e-38
-0.91047686 -0.1685174 1.715 1.9243052e-38
-0.96377343 -0.15241067 1.681 1.9243052e-38
-0.93837374 -0.1401269 1.6920863 1.9243052e-38
-0.90299672 -0.13868722 1.709168 1.9243052e-38
-0.87709999 -0.1225 1.715 1.9243052e-38
-0.92689621 -0.10650596 1.6835831 1.9243052e-38
-0.90072984 -0.099865153 1.6941092 1.9243052e-38
-0.87003917 -0.097813644 1.7068856 1.9243052e-38
-0.89289904 -0.066932686 1.6827722 1.9243052e-38
-0.86024296 -0.059210021 1.6978588 1.9243052e-38
-0.83631331 -0.049787626 1.7098572 1.9243052e-38
-0.8525759 -0.021256993 1.6904125 1.9243052e-38
-0.82724136 -0.01483899 1.7056533 1.9243052e-38
-0.79706669 -0.0016333334 1.715 1.9243052e-38
-0.84243017 0.011424168 1.684875 1.9243052e-38
-0.81939209 0.018692108 1.6978278 1.9243052e-38
-0.79407674 0.023915807 1.7117724 1.9243052e-38
-0.80863774 0.054245315 1.6885773 1.9243052e-38
-0.78268051 0.061814833 1.7042645 1.9243052e-38
-0.75205415 0.064155549 1.7131993 1.9243052e-38
-0.77459979 0.097389646 1.6938246 1.9243052e-38
-0.7424553 0.10358068 1.7042483 1.9243052e-38
-0.71703333 0.11759999 1.715 1.9243052e-38
-0.76545888 0.12724018 1.6847308 1.9243052e-38
-0.73903543 0.13875383 1.6937348 1.9243052e-38
-0.71031684 0.14448729 1.7080524 1.9243052e-38
-0.72559708 0.17046773 1.6842399 1.9243052e-38
-0.70188266 0.18052037 1.6988548 1.9243052e-38
-0.66824639 0.18931398 1.7143569 1.9243052e-38
-0.69146681 0.21566349 1.6891683 1.9243052e-38
-0.66486269 0.22116052 1.7027234 1.9243052e-38
-0.62327999 0.23389332 1.715 1.9243052e-38
-0.68229747 0.24879241 1.6822859 1.9243052e-38
-0.65727991 0.25740424 1.6917763 1.9243052e-38
-0.62289006 0.26253679 1.7068557 1.9243052e-38
-0.59646368 0.27484542 1.715 1.9243052e-38
-0.64773083 0.29337096 1.6847695 1.9243052e-38
-0.62063998 0.29985774 1.6943163 1.9243052e-38
-0.58714139 0.3041918 1.7096676 1.9243052e-38
-0.55478895 0.31632221 1.715 1.9243052e-38
-0.61315459 0.33342677 1.6852319 1.9243052e-38
-0.57859385 0.33962339 1.6965637 1.9243052e-38
-0.54905045 0.3457799 1.7138894 1.9243052e-38
-0.60035717 0.36021432 1.6810001 1.9243052e-38
-0.5724352 0.37556088 1.6858124 1.9243052e-38
-0.54326147 0.38243392 1.7046217 1.9243052e-38
-0.51047117 0.38938665 1.7150002 1.9243052e-38
-0.56309873 0.40969828 1.681 1.9243052e-38
-0.53753811 0.41659385 1.6893765 1.9243052e-38
-0.50643671 0.4243145 1.7062862 1.9243052e-38
-0.46881077 0.43242198 1.7144859 1.9243052e-38
-0.52473277 0.45336008 1.6824323 1.9243052e-38
-0.49972239 0.45933792 1.6948477 1.9243052e-38
-0.46396518 0.46333259 1.7094009 1.9243052e-38
-0.43936667 0.47366667 1.715 1.9243052e-38
-0.49546778 0.49470729 1.6852443 1.9243052e-38
-0.45933995 0.50054288 1.6967937 1.9243052e-38
-0.42884541 0.50255334 1.7125853 1.9243052e-38
-0.4841738 0.52351141 1.6810001 1.9243052e-38
-0.45643207 0.53529793 1.6844032 1.9243052e-38
-0.42221704 0.54119331 1.7051585 1.9243052e-38
-0.39160734 0.55498731 1.7133126 1.9243052e-38
-0.44132924 0.56300163 1.6810001 1.9243052e-38
-0.41625404 0.57611692 1.6895335 1.9243052e-38
-0.38673037 0.5825578 1.7075175 1.9243052e-38
-0.40696815 0.61476499 1.6837587 1.9243052e-38
-0.38116714 0.62187731 1.6936958 1.9243052e-38
-0.35661739 0.62319708 1.6886251 1.9243052e-38
-0.37216866 0.65447044 1.6828508 1.9243052e-38
-0.34921867 0.66325086 1.6940316 1.9243052e-38
-0.33964908 0.69597232 1.6841366 1.9243052e-38
-0.30457956 0.71458244 1.68325 1.9243052e-38
-0.33459908 0.72202957 1.6810001 1.9243052e-38
-0.29607058 0.73821861 1.686409 1.9243052e-38
-0.26673695 0.75132173 1.7033672 1.9243052e-38
-0.23721525 0.75876385 1.7060001 1.9243052e-38
-0.25929749 0.7633819 1.7049565 1.9243052e-38
-0.23488498 0.76665956 1.7127501 1.9243052e-38
-1.061766 -0.49955603 1.7590001 1.9243052e-38
-1.0520344 -0.45684865 1.7573227 1.9243052e-38
-1.0485888 -0.41980311 1.7513731 1.9243052e-38
-1.0294366 -0.41481209 1.7536006 1.9243052e-38
-1.0441669 -0.38173085 1.7371426 1.9243052e-38
-1.0195199 -0.37846762 1.7460456 1.9243052e-38
-0.99285775 -0.36706325 1.7590004 1.9243052e-38
-1.0424991 -0.35299811 1.7320002 1.9243052e-38
-1.015186 -0.342392 1.7307342 1.9243052e-38
-0.98519212 -0.33648807 1.7491264 1.9243052e-38
-0.95533097 -0.32416379 1.75675 1.9243052e-38
-1.0055231 -0.30944085 1.7267495 1.9243052e-38
-0.97909588 -0.2992436 1.7378641 1.9243052e-38
-0.94832557 -0.29768136 1.7543525 1.9243052e-38
-0.91970575 -0.28311524 1.7590001 1.9243052e-38
-0.9667291 -0.26254466 1.7300909 1.9243052e-38
-0.94196069 -0.25927511 1.7441319 1.9243052e-38
-0.91147906 -0.25734934 1.751111 1.9243052e-38
-0.96620768 -0.23753031 1.7248001 1.9243052e-38
-0.93426752 -0.22579537 1.7333449 1.9243052e-38
-0.90045166 -0.21899408 1.74542 1.9243052e-38
-0.87866235 -0.20521668 1.7590001 1.9243052e-38
-0.92158407 -0.186185 1.7229998 1.9243052e-38
-0.89912945 -0.18166693 1.7304603 1.9243052e-38
-0.87236196 -0.17700243 1.7469362 1.9243052e-38
-0.88715404 -0.1440663 1.7254375 1.9243052e-38
-0.86116272 -0.13844644 1.739135 1.9243052e-38
-0.83517933 -0.12591535 1.7580999 1.9243052e-38
-0.85410208 -0.10168289 1.7298996 1.9243052e-38
-0.82625228 -0.097990535 1.7472199 1.9243052e-38
-0.84399754 -0.069486335 1.7251176 1.9243052e-38
-0.81956261 -0.059930764 1.7369337 1.9243052e-38
-0.78326648 -0.054131012 1.7553647 1.9243052e-38
-0.75720763 -0.043556191 1.7590001 1.9243052e-38
-0.81189698 -0.024743022 1.7291162 1.9243052e-38
-0.78055996 -0.019218491 1.747488 1.9243052e-38
-0.75261497 -0.011150097 1.7582282 1.9243052e-38
-0.80450433 0.0098671429 1.7275001 1.9243052e-38
-0.7785024 0.018139495 1.7315396 1.9243052e-38
-0.74349588 0.021879973 1.7466115 1.9243052e-38
-0.70984405 0.033200175 1.7590002 1.9243052e-38
-0.77332622 0.046712447 1.7229998 1.9243052e-38
-0.73535639 0.056621425 1.733313 1.9243052e-38
-0.70491815 0.062481124 1.7541038 1.9243052e-38
-0.67847145 0.070360005 1.7590001 1.9243052e-38
-0.73011255 0.093103662 1.7250955 1.9243052e-38
-0.69938725 0.099826731 1.7396859 1.9243052e-38
-0.66649842 0.10548709 1.7575567 1.9243052e-38
-0.6282143 0.11650521 1.7590002 1.9243052e-38
-0.69305831 0.13653283 1.7262964 1.9243052e-38
-0.66146952 0.14075628 1.7470505 1.9243052e-38
-0.62162817 0.1422077 1.7583537 1.9243052e-38
-0.68642312 0.17583439 1.7229998 1.9243052e-38
-0.65593106 0.17680909 1.7329056 1.9243052e-38
-0.61914504 0.18110162 1.7456069 1.9243052e-38
-0.58321691 0.18772256 1.7575015 1.9243052e-38
-0.55517387 0.19801317 1.7590001 1.9243052e-38
-0.64802289 0.21829833 1.7243499 1.9243052e-38
-0.61827797 0.21875384 1.7276815 1.9243052e-38
-0.58104134 0.22057118 1.7493236 1.9243052e-38
-0.54914463 0.2231358 1.7586207 1.9243052e-38
-0.64489424 0.24122 1.723 1.9243052e-38
-0.61374837 0.25089622 1.7234184 1.9243052e-38
-0.57926112 0.25836128 1.7334504 1.9243052e-38
-0.5430389 0.2635164 1.7520671 1.9243052e-38
-0.51597333 0.27306384 1.7590001 1.9243052e-38
-0.621921 0.28060284 1.723 1.9243052e-38
-0.5727796 0.29340008 1.7242161 1.9243052e-38
-0.54071862 0.30004919 1.7389364 1.9243052e-38
-0.50349069 0.30636573 1.756405 1.9243052e-38
-0.47337446 0.31542343 1.7590003 1.9243052e-38
-0.56284666 0.32490855 1.723 1.9243052e-38
-0.53288811 0.33721036 1.7297702 1.9243052e-38
-0.50034136 0.34135696 1.7447995 1.9243052e-38
-0.46996146 0.34487027 1.7565329 1.9243052e-38
-0.52866012 0.3708553 1.7229997 1.9243052e-38
-0.49649301 0.37762305 1.7279168 1.9243052e-38
-0.46056309 0.37981027 1.7459449 1.9243052e-38
-0.43173757 0.38466868 1.7554343 1.9243052e-38
-0.49251482 0.41432315 1.7268403 1.9243052e-38
-0.45795283 0.41814896 1.7376555 1.9243052e-38
-0.42354247 0.42268696 1.7507502 1.9243052e-38
-0.39146408 0.43388215 1.7556251 1.9243052e-38
-0.44887125 0.45313463 1.7299827 1.9243052e-38
-0.42062691 0.46014181 1.7418073 1.9243052e-38
-0.39343295 0.46087179 1.7477497 1.9243052e-38
-0.41325614 0.49587485 1.7307006 1.9243052e-38
-0.39423287 0.50028622 1.7342942 1.9243052e-38
-0.40494555 0.52937889 1.7234282 1.9243052e-38
-0.39271331 0.53732699 1.7261763 1.9243052e-38
-0.37851304 0.58582002 1.7229999 1.9243052e-38
-0.93676847 -0.3037073 1.724 1.9243052e-38
-1.0821286 -0.67868102 1.7950001 1.9243052e-38
-1.075002 -0.67187619 1.7860001 1.9243052e-38
-1.0821286 -0.61884761 1.7950001 1.9243052e-38
-1.0755553 -0.60502833 1.7933124 1.9243052e-38
-1.0821286 -0.58363146 1.7950001 1.9243052e-38
-1.0720868 -0.57945764 1.7936298 1.9243052e-38
-1.0631223 -0.54025131 1.7891074 1.9243052e-38
-1.0546775 -0.50182009 1.7803292 1.9243052e-38
-1.0357714 -0.49262351 1.7913435 1.9243052e-38
-1.0460322 -0.46549714 1.77183 1.9243052e-38
-1.0276172 -0.45718768 1.7822636 1.9243052e-38
-1.0161407 -0.42299634 1.7787985 1.9243052e-38
-0.98577255 -0.41584727 1.7879142 1.9243052e-38
-0.95220482 -0.40515715 1.7950001 1.9243052e-38
-1.005106 -0.3919645 1.7686923 1.9243052e-38
-0.97912669 -0.38087091 1.7794642 1.9243052e-38
-0.94897193 -0.37716413 1.7906179 1.9243052e-38
-0.97060096 -0.34823459 1.774923 1.9243052e-38
-0.93859982 -0.33980215 1.7817918 1.9243052e-38
-0.90571338 -0.33357421 1.791311 1.9243052e-38
-0.93245304 -0.30590516 1.7735313 1.9243052e-38
-0.89997572 -0.29878744 1.7844006 1.9243052e-38
-0.87465531 -0.28854203 1.7939413 1.9243052e-38
-0.89524734 -0.26240376 1.7741371 1.9243052e-38
-0.86907047 -0.25605583 1.7849115 1.9243052e-38
-0.88365376 -0.22606552 1.7683465 1.9243052e-38
-0.86241066 -0.21966502 1.7818718 1.9243052e-38
-0.83744884 -0.20674573 1.7898573 1.9243052e-38
-0.8535412 -0.18246165 1.7709225 1.9243052e-38
-0.82337421 -0.17521176 1.7835078 1.9243052e-38
-0.7923643 -0.16325954 1.7950001 1.9243052e-38
-0.84661961 -0.14809102 1.7680005 1.9243052e-38
-0.81922591 -0.1410846 1.778969 1.9243052e-38
-0.78511196 -0.13707487 1.7920606 1.9243052e-38
-0.80992085 -0.10318446 1.7721915 1.9243052e-38
-0.77999234 -0.098574035 1.7832291 1.9243052e-38
-0.74652213 -0.083766684 1.7950002 1.9243052e-38
-0.80486101 -0.077455245 1.7680001 1.9243052e-38
-0.77466655 -0.069517933 1.7724994 1.9243052e-38
-0.74178654 -0.058382824 1.7867948 1.9243052e-38
-0.71607679 -0.049362507 1.7950001 1.9243052e-38
-0.7644496 -0.035360001 1.768 1.9243052e-38
-0.73749888 -0.02243674 1.7745734 1.9243052e-38
-0.71071094 -0.018077841 1.7909545 1.9243052e-38
-0.72807932 0.012796952 1.7680005 1.9243052e-38
-0.69851148 0.018299786 1.7786157 1.9243052e-38
-0.66044891 0.028818432 1.7928818 1.9243052e-38
-0.6337775 0.033392701 1.7950002 1.9243052e-38
-0.68683022 0.055324294 1.7684504 1.9243052e-38
-0.66145939 0.060904589 1.7803748 1.9243052e-38
-0.62214983 0.063292928 1.7890884 1.9243052e-38
-0.59576911 0.071800001 1.7950001 1.9243052e-38
-0.6547364 0.096784428 1.7699755 1.9243052e-38
-0.61797661 0.099379808 1.7799622 1.9243052e-38
-0.58231473 0.10496081 1.7930839 1.9243052e-38
-0.55559528 0.11795714 1.7950001 1.9243052e-38
-0.6506722 0.12869118 1.768 1.9243052e-38
-0.60468209 0.13337335 1.7748479 1.9243052e-38
-0.58095682 0.14051385 1.7866462 1.9243052e-38
-0.54910254 0.1437768 1.7942277 1.9243052e-38
-0.60112 0.16332954 1.7680001 1.9243052e-38
-0.5750277 0.17241095 1.7723444 1.9243052e-38
-0.54269844 0.1811517 1.7889335 1.9243052e-38
-0.50533527 0.19454379 1.7950001 1.9243052e-38
-0.53268147 0.21707109 1.7795945 1.9243052e-38
-0.49927041 0.22323115 1.7900058 1.9243052e-38
-0.47440487 0.23069805 1.7943078 1.9243052e-38
-0.52859551 0.25032803 1.7713263 1.9243052e-38
-0.49909073 0.26012397 1.7797294 1.9243052e-38
-0.46499333 0.26300982 1.790379 1.9243052e-38
-0.43934765 0.2786524 1.7950001 1.9243052e-38
-0.49519956 0.29100472 1.772359 1.9243052e-38
-0.45945981 0.29970264 1.7809124 1.9243052e-38
-0.43329218 0.30195394 1.7933462 1.9243052e-38
-0.3821654 0.30880669 1.7914002 1.9243052e-38
-0.45334047 0.33815625 1.7722455 1.9243052e-38
-0.42374367 0.34375536 1.7859988 1.9243052e-38
-0.39282244 0.35261834 1.7911428 1.9243052e-38
-0.44620955 0.36201906 1.7680001 1.9243052e-38
-0.41641799 0.37814316 1.7774526 1.9243052e-38
-0.39101812 0.38043317 1.7848761 1.9243052e-38
-0.40791252 0.41324526 1.7719599 1.9243052e-38
-0.39391437 0.41554677 1.7789998 1.9243052e-38
-0.85597599 -0.25879747 1.7753115 1.9243052e-38
-1.0653093 -0.72093076 1.8262501 1.9243052e-38
-1.0608877 -0.63092893 1.7996415 1.9243052e-38
-1.074562 -0.70063555 1.8228097 1.9243052e-38
-1.0857435 -0.66274744 1.8176146 1.9243052e-38
-1.0735621 -0.65473825 1.825617 1.9243052e-38
-1.0840594 -0.6283254 1.8085003 1.9243052e-38
-1.0675563 -0.61795026 1.8216276 1.9243052e-38
-1.0824001 -0.57556194 1.8040001 1.9243052e-38
-1.0571939 -0.5806464 1.8174859 1.9243052e-38
-1.0343453 -0.57166535 1.830207 1.9243052e-38
-1.0484672 -0.54474854 1.8130481 1.9243052e-38
-1.022539 -0.53416222 1.8213472 1.9243052e-38
-0.9927296 -0.52429622 1.8330001 1.9243052e-38
-1.0421308 -0.50524324 1.8106668 1.9243052e-38
-1.0196189 -0.50081933 1.8139184 1.9243052e-38
-0.98312402 -0.49608678 1.827644 1.9243052e-38
-1.0117869 -0.46296713 1.8086518 1.9243052e-38
-0.9813475 -0.45971602 1.8163412 1.9243052e-38
-0.94453907 -0.45120022 1.820425 1.9243052e-38
-0.91766381 -0.44573909 1.8330001 1.9243052e-38
-0.9720847 -0.42411229 1.8079693 1.9243052e-38
-0.93877935 -0.41960126 1.8121982 1.9243052e-38
-0.91633511 -0.41717023 1.8284886 1.9243052e-38
-0.9604153 -0.39688003 1.8040001 1.9243052e-38
-0.93134367 -0.3825013 1.8065282 1.9243052e-38
-0.90273625 -0.37796533 1.8206151 1.9243052e-38
-0.92519438 -0.3582229 1.8040001 1.9243052e-38
-0.8929292 -0.34490559 1.8127502 1.9243052e-38
-0.87126803 -0.334649 1.8287303 1.9243052e-38
-0.88460433 -0.30990145 1.8040004 1.9243052e-38
-0.86064702 -0.30030468 1.8174652 1.9243052e-38
-0.83304912 -0.29342064 1.830231 1.9243052e-38
-0.85229766 -0.26240742 1.8097001 1.9243052e-38
-0.82084906 -0.25703231 1.8242904 1.9243052e-38
-0.79200375 -0.24912843 1.8326088 1.9243052e-38
-0.8445335 -0.22901163 1.8044353 1.9243052e-38
-0.82038808 -0.22003086 1.8134004 1.9243052e-38
-0.78560156 -0.21739145 1.8287802 1.9243052e-38
-0.75938576 -0.20774001 1.8330001 1.9243052e-38
-0.81329578 -0.18740055 1.8070194 1.9243052e-38
-0.78110057 -0.18050747 1.8200244 1.9243052e-38
-0.75266159 -0.17049812 1.8330001 1.9243052e-38
-0.80349588 -0.15214689 1.804 1.9243052e-38
-0.76938009 -0.1426665 1.8080631 1.9243052e-38
-0.74433631 -0.13850923 1.8257813 1.9243052e-38
-0.71599233 -0.12743714 1.8330002 1.9243052e-38
-0.7682634 -0.11126386 1.8040005 1.9243052e-38
-0.73677886 -0.1025729 1.8096169 1.9243052e-38
-0.7063632 -0.092943147 1.8260349 1.9243052e-38
-0.67559147 -0.082048573 1.8330001 1.9243052e-38
-0.72429997 -0.071914576 1.8040001 1.9243052e-38
-0.70120484 -0.061953306 1.8198926 1.9243052e-38
-0.66146827 -0.054667234 1.829988 1.9243052e-38
-0.63447016 -0.044418726 1.8329999 1.9243052e-38
-0.69222462 -0.02298988 1.8078052 1.9243052e-38
-0.66048795 -0.020334305 1.8213289 1.9243052e-38
-0.62384951 -0.01483451 1.8301677 1.9243052e-38
-0.59490067 -0.0044612703 1.8329999 1.9243052e-38
-0.68380201 0.01145397 1.8040001 1.9243052e-38
-0.65978938 0.016130993 1.8060188 1.9243052e-38
-0.61823004 0.020133708 1.8186506 1.9243052e-38
-0.58522117 0.024702471 1.8294177 1.9243052e-38
-0.66032135 0.044097781 1.8040003 1.9243052e-38
-0.60732985 0.051153343 1.8110005 1.9243052e-38
-0.57973611 0.060429525 1.8239946 1.9243052e-38
-0.54707468 0.06545987 1.8328594 1.9243052e-38
-0.5745452 0.090618826 1.8173331 1.9243052e-38
-0.54145789 0.10118754 1.8254265 1.9243052e-38
-0.50834996 0.10995729 1.8326088 1.9243052e-38
-0.56267619 0.12542097 1.8040001 1.9243052e-38
-0.53227913 0.13835393 1.8116798 1.9243052e-38
-0.49915445 0.13975562 1.8262585 1.9243052e-38
-0.4739275 0.1458208 1.8325001 1.9243052e-38
-0.52526104 0.17303035 1.8048339 1.9243052e-38
-0.49870962 0.17845425 1.8120415 1.9243052e-38
-0.46229953 0.18314368 1.8265523 1.9243052e-38
-0.43293715 0.19552001 1.8330001 1.9243052e-38
-0.50252104 0.20550539 1.8048004 1.9243052e-38
-0.45965675 0.21858537 1.8162938 1.9243052e-38
-0.4278627 0.22689915 1.8283767 1.9243052e-38
-0.44840595 0.25330269 1.8077295 1.9243052e-38
-0.42093602 0.26117441 1.8207178 1.9243052e-38
-0.39110884 0.26458752 1.8261633 1.9243052e-38
-0.41563731 0.29851142 1.8111047 1.9243052e-38
-0.39208826 0.29865596 1.8161578 1.9243052e-38
-0.41103953 0.33026481 1.8061744 1.9243052e-38
-0.39065138 0.33331057 1.8077503 1.9243052e-38
-0.81827432 -0.062533185 1.7175047 1.9243052e-38
-0.96078408 -0.31980419 1.7466944 1.9243052e-38
-1.0840243 -0.69978082 1.845857 1.9243052e-38
-1.0711057 -0.69892776 1.8594447 1.9243052e-38
-1.0825876 -0.67815912 1.8463334 1.9243052e-38
-1.0588251 -0.65928364 1.8558384 1.9243052e-38
-1.0308895 -0.64952224 1.8695002 1.9243052e-38
-1.0526214 -0.62275338 1.8526293 1.9243052e-38
-1.0246407 -0.61670387 1.8670007 1.9243052e-38
-0.99256259 -0.61286604 1.8730006 1.9243052e-38
-1.0447961 -0.59532034 1.8450001 1.9243052e-38
-1.0184451 -0.58085972 1.8523645 1.9243052e-38
-0.98135024 -0.57800341 1.8658715 1.9243052e-38
-0.95856667 -0.56327212 1.8696668 1.9243052e-38
-1.0111088 -0.55073452 1.8463964 1.9243052e-38
-0.97901839 -0.54045814 1.852488 1.9243052e-38
-0.94943589 -0.53587979 1.8671863 1.9243052e-38
-0.97109962 -0.50385064 1.8436004 1.9243052e-38
-0.93955344 -0.49921289 1.8582251 1.9243052e-38
-0.91313213 -0.49019089 1.8730007 1.9243052e-38
-0.96245563 -0.47683972 1.8430002 1.9243052e-38
-0.9363364 -0.46851146 1.8476378 1.9243052e-38
-0.90019363 -0.45766947 1.8586489 1.9243052e-38
-0.87866533 -0.45173344 1.8720912 1.9243052e-38
-0.92150003 -0.4335438 1.8430001 1.9243052e-38
-0.89743716 -0.42115226 1.8487662 1.9243052e-38
-0.87013918 -0.41382238 1.8645873 1.9243052e-38
-0.83052087 -0.41164032 1.8730006 1.9243052e-38
-0.88743848 -0.38599774 1.8446666 1.9243052e-38
-0.85849559 -0.37995535 1.8572485 1.9243052e-38
-0.82613289 -0.37830544 1.871244 1.9243052e-38
-0.8828848 -0.35982379 1.8430001 1.9243052e-38
-0.85417354 -0.34332868 1.8459527 1.9243052e-38
-0.82177949 -0.33875006 1.8629218 1.9243052e-38
-0.79257238 -0.329413 1.8725245 1.9243052e-38
-0.84527266 -0.31619364 1.8430002 1.9243052e-38
-0.81666338 -0.30264291 1.8492397 1.9243052e-38
-0.7843318 -0.2963087 1.865386 1.9243052e-38
-0.84075904 -0.27557239 1.8430001 1.9243052e-38
-0.81801742 -0.27419868 1.8429998 1.9243052e-38
-0.7781899 -0.26150048 1.8569015 1.9243052e-38
-0.74891472 -0.24845061 1.8726978 1.9243052e-38
-0.76670659 -0.22604439 1.8484715 1.9243052e-38
-0.74127001 -0.21834001 1.8653145 1.9243052e-38
-0.71314561 -0.21248959 1.873001 1.9243052e-38
-0.76177335 -0.19175978 1.8430002 1.9243052e-38
-0.73758847 -0.18234515 1.8533037 1.9243052e-38
-0.70758039 -0.1781339 1.8702232 1.9243052e-38
-0.66771036 -0.17363867 1.8730009 1.9243052e-38
-0.72784013 -0.1490102 1.8454999 1.9243052e-38
-0.70019048 -0.13962339 1.8575783 1.9243052e-38
-0.66178942 -0.13881847 1.8714761 1.9243052e-38
-0.63104379 -0.13021812 1.8730007 1.9243052e-38
-0.69336766 -0.1062693 1.8455715 1.9243052e-38
-0.65986329 -0.1011082 1.8558971 1.9243052e-38
-0.62291896 -0.096759334 1.869506 1.9243052e-38
-0.59426343 -0.086897023 1.8730006 1.9243052e-38
-0.6827876 -0.075475246 1.8430001 1.9243052e-38
-0.65555853 -0.071562394 1.845449 1.9243052e-38
-0.62035847 -0.060597211 1.8589619 1.9243052e-38
-0.58827829 -0.055001155 1.869572 1.9243052e-38
-0.55833238 -0.04102762 1.8730001 1.9243052e-38
-0.51730478 -0.044595242 1.8730001 1.9243052e-38
-0.61253196 -0.027968746 1.8528241 1.9243052e-38
-0.58008069 -0.019558301 1.8615288 1.9243052e-38
-0.54521924 -0.014182561 1.8699869 1.9243052e-38
-0.51256138 -0.014385554 1.8681433 1.9243052e-38
-0.57276702 0.011904534 1.8521374 1.9243052e-38
-0.54179609 0.02056667 1.8615305 1.9243052e-38
-0.50980967 0.018204596 1.8649298 1.9243052e-38
-0.53344214 0.055638492 1.850204 1.9243052e-38
-0.50249952 0.063656591 1.8523986 1.9243052e-38
-0.52317983 0.087876976 1.8455002 1.9243052e-38
-0.49780041 0.098300412 1.8471593 1.9243052e-38
-0.47041562 0.1075523 1.8598417 1.9243052e-38
-0.50492346 0.12111144 1.8430002 1.9243052e-38
-0.46023813 0.1407568 1.8518709 1.9243052e-38
-0.43572584 0.15645021 1.8458573 1.9243052e-38
-0.44875601 0.17096016 1.8429996 1.9243052e-38
-0.42735112 0.18481739 1.8446393 1.9243052e-38
-0.44056478 0.20887335 1.8430001 1.9243052e-38
-0.41454279 0.21649496 1.8477783 1.9243052e-38
-0.39467642 0.23116885 1.8506925 1.9243052e-38
-0.40727741 0.24466598 1.8444288 1.9243052e-38
-0.39346594 0.24427062 1.8430003 1.9243052e-38
-0.84632611 0.10484738 1.6280248 1.9243052e-38
-1.0804819 -0.73054284 1.8940001 1.9243052e-38
-0.98927331 -0.58387166 1.8689378 1.9243052e-38
-1.0373217 -0.73113215 1.9108751 1.9243052e-38
-1.053539 -0.7032547 1.8877301 1.9243052e-38
-1.0246357 -0.69814903 1.9068913 1.9243052e-38
-0.9945507 -0.68673211 1.9137779 1.9243052e-38
-1.0441029 -0.67331791 1.8863001 1.9243052e-38
-1.017598 -0.66118813 1.8912995 1.9243052e-38
-0.98304796 -0.65690708 1.9024128 1.9243052e-38
-0.95693392 -0.64524662 1.9117001 1.9243052e-38
-1.0111322 -0.62558144 1.8839166 1.9243052e-38
-0.97944397 -0.62134475 1.8888987 1.9243052e-38
-0.9482255 -0.61378604 1.9027561 1.9243052e-38
-0.96865386 -0.59016144 1.8834999 1.9243052e-38
-0.9418354 -0.57964909 1.8932159 1.9243052e-38
-0.90654331 -0.57173604 1.9085848 1.9243052e-38
-0.93221515 -0.54377306 1.8852656 1.9243052e-38
-0.90090436 -0.53922015 1.8989319 1.9243052e-38
-0.8644411 -0.52913713 1.913514 1.9243052e-38
-0.92446339 -0.51379001 1.8830001 1.9243052e-38
-0.89721853 -0.50169778 1.884974 1.9243052e-38
-0.85984063 -0.49939221 1.9034818 1.9243052e-38
-0.83511925 -0.49615788 1.9122503 1.9243052e-38
-0.8875137 -0.47140804 1.8839999 1.9243052e-38
-0.86149007 -0.46043396 1.8917863 1.9243052e-38
-0.82530767 -0.45682147 1.9058255 1.9243052e-38
-0.79700482 -0.45412859 1.9150001 1.9243052e-38
-0.85609013 -0.42423162 1.883 1.9243052e-38
-0.81588054 -0.42142206 1.8973716 1.9243052e-38
-0.79063797 -0.41750759 1.9143132 1.9243052e-38
-0.84107339 -0.39991334 1.8830001 1.9243052e-38
-0.8094998 -0.38128695 1.8872828 1.9243052e-38
-0.78302479 -0.37912041 1.9071063 1.9243052e-38
-0.756881 -0.36293811 1.9150001 1.9243052e-38
-0.80834502 -0.35261425 1.8829999 1.9243052e-38
-0.77819043 -0.34246382 1.8979236 1.9243052e-38
-0.74888062 -0.3361769 1.9120564 1.9243052e-38
-0.76985335 -0.30655128 1.8890388 1.9243052e-38
-0.74280334 -0.29853046 1.9064761 1.9243052e-38
-0.70546699 -0.28946465 1.9150006 1.9243052e-38
-0.76216674 -0.2672067 1.8830001 1.9243052e-38
-0.73802501 -0.26421592 1.8920782 1.9243052e-38
-0.70019662 -0.25793549 1.9085201 1.9243052e-38
-0.66296625 -0.25142828 1.9148006 1.9243052e-38
-0.72732484 -0.23697621 1.8830004 1.9243052e-38
-0.69962925 -0.22327471 1.8950561 1.9243052e-38
-0.66153598 -0.21899267 1.9079701 1.9243052e-38
-0.63067335 -0.20463143 1.9150002 1.9243052e-38
-0.68993115 -0.18241788 1.8830007 1.9243052e-38
-0.65449399 -0.18250991 1.8932818 1.9243052e-38
-0.62281877 -0.17810579 1.9095466 1.9243052e-38
-0.59273815 -0.16231906 1.9150001 1.9243052e-38
-0.68595004 -0.15781334 1.8830001 1.9243052e-38
-0.64524788 -0.15158227 1.8835499 1.9243052e-38
-0.61557573 -0.14087392 1.8961027 1.9243052e-38
-0.58250588 -0.13645843 1.9113437 1.9243052e-38
-0.55717379 -0.12310715 1.9150001 1.9243052e-38
-0.6107105 -0.11047449 1.8860556 1.9243052e-38
-0.57847559 -0.09994933 1.8984892 1.9243052e-38
-0.54582983 -0.096582815 1.9142137 1.9243052e-38
-0.51445466 -0.085719056 1.9150004 1.9243052e-38
-0.57209343 -0.063338287 1.8872725 1.9243052e-38
-0.54160339 -0.059942614 1.9022129 1.9243052e-38
-0.51281714 -0.066363662 1.9031669 1.9243052e-38
-0.56669343 -0.037660003 1.8830001 1.9243052e-38
-0.53800786 -0.026325095 1.8836011 1.9243052e-38
-0.51827335 -0.037660003 1.8830001 1.9243052e-38
-0.52831602 0.0046626674 1.8830003 1.9243052e-38
-0.47259811 0.10281714 1.8940001 1.9243052e-38
-0.70698893 0.18985963 1.5952686 1.9243052e-38
-0.77518874 -0.20797001 1.6968006 1.9243052e-38
-0.93066472 -0.5568369 1.8950615 1.9243052e-38
-0.7555365 0.1006724 1.6684903 1.9243052e-38
-1.0429424 -0.74978524 1.9366473 1.9243052e-38
-1.0178579 -0.74058408 1.9297966 1.9243052e-38
-0.9821279 -0.738051 1.9470868 1.9243052e-38
-0.95055664 -0.72712147 1.9568422 1.9243052e-38
0.66012573 -0.7589581 1.9580001 1.9243052e-38
0.74666935 -0.75508177 1.946195 1.9243052e-38
0.78052884 -0.75167382 1.9486914 1.9243052e-38
0.82513249 -0.75172925 1.945482 1.9243052e-38
0.86250752 -0.75020713 1.9481155 1.9243052e-38
0.89748704 -0.74776274 1.9376932 1.9243052e-38
0.94261277 -0.75136769 1.9407444 1.9243052e-38
0.96683204 -0.74941957 1.9465003 1.9243052e-38
-1.0105039 -0.71224469 1.9259561 1.9243052e-38
-0.97963601 -0.69994199 1.9350102 1.9243052e-38
-0.94560802 -0.69866323 1.9525539 1.9243052e-38
-0.91528738 -0.68530005 1.9580001 1.9243052e-38
-0.96668148 -0.67183065 1.9281428 1.9243052e-38
-0.93882 -0.65932834 1.9325513 1.9243052e-38
-0.90615922 -0.65568078 1.9497844 1.9243052e-38
-0.86711431 -0.64676166 1.9580001 1.9243052e-38
-0.93282557 -0.62617403 1.9267924 1.9243052e-38
-0.90008819 -0.62200511 1.9409387 1.9243052e-38
-0.86247891 -0.61751753 1.9549764 1.9243052e-38
-0.83541334 -0.60418284 1.9580001 1.9243052e-38
-0.92338896 -0.59827775 1.9250001 1.9243052e-38
-0.89652622 -0.58602297 1.9256297 1.9243052e-38
-0.85964763 -0.5802629 1.941759 1.9243052e-38
-0.82741261 -0.57633144 1.9579999 1.9243052e-38
-0.88641679 -0.5542779 1.925 1.9243052e-38
-0.85870433 -0.54536057 1.927559 1.9243052e-38
-0.82157344 -0.53877962 1.9459919 1.9243052e-38
-0.79587859 -0.5301367 1.9575002 1.9243052e-38
-0.81803572 -0.501975 1.9333259 1.9243052e-38
-0.78648132 -0.49634016 1.9515632 1.9243052e-38
-0.81073976 -0.46906945 1.9266387 1.9243052e-38
-0.77906454 -0.45940617 1.942948 1.9243052e-38
-0.7555837 -0.45668912 1.9580001 1.9243052e-38
-0.77233285 -0.4216007 1.92989 1.9243052e-38
-0.7461884 -0.41573831 1.9524416 1.9243052e-38
-0.71047437 -0.40465337 1.9580001 1.9243052e-38
-0.76430655 -0.38677141 1.9338613 1.9243052e-38
-0.73986495 -0.37994704 1.9467186 1.9243052e-38
-0.70195395 -0.37476379 1.9565649 1.9243052e-38
-0.7304545 -0.34234944 1.9275151 1.9243052e-38
-0.70019108 -0.33942422 1.9460306 1.9243052e-38
-0.66637272 -0.33127493 1.9580001 1.9243052e-38
-0.72655004 -0.31001672 1.9249996 1.9243052e-38
-0.69630027 -0.30122286 1.9302542 1.9243052e-38
-0.66057211 -0.30021477 1.9505078 1.9243052e-38
-0.6306625 -0.28799382 1.9579999 1.9243052e-38
-0.69550008 -0.27316669 1.925 1.9243052e-38
-0.6548118 -0.26698858 1.9340142 1.9243052e-38
-0.62361854 -0.25884748 1.9502115 1.9243052e-38
-0.59357262 -0.24868636 1.9562399 1.9243052e-38
-0.6443125 -0.23027481 1.9274445 1.9243052e-38
-0.61977631 -0.22234344 1.9405414 1.9243052e-38
-0.58278143 -0.21694538 1.9527286 1.9243052e-38
-0.54264575 -0.20440657 1.9580001 1.9243052e-38
-0.51280951 -0.21711159 1.9580002 1.9243052e-38
-0.60768795 -0.18827462 1.9316666 1.9243052e-38
-0.57922429 -0.18021417 1.9401274 1.9243052e-38
-0.53945076 -0.17967975 1.9517273 1.9243052e-38
-0.51164663 -0.17801546 1.9563076 1.9243052e-38
0.99391812 -0.17528763 1.9580001 1.9243052e-38
1.0088363 -0.17901716 1.9580001 1.9243052e-38
-0.57054687 -0.15041661 1.9314868 1.9243052e-38
-0.53981835 -0.1402628 1.9395099 1.9243052e-38
-0.50750804 -0.14022233 1.9418539 1.9243052e-38
-0.53275293 -0.10974617 1.9298129 1.9243052e-38
-0.50946915 -0.10462294 1.9283673 1.9243052e-38
-0.89497614 -0.52827817 1.9082577 1.9243052e-38
-0.88318688 -0.59449667 1.9373114 1.9243052e-38
-0.86241066 -0.21966502 1.7818718 1.9243052e-38
-0.80924386 0.27262062 1.5720471 1.9243052e-38
-0.75225312 0.14419861 1.670714 1.9243052e-38
0.47516403 -0.72104329 1.9645933 1.9243052e-38
0.65370739 -0.76285678 1.9759001 1.9243052e-38
0.70096868 -0.76656568 1.9820957 1.9243052e-38
0.73037916 -0.76566863 1.9882405 1.9243052e-38
0.94324481 -0.76322198 1.9690001 1.9243052e-38
0.99491811 -0.76905602 1.9690001 1.9243052e-38
-0.96738839 -0.75431454 1.969 1.9243052e-38
-0.93679893 -0.74336958 1.9729896 1.9243052e-38
-0.90823728 -0.73259872 1.9853882 1.9243052e-38
-0.8626163 -0.7254383 1.9920005 1.9243052e-38
0.59190857 -0.75316572 1.9920001 1.9243052e-38
0.63479185 -0.75350571 1.985 1.9243052e-38
0.66192716 -0.7559647 1.9812748 1.9243052e-38
0.69839579 -0.75267428 1.9910002 1.9243052e-38
0.74394315 -0.7497797 1.9846311 1.9243052e-38
0.78140163 -0.74081224 1.9835693 1.9243052e-38
0.82186979 -0.73962432 1.9827212 1.9243052e-38
0.85997063 -0.73376477 1.9791335 1.9243052e-38
0.90091586 -0.73439109 1.9826357 1.9243052e-38
0.93899572 -0.73648834 1.9748223 1.9243052e-38
0.97870117 -0.73717779 1.9741683 1.9243052e-38
1.0102574 -0.74224043 1.9894879 1.9243052e-38
-0.92894614 -0.70766777 1.9690008 1.9243052e-38
-0.89958268 -0.70044327 1.978215 1.9243052e-38
-0.86160326 -0.69581127 1.9871286 1.9243052e-38
0.83031625 -0.71901721 1.9920001 1.9243052e-38
0.86230725 -0.71745473 1.9920003 1.9243052e-38
0.8834362 -0.7177524 1.9920001 1.9243052e-38
0.95186156 -0.71300787 1.9808426 1.9243052e-38
0.97760117 -0.71333963 1.9798787 1.9243052e-38
1.0140228 -0.71854281 1.9920003 1.9243052e-38
-0.89510393 -0.6668331 1.9712008 1.9243052e-38
-0.85627598 -0.6613906 1.9762897 1.9243052e-38
-0.83215588 -0.65106493 1.9920005 1.9243052e-38
-0.88323718 -0.63945621 1.9690001 1.9243052e-38
-0.8503598 -0.63037604 1.9693555 1.9243052e-38
-0.82155555 -0.61790687 1.9767879 1.9243052e-38
-0.79448134 -0.60561019 1.9920003 1.9243052e-38
-0.81117058 -0.58232546 1.9717671 1.9243052e-38
-0.78669947 -0.57681572 1.9843812 1.9243052e-38
-0.75506282 -0.56534863 1.9920001 1.9243052e-38
-0.80322707 -0.55006987 1.9690001 1.9243052e-38
-0.77733618 -0.54078776 1.9770814 1.9243052e-38
-0.75467592 -0.53209853 1.9902862 1.9243052e-38
-0.77207798 -0.50688457 1.9700242 1.9243052e-38
-0.74543077 -0.49738181 1.9811363 1.9243052e-38
-0.71376354 -0.49442461 1.9920005 1.9243052e-38
-0.73899084 -0.46052361 1.9727237 1.9243052e-38
-0.70491803 -0.45644316 1.9884558 1.9243052e-38
-0.67601526 -0.44329906 1.9920001 1.9243052e-38
-0.73038238 -0.42558765 1.9690009 1.9243052e-38
-0.69921917 -0.42068404 1.9797512 1.9243052e-38
-0.6707263 -0.41581932 1.9919996 1.9243052e-38
-0.72196674 -0.39380002 1.9690001 1.9243052e-38
-0.69397521 -0.38673866 1.9708978 1.9243052e-38
-0.66448003 -0.37771755 1.9860115 1.9243052e-38
-0.63804573 -0.36162671 1.9880002 1.9243052e-38
-0.68446195 -0.35504508 1.9690001 1.9243052e-38
-0.65476388 -0.34478447 1.9746627 1.9243052e-38
-0.62449801 -0.335226 1.9900125 1.9243052e-38
-0.6444568 -0.31066447 1.9690001 1.9243052e-38
-0.6174196 -0.30255285 1.9782848 1.9243052e-38
-0.59115869 -0.29294828 1.9907029 1.9243052e-38
-0.55017149 -0.28267428 1.9920001 1.9243052e-38
-0.50780195 -0.29658669 1.9920001 1.9243052e-38
-0.60872799 -0.27278551 1.9732308 1.9243052e-38
-0.57864898 -0.26163861 1.9823592 1.9243052e-38
-0.54084539 -0.25855815 1.9866664 1.9243052e-38
-0.5166738 -0.24879757 1.9768574 1.9243052e-38
-0.5691272 -0.23135446 1.9718391 1.9243052e-38
-0.53999758 -0.22344904 1.976527 1.9243052e-38
-0.51648319 -0.22305033 1.9708333 1.9243052e-38
-0.53144252 -0.19164933 1.9690001 1.9243052e-38
-0.51440585 -0.17874084 1.9703749 1.9243052e-38
0.9997943 -0.18402287 1.9920001 1.9243052e-38
1.0173628 -0.18585545 1.98076 1.9243052e-38
-0.055017143 0.26939428 1.9920001 1.9243052e-38
-0.47602153 0.46345314 1.7022777 1.9243052e-38
-0.47571355 0.38405627 1.7425565 1.9243052e-38
-0.59258264 -0.024042899 1.8577514 1.9243052e-38
-0.1250411 -0.39290076 1.9623621 1.9243052e-38
-0.09859962 -0.80425102 2.0377998 1.9243052e-38
-0.10336138 -0.75237983 2.0160911 1.9243052e-38
-0.31932348 -0.47852287 1.918552 1.9243052e-38
-0.24624422 -0.44927999 1.9217365 1.9243052e-38
-0.19200592 -0.41557887 1.9208571 1.9243052e-38
-0.37032086 -0.0041920952 1.8196936 1.9243052e-38
-0.43916208 0.43371961 1.7404435 1.9243052e-38
-0.62960595 0.11263301 1.7578168 1.9243052e-38
-0.93210363 -0.5225538 1.8071274 1.9243052e-38
-0.96848106 -0.36760724 1.7790978 1.9243052e-38
-0.86420608 -0.58912343 1.958401 1.9243052e-38
-0.88277513 -0.73143345 2.0042884 1.9243052e-38
-0.86179525 -0.77706349 2.0234773 1.9243052e-38
-0.83383209 -0.77214414 2.0334291 1.9243052e-38
-0.37945431 -0.65406024 1.9443662 1.9243052e-38
-0.11396827 -0.78832024 2.030082 1.9243052e-38
-0.0047550648 -0.79562014 2.0335453 1.9243052e-38
0.016071165 -0.79390585 2.0373337 1.9243052e-38
0.061105233 -0.79431689 2.0370004 1.9243052e-38
0.089693598 -0.7597037 2.0224781 1.9243052e-38
0.10674146 -0.7266081 2.0147712 1.9243052e-38
0.11653211 -0.7247777 2.0080299 1.9243052e-38
0.22135337 -0.78730029 2.0298631 1.9243052e-38
0.20836209 -0.76153719 2.0157113 1.9243052e-38
0.17349061 -0.67530853 1.9825228 1.9243052e-38
0.22297123 -0.69371796 1.9913905 1.9243052e-38
0.30477545 -0.716914 1.9975616 1.9243052e-38
0.40972224 -0.76623881 2.013253 1.9243052e-38
0.4595747 -0.77116984 2.0170648 1.9243052e-38
0.50058883 -0.77096885 2.0174778 1.9243052e-38
0.53911787 -0.77108914 2.0120707 1.9243052e-38
0.57551175 -0.77293533 2.0136671 1.9243052e-38
0.61963159 -0.76381439 2.0083787 1.9243052e-38
0.64286762 -0.76304758 2.003 1.9243052e-38
0.71011114 -0.76686287 2.003 1.9243052e-38
1.0344064 -0.76352441 2.003 1.9243052e-38
1.0434678 -0.76495522 2.003 1.9243052e-38
-0.92138004 -0.75732476 2.003 1.9243052e-38
-0.89539045 -0.74341613 2.0040159 1.9243052e-38
-0.85813332 -0.74239755 2.0101075 1.9243052e-38
-0.82562178 -0.73614812 2.0319016 1.9243052e-38
-0.79423904 -0.72433043 2.039 1.9243052e-38
0.38239479 -0.75801003 2.033 1.9243052e-38
0.4333508 -0.75658453 2.0283334 1.9243052e-38
0.44814003 -0.75918353 2.0370002 1.9243052e-38
0.53939629 -0.75789791 2.0193636 1.9243052e-38
0.58509803 -0.7541849 2.0203791 1.9243052e-38
0.62088132 -0.75189638 2.027 1.9243052e-38
0.6619581 -0.74360061 2.0238168 1.9243052e-38
0.69933343 -0.74047303 2.0261776 1.9243052e-38
0.73662615 -0.73841894 2.0232506 1.9243052e-38
0.77667367 -0.72970939 2.0163522 1.9243052e-38
0.81628627 -0.72592551 2.0235424 1.9243052e-38
0.85804713 -0.72268081 2.0246003 1.9243052e-38
0.90879261 -0.72467428 2.0136662 1.9243052e-38
0.93547398 -0.72502917 2.020838 1.9243052e-38
0.96144295 -0.72540009 2.0150001 1.9243052e-38
1.031942 -0.73913461 2.0043035 1.9243052e-38
1.0440408 -0.73536885 2.00825 1.9243052e-38
-0.88322765 -0.71917236 2.003 1.9243052e-38
-0.85231447 -0.70596564 2.0029991 1.9243052e-38
-0.81978315 -0.69916874 2.0165336 1.9243052e-38
-0.79223663 -0.69353533 2.0347652 1.9243052e-38
0.78680325 -0.71426392 2.0325389 1.9243052e-38
0.82646173 -0.71328604 2.0302503 1.9243052e-38
0.86270094 -0.70495617 2.0268943 1.9243052e-38
0.89977193 -0.70137662 2.0316854 1.9243052e-38
0.94153106 -0.69977641 2.0234599 1.9243052e-38
0.97972286 -0.69916362 2.0230451 1.9243052e-38
1.0183368 -0.70163321 2.0248601 1.9243052e-38
1.0498444 -0.70875466 2.0286005 1.9243052e-38
-0.84278613 -0.6726265 2.003 1.9243052e-38
-0.81876278 -0.66258532 2.0085282 1.9243052e-38
-0.78352702 -0.65772265 2.0237503 1.9243052e-38
-0.73404002 -0.648812 2.039 1.9243052e-38
0.9574219 -0.67534345 2.0342004 1.9243052e-38
0.97146064 -0.67555791 2.036 1.9243052e-38
1.0163224 -0.67560643 2.0389998 1.9243052e-38
-0.80852491 -0.63141835 2.0039594 1.9243052e-38
-0.7794295 -0.62166464 2.0133729 1.9243052e-38
-0.73975724 -0.61696202 2.0344336 1.9243052e-38
-0.71656287 -0.6058743 2.039 1.9243052e-38
-0.77024049 -0.58532125 2.0052316 1.9243052e-38
-0.74118012 -0.57993013 2.0195136 1.9243052e-38
-0.71011418 -0.57492423 2.0330005 1.9243052e-38
-0.76781666 -0.55797863 2.003 1.9243052e-38
-0.73952097 -0.54071599 2.0052741 1.9243052e-38
-0.70288569 -0.53820509 2.024333 1.9243052e-38
-0.73362702 -0.50659376 2.0038884 1.9243052e-38
-0.69622266 -0.50061804 2.0179429 1.9243052e-38
-0.65988857 -0.49634647 2.0355508 1.9243052e-38
-0.73061806 -0.47881237 2.003 1.9243052e-38
-0.69169748 -0.46931943 2.0055938 1.9243052e-38
-0.65917772 -0.45944545 2.0184901 1.9243052e-38
-0.62960505 -0.45404959 2.036768 1.9243052e-38
-0.65400511 -0.42230105 2.0051367 1.9243052e-38
-0.62145811 -0.41835687 2.0259995 1.9243052e-38
-0.58295983 -0.40741163 2.0389998 1.9243052e-38
-0.55538476 -0.40197429 2.039 1.9243052e-38
-0.64846349 -0.387501 2.0029993 1.9243052e-38
-0.61833435 -0.37999234 2.0137837 1.9243052e-38
-0.57820731 -0.37680683 2.037334 1.9243052e-38
-0.54652256 -0.37584671 2.0390007 1.9243052e-38
1.0563962 -0.36507809 2.039 1.9243052e-38
-0.61004621 -0.34692445 2.0054536 1.9243052e-38
-0.58027828 -0.34028327 2.0164113 1.9243052e-38
-0.54066837 -0.33961928 2.0278482 1.9243052e-38
-0.51363969 -0.33525795 2.0330005 1.9243052e-38
1.038919 -0.32041427 2.039 1.9243052e-38
1.0534322 -0.3414686 2.039 1.9243052e-38
-0.57586533 -0.30366912 2.0056345 1.9243052e-38
-0.54006159 -0.29996139 2.0113084 1.9243052e-38
-0.51354754 -0.30320281 2.0126922 1.9243052e-38
1.0369097 -0.29934248 2.0302732 1.9243052e-38
1.0449569 -0.29888746 2.0261223 1.9243052e-38
-0.5627476 -0.27660474 2.003 1.9243052e-38
-0.53794861 -0.2743156 2.003 1.9243052e-38
-0.51696473 -0.27469712 2.003 1.9243052e-38
1.0315505 -0.257083 2.0321434 1.9243052e-38
1.0468071 -0.26127023 2.030184 1.9243052e-38
1.0302893 -0.21875967 2.0221186 1.9243052e-38
1.0457745 -0.22572151 2.024231 1.9243052e-38
1.0201665 -0.19333261 2.0149999 1.9243052e-38
-0.052853975 0.26866013 2.0310001 1.9243052e-38
-0.046389952 0.28934383 2.0389998 1.9243052e-38
-0.043825537 0.34487489 2.0350001 1.9243052e-38
-0.023758322 0.34876305 2.0387826 1.9243052e-38
0.0045311111 0.35795778 2.039 1.9243052e-38
-0.043197524 0.37833834 2.0252004 1.9243052e-38
-0.019468877 0.38079408 2.0288708 1.9243052e-38
0.0062140948 0.38779828 2.0390003 1.9243052e-38
-0.043394607 0.40997609 2.0100002 1.9243052e-38
-0.01813633 0.41726333 2.0113745 1.9243052e-38
0.011145003 0.41620332 2.032001 1.9243052e-38
-0.67775345 -0.29836124 1.9268777 1.9243052e-38
-0.80112183 -0.61025584 1.9574448 1.9243052e-38
-0.79085726 -0.80568576 2.0760002 1.9243052e-38
-0.79587859 -0.5301367 1.9575002 1.9243052e-38
-0.61611575 -0.66603774 2.0350654 1.9243052e-38
-0.55364525 -0.62661833 2.0355842 1.9243052e-38
-0.41888264 -0.5406695 2.0030918 1.9243052e-38
-0.32222828 -0.68170935 1.9993447 1.9243052e-38
-0.29910779 -0.78816134 2.0473638 1.9243052e-38
-0.17244133 -0.7953006 2.0551586 1.9243052e-38
-0.23571934 -0.78976643 2.0547013 1.9243052e-38
-0.38783339 -0.7738325 2.0571806 1.9243052e-38
-0.33862907 -0.75122106 2.0543587 1.9243052e-38
-0.35429341 -0.66940022 2.0301778 1.9243052e-38
-0.27921852 -0.65701568 2.0347846 1.9243052e-38
-0.12151232 -0.70630705 2.0399673 1.9243052e-38
-0.11836166 -0.77150494 2.0412459 1.9243052e-38
-0.05274 -0.80282003 2.0510001 1.9243052e-38
-0.026370002 -0.80330837 2.0510004 1.9243052e-38
-0.84622747 -0.79587489 2.0510004 1.9243052e-38
-0.81717682 -0.78140408 2.0588915 1.9243052e-38
-0.79252625 -0.77400136 2.0711639 1.9243052e-38
-0.37664574 -0.79678869 2.0760002 1.9243052e-38
-0.3440229 -0.79678869 2.0760002 1.9243052e-38
-0.29657146 -0.79678869 2.0760002 1.9243052e-38
-0.25900576 -0.79678869 2.0760002 1.9243052e-38
-0.21687832 -0.78909689 2.0663097 1.9243052e-38
-0.18424013 -0.79184657 2.068691 1.9243052e-38
-0.13982123 -0.79212844 2.0655227 1.9243052e-38
-0.098664902 -0.79312879 2.0662255 1.9243052e-38
-0.058204677 -0.78239769 2.0578048 1.9243052e-38
-0.021644764 -0.78830618 2.0606811 1.9243052e-38
0.022568626 -0.78006268 2.0619771 1.9243052e-38
0.056451306 -0.77895635 2.0609131 1.9243052e-38
0.098231934 -0.77314758 2.0633698 1.9243052e-38
0.14102848 -0.76881158 2.0639291 1.9243052e-38
0.18163919 -0.77046669 2.0660641 1.9243052e-38
0.21921428 -0.77005726 2.0635209 1.9243052e-38
0.25880405 -0.76728457 2.0610831 1.9243052e-38
0.29819462 -0.76421708 2.0564857 1.9243052e-38
0.33630157 -0.76471174 2.0575144 1.9243052e-38
0.38281029 -0.7633701 2.0542004 1.9243052e-38
0.41643199 -0.76246333 2.0580912 1.9243052e-38
0.47075334 -0.76375335 2.0510004 1.9243052e-38
0.49875113 -0.76440448 2.0510006 1.9243052e-38
0.53716671 -0.76375335 2.0510004 1.9243052e-38
0.56646669 -0.76375335 2.0510001 1.9243052e-38
-0.81396258 -0.74826509 2.0521433 1.9243052e-38
-0.77909958 -0.73693591 2.0610874 1.9243052e-38
-0.74715292 -0.73690474 2.0741439 1.9243052e-38
-0.18223169 -0.74513596 2.063 1.9243052e-38
0.1146743 -0.75724578 2.0760002 1.9243052e-38
0.14070669 -0.75658691 2.0760002 1.9243052e-38
0.17700635 -0.75495642 2.0760002 1.9243052e-38
0.22168718 -0.75576305 2.0760002 1.9243052e-38
0.27042335 -0.74986345 2.0726297 1.9243052e-38
0.29932263 -0.75066882 2.0695684 1.9243052e-38
0.34054846 -0.75320292 2.0683286 1.9243052e-38
0.37990075 -0.75096267 2.0650153 1.9243052e-38
0.42249221 -0.74881405 2.0683799 1.9243052e-38
0.45985878 -0.74252212 2.0587888 1.9243052e-38
0.50005269 -0.74600703 2.0607264 1.9243052e-38
0.54043424 -0.74659497 2.0614064 1.9243052e-38
0.58129948 -0.74074721 2.0599504 1.9243052e-38
0.61932647 -0.73157775 2.0537927 1.9243052e-38
0.65616792 -0.72993696 2.0581648 1.9243052e-38
0.7008515 -0.7262221 2.0538001 1.9243052e-38
0.74276984 -0.72559685 2.0545878 1.9243052e-38
0.77113801 -0.72833663 2.0626669 1.9243052e-38
-0.77560169 -0.70226693 2.0548055 1.9243052e-38
-0.73978919 -0.69723845 2.0645237 1.9243052e-38
-0.71431357 -0.69510704 2.0760002 1.9243052e-38
0.59520912 -0.71346623 2.0695002 1.9243052e-38
0.61973763 -0.71501189 2.0698278 1.9243052e-38
0.67060357 -0.71666259 2.0632858 1.9243052e-38
0.69904196 -0.71417415 2.0552862 1.9243052e-38
0.73508543 -0.7142306 2.0620501 1.9243052e-38
0.78633761 -0.71118176 2.0659337 1.9243052e-38
0.82057309 -0.70451885 2.0658219 1.9243052e-38
0.86087513 -0.69417554 2.0640461 1.9243052e-38
0.89776045 -0.68380636 2.0643101 1.9243052e-38
0.93919164 -0.68717414 2.0698233 1.9243052e-38
0.99054861 -0.68211436 2.0760002 1.9243052e-38
1.0093575 -0.68981022 2.0526004 1.9243052e-38
1.063332 -0.69263875 2.0652087 1.9243052e-38
1.0814974 -0.68870485 2.0760002 1.9243052e-38
-0.76886207 -0.66473448 2.0509999 1.9243052e-38
-0.73933947 -0.6629591 2.0539165 1.9243052e-38
-0.70201355 -0.65643322 2.0714438 1.9243052e-38
-0.67816007 -0.64850295 2.0760002 1.9243052e-38
0.8758744 -0.67816007 2.0760002 1.9243052e-38
0.90302873 -0.67757744 2.0697503 1.9243052e-38
0.94977438 -0.6739375 2.0662258 1.9243052e-38
0.9825865 -0.66299427 2.064014 1.9243052e-38
1.0179319 -0.66582483 2.064616 1.9243052e-38
1.0556024 -0.67047584 2.0747418 1.9243052e-38
1.0814973 -0.67618293 2.0760002 1.9243052e-38
-0.76375335 -0.63874006 2.0510001 1.9243052e-38
-0.73250002 -0.63353115 2.0510006 1.9243052e-38
-0.69918704 -0.62076384 2.0567529 1.9243052e-38
-0.67384666 -0.61690998 2.071125 1.9243052e-38
-0.69225031 -0.58344847 2.0511827 1.9243052e-38
-0.6688444 -0.57925975 2.0657349 1.9243052e-38
-0.68424118 -0.54268199 2.0510004 1.9243052e-38
