# .PCD v0.7 - Point Cloud Data file format
VERSION 0.7
FIELDS x y z rgb
SIZE 4 4 4 4
TYPE F F F F
COUNT 1 1 1 1
WIDTH 271
HEIGHT 1
VIEWPOINT 0 0 0 1 0 0 0
POINTS 271
DATA ascii
-0.063037619 -0.051913336 0.59900004 1.3174609e-38
-0.12503077 -0.081695653 0.61381257 1.107652e-38
-0.11775259 -0.081121713 0.61377782 1.2552003e-38
-0.16586037 -0.05713271 0.61509955 1.5213742e-38
-0.13974041 -0.064623676 0.61097097 8.8573091e-39
-0.10190137 -0.058177736 0.61802465 7.3857888e-39
-0.062443633 -0.052360073 0.6051113 7.3800182e-39
-0.016929215 -0.044402856 0.62757075 1.1715023e-38
0.0019800677 -0.042069454 0.63235724 2.1295398e-38
-0.097011648 -0.019342534 0.62541711 8.8468288e-39
-0.060837638 -0.021400729 0.62720442 6.4627563e-39
-0.021717908 -0.026730102 0.63056767 7.1949039e-39
0.0026929488 -0.031745698 0.63066131 1.1893652e-38
-0.12526229 0.021699587 0.63357621 1.0956142e-38
-0.101463 0.01772503 0.63185596 1.0957948e-38
-0.066854849 0.01615094 0.63512963 1.1329624e-38
-0.092085496 0.056454759 0.63618898 1.3903161e-38
-0.077562943 0.043742951 0.63218188 1.2794651e-38
-0.087236255 -0.083646901 0.65671068 2.0819297e-38
-0.071580276 -0.080542728 0.64557147 2.2493213e-38
-0.083824329 -0.072028153 0.64493346 1.825331e-38
-0.057237431 -0.065206178 0.65361315 1.2449337e-38
-0.029040638 -0.058766741 0.66706032 1.1988358e-38
-0.13074143 -0.013526117 0.65539503 1.1786634e-38
-0.11719156 -0.034155503 0.64964116 1.3352183e-38
-0.045145955 -0.0055659804 0.6409601 6.7400634e-39
-0.016886011 -0.0080359951 0.65766305 8.9549264e-39
0.015620535 -0.0088499943 0.67097467 1.4942938e-38
-0.14114827 0.015242036 0.66277832 1.224616e-38
-0.099678464 0.022882881 0.65017545 5.5320853e-39
-0.053972233 0.021685872 0.66268885 9.4097108e-39
-0.022093786 0.010989245 0.66789991 1.1252208e-38
0.01602529 0.0074465843 0.67387301 9.3211781e-39
-0.12575065 0.055755757 0.64941132 1.1139803e-38
-0.10503042 0.062990345 0.64450002 1.1416397e-38
-0.073036879 0.065401703 0.6575681 1.7779671e-38
-0.093183212 0.096891008 0.64906871 1.0034906e-38
-0.066476911 0.099424399 0.65649325 1.8050529e-38
-0.086195603 0.13782562 0.67104918 8.4683031e-39
-0.070434123 0.13833137 0.67152089 1.4180834e-38
-0.082530834 0.16304083 0.67899996 8.5604987e-39
-0.074726358 0.16381919 0.67867357 1.0403697e-38
0.19024026 0.26696309 0.67356592 9.4806543e-39
0.21973793 0.26273376 0.66889167 1.1692628e-38
0.25620827 0.26648858 0.67145711 1.6947057e-38
0.28272283 0.27562097 0.6774686 1.9436706e-38
0.18663272 0.29073712 0.67257154 8.1913518e-39
0.21932696 0.28903383 0.66306353 9.2973393e-39
0.26041719 0.28984767 0.6669147 1.4181543e-38
0.28798014 0.29294398 0.67623752 1.7222558e-38
-0.055345017 0.037556153 0.70148766 1.7595296e-38
-0.029565712 0.0060937144 0.68080008 1.2451111e-38
0.015138095 0.015704758 0.68000001 1.207514e-38
-0.082248151 0.058456834 0.68647999 1.1781211e-38
-0.060942054 0.060721759 0.68747449 1.6576478e-38
-0.054676399 0.087474294 0.68453538 2.0261056e-38
-0.091671906 0.15430528 0.68307155 8.6541335e-39
-0.055990096 0.14444141 0.69278193 1.8695178e-38
-0.090209447 0.18052161 0.69007164 8.4690247e-39
-0.060812227 0.18126202 0.69579619 1.4641453e-38
-0.092388488 0.21984807 0.70456558 8.0084081e-39
-0.059492398 0.21978453 0.70323163 1.2429838e-38
-0.038782429 0.23288134 0.71899998 1.6207693e-38
0.19067325 0.23617795 0.71044248 1.1968123e-38
0.22018926 0.2320863 0.70501709 1.3534727e-38
0.25670552 0.23277655 0.70751226 1.7037081e-38
0.28462881 0.23714972 0.71562064 1.989587e-38
-0.088672042 0.2572453 0.7121551 7.8240169e-39
-0.06019054 0.25881439 0.71004689 9.6664889e-39
-0.039031431 0.25039464 0.71900004 1.4363431e-38
0.15153763 0.26835209 0.70756966 1.0771022e-38
0.17617568 0.25586507 0.69473732 1.104689e-38
0.21948195 0.24362911 0.68571997 1.316631e-38
0.26371869 0.24885368 0.6888243 1.842146e-38
0.2974942 0.26141107 0.69961977 2.1004385e-38
0.32570887 0.2747533 0.71310294 2.0545926e-38
-0.083285995 0.28302461 0.71852934 7.1793663e-39
-0.063995346 0.28647953 0.71684444 7.5470712e-39
0.1445317 0.29754221 0.70352924 9.0200321e-39
0.16704296 0.29304957 0.68457752 8.5594141e-39
0.30781427 0.29281157 0.68704826 1.8698048e-38
0.33768773 0.29908171 0.70403653 1.7961563e-38
0.36086956 0.29855621 0.71900004 1.8699846e-38
0.12992287 0.32070667 0.71800005 8.9274833e-39
-0.043565139 0.17987236 0.72397912 1.7314412e-38
-0.038673513 0.1895041 0.72674996 1.6490769e-38
0.19305722 0.19914548 0.75773931 1.3808797e-38
0.21860099 0.1976158 0.75497395 1.4454523e-38
0.24694487 0.19866619 0.75654542 1.6666859e-38
-0.10758711 0.23347083 0.72276467 9.2930555e-39
-0.040457144 0.20944762 0.72000009 1.7404078e-38
-0.032722447 0.22443947 0.73170477 1.5653794e-38
0.15065245 0.22790594 0.75022298 1.1968126e-38
0.17977643 0.22040068 0.74079418 1.2612413e-38
0.21923313 0.21249022 0.73694938 1.3994266e-38
0.25985444 0.21424496 0.73841858 1.722039e-38
0.29742685 0.2268675 0.74175608 1.9894428e-38
0.32798347 0.23603316 0.75364858 2.072563e-38
-0.1039389 0.26367569 0.72816783 9.3899048e-39
-0.041363936 0.27046013 0.72060603 1.1508962e-38
-0.025821682 0.26151422 0.73729241 1.3074478e-38
0.11876889 0.27672571 0.7573334 9.2037045e-39
0.13890897 0.25875592 0.73871607 1.104653e-38
0.16411191 0.24324711 0.72469091 1.1783729e-38
0.31111795 0.24657106 0.72844434 2.1279887e-38
0.34101111 0.25991011 0.74017066 2.0082064e-38
0.36854318 0.26667964 0.74986148 1.6671185e-38
-0.092203297 0.29955271 0.73311818 7.5481544e-39
-0.057825081 0.30425593 0.72602963 7.1782887e-39
-0.024012227 0.29951477 0.74002945 9.205145e-39
0.11290105 0.30419371 0.7448253 8.8352793e-39
0.12578586 0.29672819 0.72823071 9.4802872e-39
0.3524105 0.28688565 0.72541046 1.8791687e-38
0.36466873 0.28730547 0.73278022 1.7224717e-38
-0.086416498 0.32555559 0.74222416 6.9960625e-39
-0.059200514 0.32557341 0.73641616 6.16522e-39
-0.023845306 0.3272256 0.74645531 6.8091419e-39
0.10530986 0.32686421 0.74447763 8.190633e-39
0.12408691 0.32171428 0.72237504 9.0185958e-39
0.099677384 0.19947915 0.79791665 1.2704249e-38
0.14445378 0.18720022 0.78714627 1.2980481e-38
0.17999916 0.18231857 0.77907825 1.4177581e-38
0.21920621 0.18059623 0.7777946 1.5467598e-38
0.25849482 0.18741633 0.77971941 1.7863603e-38
0.29602018 0.19411977 0.78966808 1.8509693e-38
0.32259619 0.19886987 0.79700005 1.9708956e-38
0.029262342 0.23100248 0.79268807 1.1414237e-38
0.06145018 0.22355393 0.7863211 1.2336194e-38
0.099376403 0.22042413 0.78691804 1.1599348e-38
0.13506275 0.21704862 0.77462494 1.1230924e-38
0.16721429 0.20293191 0.76139277 1.316523e-38
0.27188602 0.20197386 0.76311421 1.8509688e-38
0.30365112 0.20929505 0.77249092 1.9155778e-38
0.33935648 0.22174422 0.77772164 1.9894432e-38
0.3764976 0.23138884 0.78706878 1.9065752e-38
0.40026906 0.23393285 0.79750001 1.8789881e-38
-0.0066392012 0.26473263 0.79122156 9.0175126e-39
0.020148164 0.26037166 0.78215086 9.7554349e-39
0.059671029 0.26000452 0.77168232 1.0033104e-38
0.10114485 0.26011088 0.77507132 8.0987961e-39
0.12453902 0.25244001 0.76541013 9.0200349e-39
0.35417271 0.243205 0.76230246 1.9434896e-38
0.37556902 0.24798669 0.76844865 1.7869006e-38
-0.0042496249 0.29894733 0.77007192 6.9002543e-39
0.019452577 0.29974341 0.76776832 8.4668597e-39
0.059134085 0.29893008 0.76980633 7.3608723e-39
0.097288169 0.29824474 0.77370363 5.9797385e-39
-0.0055736629 0.33110392 0.76271319 6.4407181e-39
0.019801855 0.33112419 0.76420027 7.0842882e-39
0.057975527 0.33364198 0.7794776 4.4142191e-39
0.088139437 0.33236718 0.77757305 5.6120378e-39
0.42003277 -0.043059792 0.83900011 5.0635598e-39
0.38846406 -0.007009882 0.83337724 7.4602832e-39
0.40999967 -0.016890531 0.83333045 1.0865751e-38
0.35845277 0.037235625 0.83900005 1.104726e-38
0.38160691 0.020885563 0.82850367 1.0034911e-38
0.40591043 0.021816982 0.82334095 9.6715392e-39
0.35352233 0.063825548 0.83339012 1.0126385e-38
0.37897897 0.059837088 0.81877714 1.1140899e-38
0.40428919 0.059927918 0.81513399 1.1509325e-38
0.35147509 0.099886499 0.82915115 7.8254546e-39
0.3791393 0.1004128 0.81394893 8.1960462e-39
0.40435198 0.099951528 0.81288016 1.086396e-38
0.11185616 0.15487868 0.83430511 1.3810236e-38
0.14201641 0.14878744 0.82679933 1.4454527e-38
0.1791252 0.14721029 0.82086015 1.5837094e-38
0.21788679 0.15256022 0.82199591 1.6021128e-38
0.25243106 0.15721108 0.82990253 1.5744898e-38
0.35357404 0.129346 0.83131409 6.81166e-39
0.38060182 0.13852708 0.82032865 6.0762656e-39
0.40361947 0.13846134 0.81244326 7.6461192e-39
0.035826098 0.19861569 0.83353347 1.390208e-38
0.064155795 0.19125508 0.8225013 1.4085744e-38
0.10064621 0.18093766 0.81549585 1.3348542e-38
0.13482323 0.17063764 0.80769187 1.3532935e-38
0.17827433 0.16211656 0.80137551 1.5099175e-38
0.22385381 0.16273165 0.80379295 1.6020413e-38
0.26291558 0.16839632 0.8143189 1.6757974e-38
0.29998824 0.17778954 0.81868899 1.6944165e-38
0.33565465 0.18925333 0.82560456 1.9526364e-38
0.37201932 0.18651405 0.83571261 1.7962993e-38
-0.0047414796 0.23520102 0.82301533 1.1875934e-38
0.019733554 0.21846299 0.81657374 1.2703534e-38
0.053759962 0.20498103 0.80597824 1.3440382e-38
0.10101076 0.20080028 0.80008698 1.2520584e-38
0.34848964 0.2057106 0.81080735 1.9801513e-38
0.3811568 0.21273522 0.81709158 1.8972833e-38
0.40814987 0.21784347 0.82514083 1.8143434e-38
-0.013978465 0.24865186 0.81255001 1.0584838e-38
0.0036251587 0.24269627 0.80241674 1.0675948e-38
0.074835978 0.3518585 0.81026536 2.2069288e-39
0.080446273 0.34045932 0.80228579 2.7590179e-39
0.070240907 0.36242408 0.81505013 1.8395896e-39
0.38064954 -0.081426091 0.87420005 2.8570107e-39
0.42598468 -0.080418371 0.86042857 8.299441e-39
0.3858265 -0.054232363 0.86713326 3.6842253e-39
0.41399616 -0.058970187 0.85373521 3.7767894e-39
0.35379338 -0.011255473 0.8720066 3.9608164e-39
0.37669536 -0.02273104 0.85655761 5.8936764e-39
0.4079864 -0.034074333 0.84412897 9.1140312e-39
0.34766823 0.023231842 0.85954165 8.9303644e-39
0.36443487 0.010932995 0.84737134 1.1047616e-38
0.33606735 0.059119996 0.8577224 9.9430702e-39
0.14832307 0.11865392 0.86904562 1.4545659e-38
0.17324214 0.11823256 0.86904866 1.5102078e-38
0.31594625 0.108192 0.87477988 1.1968124e-38
0.33152723 0.09958525 0.85626376 9.3902509e-39
0.078184023 0.15886001 0.87033337 1.3810957e-38
0.10215583 0.14738615 0.85727632 1.4270496e-38
0.13892268 0.12990203 0.85516512 1.4731833e-38
0.18073091 0.12740746 0.85520083 1.5837098e-38
0.21692778 0.14029826 0.85306716 1.5284641e-38
0.26288059 0.15145467 0.85706002 1.3994265e-38
0.30459285 0.14470614 0.8664341 1.2244707e-38
0.33700439 0.14088258 0.85399014 9.7575901e-39
0.36517981 0.15533441 0.84768075 8.8338388e-39
0.038323175 0.19572254 0.85133356 1.4547448e-38
0.063115396 0.1775229 0.85219675 1.3994628e-38
0.085692383 0.16451721 0.84671855 1.3809876e-38
0.27712953 0.16099143 0.84100002 1.5006616e-38
0.30532268 0.1633078 0.84666109 1.4271569e-38
0.34345567 0.17207457 0.85065675 1.6299876e-38
0.37854376 0.18207394 0.85830092 1.8144148e-38
0.41080672 0.19604969 0.8671667 1.7498064e-38
0.02002381 0.20584477 0.84100002 1.3994991e-38
0.395246 0.20191769 0.84228587 1.9157944e-38
0.42013451 0.20539431 0.8551712 1.7775013e-38
0.44083336 0.20416668 0.87500006 1.7406596e-38
0.38587964 -0.08376307 0.90452933 3.9590339e-39
0.34885627 -0.046513375 0.89693719 3.0399391e-39
0.37470558 -0.062487487 0.88688308 3.3165259e-39
0.31914738 -0.003961429 0.90570003 1.0949658e-38
0.33934417 -0.020490522 0.89432615 4.9720816e-39
0.31544995 0.021810459 0.90219212 1.1414239e-38
0.33166912 0.01639534 0.89155155 1.0585916e-38
0.3155995 0.062218126 0.90244091 1.1693344e-38
0.32241422 0.059069045 0.88476306 1.1599346e-38
0.30718529 0.10077111 0.89734823 1.2152874e-38
0.32099047 0.081295244 0.88000005 1.1784448e-38
0.10281252 0.14090881 0.88335007 1.427014e-38
0.23318346 0.14012463 0.9078728 1.353509e-38
0.26021641 0.13924257 0.89754117 1.3535087e-38
0.29319274 0.13115557 0.89197117 1.2521295e-38
0.39809525 0.18019049 0.88000005 1.9433805e-38
0.42243272 0.19142871 0.89884454 1.749842e-38
0.44921392 0.19806208 0.90746021 1.6392433e-38
0.4370836 0.20098428 0.88300002 1.7130361e-38
0.44653448 0.20206407 0.88919032 1.7221839e-38
0.3360343 -0.043121763 0.92984629 4.4192722e-39
0.33056086 -0.031050671 0.92773199 4.0522889e-39
0.31277415 0.028458767 0.93241173 6.2628176e-39
0.31141409 0.053589806 0.92712474 7.8294161e-39
0.27960002 0.11982857 0.93200004 1.361112e-38
0.29635209 0.10499045 0.9286055 1.1969927e-38
0.22693008 0.13167219 0.92361957 1.3904245e-38
0.26413691 0.12759112 0.92477226 1.316667e-38
0.28429154 0.12323534 0.92343497 1.2337267e-38
0.43754259 0.19028465 0.9259001 1.6392077e-38
0.4506039 0.19443919 0.92442852 1.5839628e-38
-0.02031729 0.26187366 0.98770368 4.2377634e-39
0.00094952382 0.25637144 0.99700004 4.4210896e-39
-0.0073864944 0.23596497 1.0254618 4.8831314e-39
0.011417194 0.23527388 1.0323837 4.8834929e-39
-0.014499722 0.24718367 1.0098054 4.6072648e-39
0.0097404886 0.24557561 1.0168663 4.6980255e-39
0.026204262 0.23150171 1.0483289 5.343755e-39
0.041429527 0.23240954 1.0610001 5.9866147e-39
0.13947827 0.23175977 0.85264295 1.5473005e-38
0.006550658 0.28297475 0.92418104 1.4829802e-38
0.014751995 0.1029773 0.83018512 1.3082783e-38
-0.054522306 0.085553199 0.85272765 1.2716889e-38
