# .PCD v0.7 - Point Cloud Data file format
VERSION 0.7
FIELDS x y z rgb
SIZE 4 4 4 4
TYPE F F F F
COUNT 1 1 1 1
WIDTH 1060
HEIGHT 1
VIEWPOINT 0 0 0 1 0 0 0
POINTS 1060
DATA ascii
-0.54230422 0.020628642 1.8579619 1.75861e-38
-0.51986569 0.031937141 1.863 1.75861e-38
-0.56343144 0.040370476 1.8430001 1.75861e-38
-0.53273094 0.054721352 1.8493847 1.75861e-38
-0.51558006 0.065070555 1.8513335 1.75861e-38
-0.52306098 0.090219237 1.8430003 1.75861e-38
-0.50560522 0.10177632 1.8440536 1.75861e-38
-0.49907273 0.12595922 1.8429999 1.75861e-38
-0.40964529 0.23157972 1.84675 1.75861e-38
-0.3992143 0.23952857 1.863 1.75861e-38
-0.4054935 0.24709924 1.8480002 1.75861e-38
-0.38735169 0.26441482 1.8465296 1.75861e-38
-0.37256446 0.29933137 1.8467309 1.75861e-38
-0.35681072 0.30588979 1.8435559 1.75861e-38
-0.36421192 0.32384145 1.8430001 1.75861e-38
-0.353973 0.32705936 1.8430003 1.75861e-38
-0.77826655 0.19815573 1.6225836 1.75861e-38
-0.95302916 -0.4904891 1.8476911 1.75861e-38
-1.0194175 -0.70930803 1.9095838 1.75861e-38
0.88819528 -0.75566518 1.9150002 1.75861e-38
-1.0463836 -0.70034248 1.8877244 1.75861e-38
-1.0264729 -0.69781184 1.9037904 1.75861e-38
-0.99488807 -0.68301666 1.9150001 1.75861e-38
-1.0431308 -0.67343944 1.8843752 1.75861e-38
-1.0148512 -0.66170228 1.8930373 1.75861e-38
-0.98437572 -0.65474188 1.9097356 1.75861e-38
-0.95793831 -0.64561599 1.91225 1.75861e-38
-1.0058454 -0.63022929 1.8847368 1.75861e-38
-0.98232234 -0.61937326 1.8954268 1.75861e-38
-0.94669628 -0.61377209 1.9056667 1.75861e-38
-0.97089016 -0.58265948 1.8860885 1.75861e-38
-0.94053543 -0.57959986 1.8926045 1.75861e-38
-0.90438765 -0.57392287 1.9089423 1.75861e-38
-0.8772524 -0.57450002 1.9150001 1.75861e-38
-0.96391672 -0.55503666 1.8830001 1.75861e-38
-0.93576735 -0.54637104 1.8835902 1.75861e-38
-0.90116203 -0.53883404 1.8978643 1.75861e-38
-0.87210667 -0.52873659 1.9143893 1.75861e-38
-0.89566183 -0.50160307 1.8843641 1.75861e-38
-0.86122948 -0.4990094 1.9024442 1.75861e-38
-0.83712858 -0.50884289 1.9150001 1.75861e-38
-0.88516134 -0.46965346 1.8834999 1.75861e-38
-0.85952818 -0.46138075 1.894367 1.75861e-38
-0.82347733 -0.45302525 1.9105057 1.75861e-38
-0.79700488 -0.44804925 1.9150002 1.75861e-38
-0.85801083 -0.42884246 1.8837986 1.75861e-38
-0.81996745 -0.42049757 1.9014649 1.75861e-38
-0.78789777 -0.41914994 1.9145008 1.75861e-38
-0.84107339 -0.39991334 1.8830001 1.75861e-38
-0.8199569 -0.38140225 1.8886398 1.75861e-38
-0.78439271 -0.37911513 1.9030139 1.75861e-38
-0.81502104 -0.349592 1.8856833 1.75861e-38
-0.77867359 -0.34216014 1.8976384 1.75861e-38
-0.7488392 -0.33604053 1.9120976 1.75861e-38
-0.80879337 -0.30307335 1.8830001 1.75861e-38
-0.77168292 -0.30719635 1.888158 1.75861e-38
-0.7423628 -0.29921255 1.9062666 1.75861e-38
-0.71383905 -0.29399809 1.9150002 1.75861e-38
-0.736552 -0.26407537 1.8923967 1.75861e-38
-0.70478171 -0.2543788 1.9080585 1.75861e-38
-0.65940839 -0.25634655 1.9150006 1.75861e-38
-0.72869116 -0.23652074 1.8830003 1.75861e-38
-0.69865781 -0.22339287 1.898271 1.75861e-38
-0.66074365 -0.21594727 1.9118921 1.75861e-38
-0.63173956 -0.20665164 1.9150004 1.75861e-38
-0.68904752 -0.18055607 1.8830005 1.75861e-38
-0.6598208 -0.1800292 1.8919718 1.75861e-38
-0.62240511 -0.1780664 1.9089093 1.75861e-38
-0.59638572 -0.16231906 1.9150001 1.75861e-38
-0.65704405 -0.14638965 1.8842061 1.75861e-38
-0.61568493 -0.14072755 1.8970555 1.75861e-38
-0.58245963 -0.13726275 1.9108744 1.75861e-38
-0.55808568 -0.12219524 1.9150001 1.75861e-38
-0.60857224 -0.1119682 1.8879999 1.75861e-38
-0.57855886 -0.099598654 1.8986719 1.75861e-38
-0.54726988 -0.096810058 1.9141539 1.75861e-38
-0.50342995 -0.086797841 1.9106961 1.75861e-38
-0.57125247 -0.064923666 1.888043 1.75861e-38
-0.5408271 -0.0590753 1.9037321 1.75861e-38
-0.51231647 -0.065230742 1.9091028 1.75861e-38
-0.56669343 -0.037660003 1.8830001 1.75861e-38
-0.54052478 -0.030811146 1.8860569 1.75861e-38
-0.51798332 -0.032384761 1.8885001 1.75861e-38
-0.92945993 -0.1191073 1.6892744 1.75861e-38
-0.87710226 -0.3268488 1.8209404 1.75861e-38
-0.88103747 -0.47848797 1.8885669 1.75861e-38
-1.0417525 -0.75596195 1.9360001 1.75861e-38
-1.0199397 -0.74050415 1.9365941 1.75861e-38
-0.98012394 -0.73732626 1.9487746 1.75861e-38
-0.94692618 -0.72464651 1.9580002 1.75861e-38
0.66385531 -0.7589581 1.9580001 1.75861e-38
0.71047437 -0.7589581 1.9580001 1.75861e-38
0.74311727 -0.75524437 1.9481888 1.75861e-38
0.78065389 -0.75372821 1.953319 1.75861e-38
0.82461208 -0.75352222 1.9490751 1.75861e-38
0.86275327 -0.74678928 1.9419825 1.75861e-38
0.89757824 -0.74570245 1.9332193 1.75861e-38
0.93699712 -0.75366366 1.937886 1.75861e-38
0.9669227 -0.75659913 1.9543335 1.75861e-38
-1.0107017 -0.70836937 1.9303592 1.75861e-38
-0.97963661 -0.69887686 1.9367603 1.75861e-38
-0.94127339 -0.69836926 1.9510877 1.75861e-38
-0.91533172 -0.68996197 1.9580002 1.75861e-38
-0.97781026 -0.66853821 1.9262947 1.75861e-38
-0.93927622 -0.65885061 1.9329461 1.75861e-38
-0.9045155 -0.65603441 1.9476618 1.75861e-38
-0.93372697 -0.62819356 1.9268827 1.75861e-38
-0.90018743 -0.62197399 1.938405 1.75861e-38
-0.87209225 -0.6150493 1.9519105 1.75861e-38
-0.8342945 -0.60380989 1.9580001 1.75861e-38
-0.89585274 -0.58900946 1.9255902 1.75861e-38
-0.86090922 -0.57951593 1.9443445 1.75861e-38
-0.82427037 -0.57787192 1.9565326 1.75861e-38
-0.79749656 -0.5625366 1.9580001 1.75861e-38
-0.88458335 -0.55213898 1.925 1.75861e-38
-0.85799384 -0.54247183 1.9306589 1.75861e-38
-0.82146388 -0.53904641 1.9479687 1.75861e-38
-0.79635477 -0.53585607 1.9576206 1.75861e-38
-0.84443325 -0.50105 1.9249996 1.75861e-38
-0.82052028 -0.50018674 1.9345591 1.75861e-38
-0.78315753 -0.49652985 1.9526063 1.75861e-38
-0.7589581 -0.48670289 1.9580001 1.75861e-38
-0.84149998 -0.47850001 1.9250001 1.75861e-38
-0.816378 -0.47108471 1.9259367 1.75861e-38
-0.77859545 -0.45948675 1.9400313 1.75861e-38
-0.75522864 -0.45885575 1.9580002 1.75861e-38
-0.82316667 -0.43633336 1.9250001 1.75861e-38
-0.76969522 -0.42142844 1.9316293 1.75861e-38
-0.74419254 -0.41665575 1.9536773 1.75861e-38
-0.71793336 -0.40838286 1.9580001 1.75861e-38
-0.76494682 -0.38477823 1.932652 1.75861e-38
-0.73999012 -0.37953699 1.9474611 1.75861e-38
-0.71217054 -0.37513661 1.9571539 1.75861e-38
-0.73031425 -0.3421725 1.9275889 1.75861e-38
-0.70606482 -0.3386479 1.9468931 1.75861e-38
-0.66530561 -0.33026999 1.9579999 1.75861e-38
-0.72311908 -0.30721435 1.9249998 1.75861e-38
-0.69663846 -0.29945627 1.9334186 1.75861e-38
-0.65887183 -0.3002173 1.9509424 1.75861e-38
-0.63268709 -0.29050326 1.9580002 1.75861e-38
-0.69011492 -0.26614723 1.9258008 1.75861e-38
-0.65756845 -0.26041895 1.9310889 1.75861e-38
-0.62362778 -0.25832969 1.9494563 1.75861e-38
-0.59373564 -0.24922563 1.9558002 1.75861e-38
-0.65589631 -0.23097505 1.9255235 1.75861e-38
-0.6192506 -0.22238857 1.9375733 1.75861e-38
-0.58315092 -0.21736978 1.9522835 1.75861e-38
-0.55321276 -0.20761016 1.9580001 1.75861e-38
-0.60774082 -0.18849461 1.9270369 1.75861e-38
-0.58010805 -0.18030863 1.9392278 1.75861e-38
-0.54375392 -0.17686291 1.9525 1.75861e-38
-0.51254386 -0.1662143 1.9570001 1.75861e-38
-0.56851178 -0.14879026 1.9312431 1.75861e-38
-0.53995109 -0.13941866 1.9430978 1.75861e-38
-0.50434202 -0.13740744 1.9497844 1.75861e-38
-0.46799392 -0.12145049 1.9532859 1.75861e-38
-0.53230613 -0.10699788 1.9345332 1.75861e-38
-0.49949226 -0.10639565 1.9348572 1.75861e-38
-0.46322852 -0.11305407 1.943174 1.75861e-38
-0.52983332 -0.078833334 1.9250001 1.75861e-38
-0.080184758 0.41584191 1.9580001 1.75861e-38
-0.068996191 0.43026277 1.9580002 1.75861e-38
-0.048483811 0.44194859 1.9580001 1.75861e-38
-0.8052386 -0.2687844 1.8394073 1.75861e-38
-0.82906926 -0.40559241 1.8904752 1.75861e-38
-0.79136252 -0.53661358 1.8858868 1.75861e-38
-0.70024335 -0.061305702 1.7635001 1.75861e-38
-0.96901315 -0.25183827 1.6976553 1.75861e-38
-0.74452615 0.21043055 1.6500783 1.75861e-38
0.52291411 -0.6698736 1.9515127 1.75861e-38
0.65594476 -0.76440561 1.9804647 1.75861e-38
0.69594544 -0.76802242 1.9788009 1.75861e-38
0.73406631 -0.76387662 1.9824002 1.75861e-38
0.67433321 -0.6615842 1.9337784 1.75861e-38
-0.96553922 -0.75009531 1.9690001 1.75861e-38
-0.93865418 -0.74378753 1.9727061 1.75861e-38
-0.90948194 -0.73227459 1.9828851 1.75861e-38
-0.85409373 -0.72584689 1.9920002 1.75861e-38
0.59570289 -0.75506288 1.9920001 1.75861e-38
0.63283271 -0.75316578 1.9920003 1.75861e-38
0.66561925 -0.75486046 1.9839526 1.75861e-38
0.70206165 -0.75208467 1.9876342 1.75861e-38
0.74103618 -0.74612409 1.9849681 1.75861e-38
0.77792495 -0.74269122 1.9830269 1.75861e-38
0.82177693 -0.74139446 1.9818747 1.75861e-38
0.85984606 -0.73403996 1.9785382 1.75861e-38
0.90142596 -0.73036861 1.9762738 1.75861e-38
0.94170517 -0.7394861 1.9772882 1.75861e-38
0.97810978 -0.73858106 1.9738858 1.75861e-38
1.0124259 -0.7448082 1.9894058 1.75861e-38
-0.92717141 -0.70803624 1.9690001 1.75861e-38
-0.89919776 -0.69849879 1.9770429 1.75861e-38
-0.85431749 -0.69510472 1.9879998 1.75861e-38
-0.83757854 -0.70225006 1.9875002 1.75861e-38
0.87357724 -0.71864384 1.9840002 1.75861e-38
0.9011429 -0.71901715 1.9920001 1.75861e-38
0.95409769 -0.71179479 1.9830002 1.75861e-38
0.98004258 -0.71429837 1.9843335 1.75861e-38
1.0126951 -0.71471202 1.9905884 1.75861e-38
-0.89078999 -0.66774386 1.973501 1.75861e-38
-0.86046058 -0.65934652 1.9808981 1.75861e-38
-0.8312915 -0.64991742 1.9855386 1.75861e-38
-0.85687232 -0.62449753 1.9716762 1.75861e-38
-0.82039076 -0.61857998 1.9769268 1.75861e-38
-0.79537719 -0.60471433 1.9920003 1.75861e-38
-0.84948289 -0.57944858 1.9690001 1.75861e-38
-0.80929989 -0.58493227 1.9738787 1.75861e-38
-0.78659004 -0.57696146 1.9833249 1.75861e-38
-0.77848083 -0.54127192 1.9754232 1.75861e-38
-0.75284117 -0.53041321 1.9890361 1.75861e-38
-0.77744782 -0.51077616 1.9690007 1.75861e-38
-0.74633276 -0.4980275 1.9779383 1.75861e-38
-0.7650972 -0.45943335 1.9690001 1.75861e-38
-0.73898566 -0.46029744 1.9735692 1.75861e-38
-0.70898718 -0.45248428 1.9905003 1.75861e-38
-0.67538285 -0.4420343 1.9920001 1.75861e-38
-0.72661728 -0.42627919 1.9690005 1.75861e-38
-0.70073849 -0.4190343 1.9839664 1.75861e-38
-0.6680274 -0.41534117 1.9919989 1.75861e-38
-0.69489735 -0.38299528 1.9733471 1.75861e-38
-0.66296214 -0.37792423 1.9872363 1.75861e-38
-0.63679874 -0.36632767 1.990667 1.75861e-38
-0.68932748 -0.34367537 1.9690009 1.75861e-38
-0.65634942 -0.34505138 1.9736202 1.75861e-38
-0.62469369 -0.33629596 1.9898939 1.75861e-38
-0.6447069 -0.31241471 1.9690001 1.75861e-38
-0.61720997 -0.30238912 1.9795518 1.75861e-38
-0.59031653 -0.29256234 1.9910767 1.75861e-38
-0.6082409 -0.27513549 1.9729286 1.75861e-38
-0.57857168 -0.26169109 1.9822469 1.75861e-38
-0.5437212 -0.25092888 1.9919989 1.75861e-38
-0.5141257 -0.24473146 1.9920003 1.75861e-38
-0.56953186 -0.23275442 1.9719341 1.75861e-38
-0.5392698 -0.22012603 1.9821833 1.75861e-38
-0.50730842 -0.21693192 1.9868333 1.75861e-38
-0.53070289 -0.18883151 1.9724143 1.75861e-38
-0.49910164 -0.18103889 1.9781328 1.75861e-38
-0.46953943 -0.17354894 1.9908673 1.75861e-38
1.0212146 -0.18260416 1.9878622 1.75861e-38
-0.49010864 -0.14587176 1.9723686 1.75861e-38
-0.45942616 -0.13994458 1.9827753 1.75861e-38
-0.4301281 -0.1383606 1.9920005 1.75861e-38
-0.44674173 -0.116888 1.9860001 1.75861e-38
-0.42767021 -0.11518369 1.9920006 1.75861e-38
-0.053347662 0.38709301 1.9920003 1.75861e-38
-0.05867599 0.41791114 1.9819331 1.75861e-38
-0.033559117 0.4210217 1.9896002 1.75861e-38
-0.056082048 0.44299474 1.9721429 1.75861e-38
-0.034148574 0.4420343 1.9920001 1.75861e-38
-0.69114703 0.224235 1.6882766 1.75861e-38
-0.72262985 -0.043020535 1.7861739 1.75861e-38
-0.73848778 -0.24669585 1.8658445 1.75861e-38
-0.51206112 -0.69746578 2.00582 1.75861e-38
-0.54765177 -0.56588662 1.9974037 1.75861e-38
-0.38865808 -0.56460595 1.9963125 1.75861e-38
-0.58437341 -0.39344522 1.8922849 1.75861e-38
-0.45677429 -0.18280523 1.8889117 1.75861e-38
-0.44208026 -0.15779731 1.8296756 1.75861e-38
-0.56098419 0.20251577 1.7585258 1.75861e-38
-0.39442524 0.48218006 1.7447947 1.75861e-38
-0.37864491 0.53930175 1.7364992 1.75861e-38
-0.86588776 0.012791107 1.6602085 1.75861e-38
-0.86791313 -0.64687824 1.9480224 1.75861e-38
-0.90441507 -0.77265638 2.0141149 1.75861e-38
-0.8605594 -0.77856529 2.0253496 1.75861e-38
-0.83379346 -0.77267063 2.0366004 1.75861e-38
-0.097319283 -0.76695055 2.0349777 1.75861e-38
-0.09940692 -0.68058246 2.0257759 1.75861e-38
0.029194927 -0.76160413 2.0341346 1.75861e-38
0.061770227 -0.79500896 2.037452 1.75861e-38
0.048056591 -0.7499873 2.0224793 1.75861e-38
0.082894005 -0.70786899 2.0080681 1.75861e-38
0.10902372 -0.67476583 1.999555 1.75861e-38
0.18850376 -0.72772014 2.0159976 1.75861e-38
0.2212695 -0.69198412 2.0055513 1.75861e-38
0.19288844 -0.7362563 1.9964747 1.75861e-38
0.19844882 -0.6847958 1.9814587 1.75861e-38
0.30870172 -0.72836876 2.000839 1.75861e-38
0.41907299 -0.77088505 2.0112178 1.75861e-38
0.46016437 -0.77115661 2.0152478 1.75861e-38
0.50061589 -0.77176613 2.01668 1.75861e-38
0.54002863 -0.7724579 2.0145252 1.75861e-38
0.57475638 -0.76785797 2.0115709 1.75861e-38
0.61426258 -0.76306677 2.0086842 1.75861e-38
0.68992221 -0.76114005 2.003 1.75861e-38
1.0396523 -0.76113999 2.003 1.75861e-38
1.0434676 -0.76113999 2.003 1.75861e-38
-0.92138004 -0.75732476 2.003 1.75861e-38
-0.89368814 -0.74241632 2.0108461 1.75861e-38
-0.85863531 -0.74233168 2.0115712 1.75861e-38
-0.82471985 -0.73678172 2.0289145 1.75861e-38
-0.79666644 -0.72675782 2.0389998 1.75861e-38
0.38221729 -0.75864327 2.0372858 1.75861e-38
0.42545223 -0.75757343 2.0297277 1.75861e-38
0.44616452 -0.75855643 2.0355716 1.75861e-38
0.48741809 -0.75928479 2.039 1.75861e-38
0.5385862 -0.75908232 2.0349998 1.75861e-38
0.58130395 -0.74859124 2.0220129 1.75861e-38
0.62086231 -0.75312924 2.0260136 1.75861e-38
0.66027212 -0.74380398 2.0216928 1.75861e-38
0.70004559 -0.74032295 2.0265958 1.75861e-38
0.73841488 -0.73329693 2.026377 1.75861e-38
0.78033024 -0.72990704 2.0244281 1.75861e-38
0.81790757 -0.72953022 2.0249305 1.75861e-38
0.85926104 -0.72539139 2.0214918 1.75861e-38
0.89897448 -0.72440666 2.0109999 1.75861e-38
0.94044816 -0.72587013 2.0141816 1.75861e-38
1.0307994 -0.74159634 2.0043328 1.75861e-38
1.0460073 -0.73522693 2.0149996 1.75861e-38
-0.88627988 -0.71116036 2.003 1.75861e-38
-0.86354899 -0.7013011 2.0029991 1.75861e-38
-0.82047492 -0.69946688 2.0165684 1.75861e-38
-0.7899487 -0.69143766 2.0345006 1.75861e-38
0.73453808 -0.71514958 2.0350001 1.75861e-38
0.77999234 -0.71810293 2.027 1.75861e-38
0.82150906 -0.71029693 2.0386672 1.75861e-38
0.8636921 -0.70531946 2.0343106 1.75861e-38
0.89941418 -0.70203829 2.0224278 1.75861e-38
0.94114256 -0.70041382 2.0209 1.75861e-38
0.97944421 -0.69730133 2.0247946 1.75861e-38
1.0176175 -0.69925022 2.0259175 1.75861e-38
1.0482771 -0.7086699 2.0281432 1.75861e-38
-0.84380352 -0.67402542 2.0030003 1.75861e-38
-0.81613022 -0.66277009 2.0098186 1.75861e-38
-0.78180069 -0.65879798 2.0266395 1.75861e-38
0.89839238 -0.67766094 2.0330002 1.75861e-38
0.98163283 -0.67772478 2.0389998 1.75861e-38
1.0157877 -0.67383099 2.0378575 1.75861e-38
-0.80757529 -0.63181937 2.0036314 1.75861e-38
-0.77986979 -0.62152129 2.013257 1.75861e-38
-0.74980658 -0.61342567 2.0330007 1.75861e-38
-0.70801842 -0.60781622 2.039 1.75861e-38
-0.76953101 -0.58344609 2.0049992 1.75861e-38
-0.74044156 -0.57901436 2.0238297 1.75861e-38
-0.70322025 -0.57524359 2.0385303 1.75861e-38
-0.76495528 -0.55664331 2.003 1.75861e-38
-0.7369023 -0.54162782 2.0082717 1.75861e-38
-0.70232981 -0.53929061 2.0305786 1.75861e-38
-0.67772478 -0.53014004 2.039 1.75861e-38
-0.72961915 -0.50335079 2.0048454 1.75861e-38
-0.70062584 -0.49969366 2.0192513 1.75861e-38
-0.66088343 -0.49801227 2.0377593 1.75861e-38
-0.63403189 -0.49421477 2.039 1.75861e-38
-0.7002396 -0.46180782 2.0051343 1.75861e-38
-0.65913618 -0.45946157 2.0171816 1.75861e-38
-0.63065499 -0.45547518 2.0375271 1.75861e-38
-0.70200378 -0.43684477 2.003 1.75861e-38
-0.65160847 -0.42390892 2.0055151 1.75861e-38
-0.62231642 -0.41788894 2.0272241 1.75861e-38
-0.5942229 -0.40391618 2.039 1.75861e-38
-0.64808846 -0.39045945 2.0029998 1.75861e-38
-0.61844385 -0.38096169 2.0147347 1.75861e-38
-0.58441615 -0.37530962 2.0377378 1.75861e-38
-0.5372141 -0.37631339 2.0390005 1.75861e-38
-0.60848576 -0.3467876 2.005461 1.75861e-38
-0.57970333 -0.34024683 2.019037 1.75861e-38
-0.53907669 -0.33822826 2.0324781 1.75861e-38
-0.51141316 -0.33121121 2.0372357 1.75861e-38
1.0541954 -0.33750308 2.0389998 1.75861e-38
-0.57578522 -0.30430284 2.0051003 1.75861e-38
-0.54103917 -0.29942065 2.0180254 1.75861e-38
-0.50416803 -0.29863864 2.0326548 1.75861e-38
-0.47091189 -0.28604257 2.0390003 1.75861e-38
1.0375408 -0.29336008 2.0305295 1.75861e-38
1.0446302 -0.29958922 2.0250001 1.75861e-38
-0.5627476 -0.27660474 2.003 1.75861e-38
-0.53681064 -0.26807928 2.0054398 1.75861e-38
-0.49796873 -0.2611517 2.0171814 1.75861e-38
-0.46457165 -0.25831184 2.0340772 1.75861e-38
1.0336207 -0.25113344 2.0375004 1.75861e-38
1.0458355 -0.2613591 2.0286477 1.75861e-38
-0.53604096 -0.23845237 2.003 1.75861e-38
-0.48991141 -0.22430524 2.009315 1.75861e-38
-0.46004751 -0.22001305 2.0233378 1.75861e-38
-0.4300456 -0.21757263 2.0348268 1.75861e-38
1.0327305 -0.21766447 2.0255885 1.75861e-38
1.0462168 -0.22486207 2.0261724 1.75861e-38
-0.45491025 -0.18420984 2.0130866 1.75861e-38
-0.43032742 -0.17877758 2.011081 1.75861e-38
1.0186166 -0.18946607 2.0167646 1.75861e-38
-0.44256762 -0.15642476 2.003 1.75861e-38
-0.42439005 -0.14199531 2.003499 1.75861e-38
-0.43493715 -0.11445715 2.003 1.75861e-38
-0.084796511 0.27639776 2.039 1.75861e-38
-0.063435562 0.27639776 2.039 1.75861e-38
-0.091701061 0.31092054 2.0389998 1.75861e-38
-0.053805675 0.29944173 2.039001 1.75861e-38
-0.036896192 0.30746827 2.039 1.75861e-38
-0.088318184 0.3356297 2.0312357 1.75861e-38
-0.059562389 0.33993191 2.0245616 1.75861e-38
-0.026769064 0.34526402 2.0354452 1.75861e-38
-0.08650063 0.37763315 2.0073633 1.75861e-38
-0.060626537 0.3775005 2.005126 1.75861e-38
-0.019850127 0.38044065 2.0256898 1.75861e-38
0.0053402381 0.38401169 2.0390005 1.75861e-38
-0.062951431 0.40441525 2.003 1.75861e-38
-0.014173525 0.41786572 2.0162799 1.75861e-38
0.016709866 0.42228886 2.0348072 1.75861e-38
0.04078 0.41750953 2.039 1.75861e-38
-0.011369958 0.44405398 2.0248184 1.75861e-38
0.015000433 0.44221497 2.0357273 1.75861e-38
-0.74070823 -0.33489287 1.9093022 1.75861e-38
-0.72273207 -0.43695241 1.9628476 1.75861e-38
-0.77639085 -0.76687849 2.0629003 1.75861e-38
-1.0109382 -0.74664414 1.9423873 1.75861e-38
0.17265156 -0.78361523 2.0089066 1.75861e-38
-0.61787051 -0.76298267 2.0458267 1.75861e-38
-0.67749298 -0.63148928 1.9980727 1.75861e-38
-0.54827535 -0.67527884 2.0333567 1.75861e-38
-0.50519198 -0.62709481 2.0287323 1.75861e-38
-0.41308397 -0.68705595 2.04826 1.75861e-38
-0.27638349 -0.62976253 2.0453153 1.75861e-38
-0.33379152 -0.71501553 2.0260413 1.75861e-38
-0.19329423 -0.78627902 2.0489376 1.75861e-38
-0.010952312 -0.78908682 2.0395334 1.75861e-38
-0.084741563 -0.78334558 2.0395744 1.75861e-38
-0.10105965 -0.78107613 2.0378661 1.75861e-38
-0.20214972 -0.75933063 2.0430596 1.75861e-38
-0.058600001 -0.80282003 2.0510001 1.75861e-38
-0.030602224 -0.80347121 2.0510004 1.75861e-38
-0.84879851 -0.79560781 2.0510006 1.75861e-38
-0.81740391 -0.78183222 2.060385 1.75861e-38
-0.78295285 -0.78042048 2.0732529 1.75861e-38
-0.36478287 -0.79580009 2.0760002 1.75861e-38
-0.34664595 -0.79630077 2.0729413 1.75861e-38
-0.29723051 -0.79634935 2.0760002 1.75861e-38
-0.25604004 -0.79678869 2.0760002 1.75861e-38
-0.21549781 -0.79424387 2.064868 1.75861e-38
-0.1831724 -0.79596359 2.0670562 1.75861e-38
-0.13936651 -0.79190069 2.0660565 1.75861e-38
-0.098832071 -0.79334563 2.0684519 1.75861e-38
-0.058638308 -0.78326386 2.0605652 1.75861e-38
-0.021704907 -0.7878049 2.0617411 1.75861e-38
0.022035133 -0.78216505 2.0630555 1.75861e-38
0.05694871 -0.78145128 2.0618052 1.75861e-38
0.097194239 -0.77155501 2.0652051 1.75861e-38
0.14172496 -0.76790154 2.0665271 1.75861e-38
0.18135415 -0.7703144 2.0661182 1.75861e-38
0.21991587 -0.76770794 2.0645173 1.75861e-38
0.25894091 -0.7660749 2.0608735 1.75861e-38
0.29993993 -0.76423413 2.0569999 1.75861e-38
0.33940175 -0.76642764 2.0564349 1.75861e-38
0.38395444 -0.76449913 2.0552859 1.75861e-38
0.40663078 -0.76454961 2.0608182 1.75861e-38
0.46880001 -0.76375335 2.0510004 1.75861e-38
0.50113857 -0.76375335 2.0510004 1.75861e-38
0.535604 -0.76375335 2.0510004 1.75861e-38
-0.81535202 -0.75267816 2.0514798 1.75861e-38
-0.77905297 -0.73792422 2.0625558 1.75861e-38
-0.75637913 -0.73411161 2.0736365 1.75861e-38
0.11401525 -0.75460958 2.0760002 1.75861e-38
0.1384 -0.75526875 2.0760002 1.75861e-38
0.18013971 -0.75504905 2.0760002 1.75861e-38
0.21847431 -0.75576305 2.0760002 1.75861e-38
0.26615471 -0.74823707 2.073879 1.75861e-38
0.29890275 -0.75176555 2.0695593 1.75861e-38
0.34052199 -0.75341624 2.0698345 1.75861e-38
0.37911385 -0.75125152 2.0652916 1.75861e-38
0.42144302 -0.74456793 2.0625608 1.75861e-38
0.45994011 -0.74413222 2.0607824 1.75861e-38
0.50006396 -0.74569201 2.0618427 1.75861e-38
0.54037762 -0.74586958 2.0609531 1.75861e-38
0.57869649 -0.73612195 2.057775 1.75861e-38
0.62053454 -0.73270297 2.054719 1.75861e-38
0.65733343 -0.7300477 2.059557 1.75861e-38
0.7019425 -0.72814453 2.0541399 1.75861e-38
0.73893166 -0.72451222 2.0577755 1.75861e-38
0.77987242 -0.72271401 2.0576894 1.75861e-38
0.81063336 -0.72078001 2.0510001 1.75861e-38
-0.77582085 -0.70385587 2.0540407 1.75861e-38
-0.74660546 -0.69386488 2.0670018 1.75861e-38
-0.71770293 -0.68211436 2.0760002 1.75861e-38
0.59907436 -0.70979434 2.0760002 1.75861e-38
0.62335455 -0.71544492 2.0710001 1.75861e-38
0.6647715 -0.71723813 2.0633335 1.75861e-38
0.69016337 -0.71718007 2.0617499 1.75861e-38
0.74829614 -0.70916784 2.0741906 1.75861e-38
0.77955508 -0.70912218 2.0700994 1.75861e-38
0.81877971 -0.70497191 2.068095 1.75861e-38
0.862526 -0.69504547 2.0634606 1.75861e-38
0.89803028 -0.6853503 2.0613785 1.75861e-38
0.93942124 -0.68579853 2.0600278 1.75861e-38
0.96732056 -0.68369287 2.0540001 1.75861e-38
1.0085711 -0.69603777 2.0510001 1.75861e-38
1.0655053 -0.6954385 2.0637319 1.75861e-38
1.0814974 -0.68606865 2.0760002 1.75861e-38
-0.76592368 -0.66413337 2.0510001 1.75861e-38
-0.74052274 -0.66031492 2.0573211 1.75861e-38
-0.7016812 -0.65480506 2.0722077 1.75861e-38
-0.67667723 -0.65048003 2.0760002 1.75861e-38
0.87389719 -0.67816007 2.0760002 1.75861e-38
0.91008848 -0.67553067 2.0712731 1.75861e-38
0.94136232 -0.67233974 2.0692198 1.75861e-38
0.98073983 -0.66983706 2.0666931 1.75861e-38
1.0181617 -0.66910201 2.0657301 1.75861e-38
1.0533036 -0.6683529 2.0734336 1.75861e-38
-0.73227525 -0.62409776 2.0513587 1.75861e-38
-0.69829625 -0.62160993 2.0597196 1.75861e-38
-0.67429823 -0.61492509 2.0726087 1.75861e-38
-0.72555482 -0.59620076 2.0510004 1.75861e-38
-0.69409645 -0.5835762 2.0512044 1.75861e-38
-0.66798055 -0.57878834 2.0650806 1.75861e-38
-0.68310863 -0.54163146 2.0510006 1.75861e-38
-0.66008121 -0.54093647 2.0574169 1.75861e-38
-0.62949651 -0.53491122 2.071501 1.75861e-38
1.0755658 -0.52394295 2.0760002 1.75861e-38
-0.68366671 -0.51763332 2.0510001 1.75861e-38
-0.65154523 -0.50439411 2.0510001 1.75861e-38
-0.62179029 -0.49929518 2.0613136 1.75861e-38
-0.59536719 -0.48860145 2.0760002 1.75861e-38
-0.54964578 -0.48044574 2.0760002 1.75861e-38
1.0741538 -0.50205314 2.0760002 1.75861e-38
-0.61258078 -0.4633365 2.0540605 1.75861e-38
-0.58706081 -0.45411927 2.0730181 1.75861e-38
-0.54801244 -0.45448494 2.0760002 1.75861e-38
1.0655013 -0.45600855 2.0731127 1.75861e-38
-0.60800761 -0.43194708 2.0510006 1.75861e-38
-0.58109188 -0.41934669 2.0572393 1.75861e-38
-0.54130012 -0.41699418 2.0672343 1.75861e-38
-0.51542598 -0.40774772 2.0760002 1.75861e-38
1.0355287 -0.40679717 2.0760002 1.75861e-38
1.0588905 -0.41803312 2.0706844 1.75861e-38
-0.57152945 -0.38377023 2.0510006 1.75861e-38
-0.53771442 -0.38099927 2.0546002 1.75861e-38
-0.50288481 -0.37726158 2.0746691 1.75861e-38
-0.47490975 -0.36498058 2.0760002 1.75861e-38
1.0318726 -0.37677354 2.0716681 1.75861e-38
1.0566951 -0.38132781 2.0653749 1.75861e-38
-0.56255996 -0.35745999 2.0510001 1.75861e-38
-0.55167723 -0.35411149 2.0510004 1.75861e-38
-0.49594039 -0.34255505 2.0631588 1.75861e-38
-0.47048065 -0.3349933 2.075001 1.75861e-38
1.0355374 -0.33815905 2.0688164 1.75861e-38
1.0508651 -0.34144312 2.0584455 1.75861e-38
-0.48822781 -0.31021857 2.0530868 1.75861e-38
-0.45806113 -0.30085436 2.0651855 1.75861e-38
-0.43243468 -0.28653616 2.0749168 1.75861e-38
1.0346816 -0.29799753 2.0657072 1.75861e-38
1.0432954 -0.30616751 2.0552945 1.75861e-38
-0.44759637 -0.26583093 2.0614007 1.75861e-38
-0.42221376 -0.25708276 2.0699322 1.75861e-38
-0.38210276 -0.25027111 2.0742903 1.75861e-38
1.0249981 -0.25939834 2.0673239 1.75861e-38
1.0425918 -0.26858336 2.0510004 1.75861e-38
-0.41198966 -0.22678207 2.0628009 1.75861e-38
-0.37977725 -0.22249582 2.0665772 1.75861e-38
-0.35955149 -0.2279124 2.0630002 1.75861e-38
0.98949426 -0.20786364 2.0760002 1.75861e-38
1.0183207 -0.21998151 2.0610521 1.75861e-38
0.98659432 -0.19969144 2.0760002 1.75861e-38
1.0201761 -0.19507657 2.0665002 1.75861e-38
-0.081062868 0.1977143 2.0760002 1.75861e-38
-0.062609524 0.19705525 2.0760002 1.75861e-38
-0.080850899 0.21997064 2.0705717 1.75861e-38
-0.059078887 0.22190768 2.0720377 1.75861e-38
-0.036906675 0.23000765 2.0760002 1.75861e-38
-0.085367359 0.25805223 2.0604999 1.75861e-38
-0.058889218 0.2598837 2.0575004 1.75861e-38
-0.025330029 0.26507422 2.0710168 1.75861e-38
0.0019771431 0.27482289 2.0760002 1.75861e-38
-0.087825023 0.30281207 2.0521996 1.75861e-38
-0.068843096 0.29952708 2.0510001 1.75861e-38
-0.019757584 0.30038705 2.0635488 1.75861e-38
0.0026949791 0.3034001 2.0748184 1.75861e-38
-0.096170492 0.33323035 2.0606003 1.75861e-38
-0.067390002 0.3232767 2.0510001 1.75861e-38
-0.012443834 0.33439907 2.0530012 1.75861e-38
0.01694843 0.34364149 2.0628688 1.75861e-38
0.041520003 0.34797716 2.0760002 1.75861e-38
-0.0019533334 0.36332002 2.0510001 1.75861e-38
0.023739642 0.37853995 2.0591736 1.75861e-38
0.049829766 0.38721117 2.0729058 1.75861e-38
0.028165743 0.40749502 2.0523331 1.75861e-38
0.053749867 0.41711065 2.0584736 1.75861e-38
-0.45686862 0.37158912 1.7602434 1.75861e-38
-0.73005193 -0.50240016 1.98157 1.75861e-38
-0.73553944 -0.70708752 2.0601497 1.75861e-38
-0.61088872 -0.70424116 2.0547445 1.75861e-38
-0.57214463 -0.73794842 2.018729 1.75861e-38
-0.51963532 -0.80671012 2.0825081 1.75861e-38
-0.61258847 -0.8011418 2.0854244 1.75861e-38
-0.53818893 -0.80733991 2.1018119 1.75861e-38
-0.50017661 -0.81147701 2.0994465 1.75861e-38
-0.46074608 -0.80720991 2.0982132 1.75861e-38
-0.42430454 -0.79817271 2.0934184 1.75861e-38
-0.38757342 -0.80343097 2.0912502 1.75861e-38
-0.32700193 -0.80195874 2.0954287 1.75861e-38
-0.31716716 -0.80188811 2.0945001 1.75861e-38
-0.26530161 -0.80161387 2.0908887 1.75861e-38
-0.23663999 -0.80139434 2.0880001 1.75861e-38
-0.80139434 -0.77753145 2.0880001 1.75861e-38
-0.77222866 -0.78018284 2.0880003 1.75861e-38
-0.74214751 -0.78029978 2.100148 1.75861e-38
-0.71121621 -0.77970839 2.107372 1.75861e-38
-0.56324482 -0.798989 2.1096668 1.75861e-38
-0.55396521 -0.79883671 2.1075001 1.75861e-38
-0.50333333 -0.7992934 2.1140001 1.75861e-38
-0.44628891 -0.7992934 2.1140001 1.75861e-38
-0.40971628 -0.79199558 2.1126316 1.75861e-38
-0.38182884 -0.79273045 2.1074991 1.75861e-38
-0.33880737 -0.79218227 2.1072824 1.75861e-38
-0.29912177 -0.79242629 2.1051161 1.75861e-38
-0.25880322 -0.78969026 2.1060638 1.75861e-38
-0.22101399 -0.77909952 2.1026409 1.75861e-38
-0.17982975 -0.78044724 2.1027243 1.75861e-38
-0.14067951 -0.77393252 2.1014576 1.75861e-38
-0.099985175 -0.77699125 2.1020212 1.75861e-38
-0.060960464 -0.76833469 2.0961564 1.75861e-38
-0.018642867 -0.77140087 2.0931609 1.75861e-38
0.018525384 -0.76834375 2.0929627 1.75861e-38
0.063480683 -0.76814628 2.0916736 1.75861e-38
0.089866959 -0.76710975 2.0930874 1.75861e-38
0.16505143 -0.76361144 2.0880001 1.75861e-38
0.24658287 -0.76361144 2.0880001 1.75861e-38
-0.76162291 -0.7556572 2.0880001 1.75861e-38
-0.74091166 -0.7397539 2.0931706 1.75861e-38
-0.7003054 -0.73886168 2.0993578 1.75861e-38
-0.67809075 -0.73969871 2.1140001 1.75861e-38
-0.23153333 -0.75902671 2.1140001 1.75861e-38
-0.17046224 -0.75634217 2.1140003 1.75861e-38
-0.14790256 -0.75716823 2.1140003 1.75861e-38
-0.056116529 -0.75437468 2.1086464 1.75861e-38
-0.017723924 -0.75618756 2.1094112 1.75861e-38
0.016343337 -0.75676864 2.1092336 1.75861e-38
0.061949521 -0.75370955 2.1070845 1.75861e-38
0.10155276 -0.74799883 2.1030517 1.75861e-38
0.13949974 -0.7482121 2.0994029 1.75861e-38
0.18023342 -0.74606782 2.095681 1.75861e-38
0.21998292 -0.74744451 2.0991147 1.75861e-38
0.25889087 -0.73932397 2.097599 1.75861e-38
0.29990596 -0.73920101 2.1052048 1.75861e-38
0.33927989 -0.73752445 2.1029556 1.75861e-38
0.37895682 -0.73764497 2.1047907 1.75861e-38
0.41629022 -0.73108763 2.1022573 1.75861e-38
0.46041912 -0.72676069 2.096478 1.75861e-38
0.50073934 -0.72827673 2.0957496 1.75861e-38
0.54199153 -0.72851878 2.0976903 1.75861e-38
0.57598805 -0.72616184 2.0991859 1.75861e-38
0.60784 -0.72317713 2.0880003 1.75861e-38
0.665932 -0.72387069 2.0888124 1.75861e-38
0.70660567 -0.7235086 2.0879998 1.75861e-38
0.73612231 -0.72442478 2.0879998 1.75861e-38
-0.73316288 -0.7064274 2.0886042 1.75861e-38
-0.69906521 -0.70068163 2.0932689 1.75861e-38
-0.66514236 -0.69779682 2.111985 1.75861e-38
0.3429378 -0.71876013 2.1140001 1.75861e-38
0.42879975 -0.71267349 2.1101477 1.75861e-38
0.45792067 -0.71341544 2.1119771 1.75861e-38
0.49969786 -0.71545261 2.110666 1.75861e-38
0.5372932 -0.71468407 2.1124701 1.75861e-38
0.58802563 -0.71185982 2.1032188 1.75861e-38
0.62034893 -0.70575589 2.0988643 1.75861e-38
0.66095752 -0.70778322 2.1022518 1.75861e-38
0.70087767 -0.7063157 2.0983679 1.75861e-38
0.73958635 -0.70385891 2.0999024 1.75861e-38
0.78004682 -0.69424117 2.0983512 1.75861e-38
0.81868029 -0.6924907 2.0957112 1.75861e-38
0.85743159 -0.69054472 2.0927887 1.75861e-38
0.89901513 -0.6835264 2.0879998 1.75861e-38
1.0758171 -0.68406856 2.0880001 1.75861e-38
1.08576 -0.68208003 2.0880001 1.75861e-38
-0.69448864 -0.67317116 2.0880003 1.75861e-38
-0.65978378 -0.65901375 2.0997243 1.75861e-38
-0.63621342 -0.64896452 2.1140003 1.75861e-38
0.83330101 -0.67670912 2.0945001 1.75861e-38
0.86095577 -0.67516595 2.1044407 1.75861e-38
0.90061879 -0.6756807 2.098706 1.75861e-38
0.93749505 -0.66044557 2.1025512 1.75861e-38
0.9776023 -0.65490085 2.1017213 1.75861e-38
1.0206728 -0.65422189 2.1055763 1.75861e-38
1.0585039 -0.66169351 2.0998387 1.75861e-38
1.0914733 -0.65862584 2.1099992 1.75861e-38
-0.65801775 -0.62285978 2.0947943 1.75861e-38
-0.63040519 -0.61642218 2.1070843 1.75861e-38
0.95633334 -0.63420004 2.1140001 1.75861e-38
0.97646666 -0.63621336 2.1140001 1.75861e-38
1.0127068 -0.63822669 2.1140001 1.75861e-38
1.0892485 -0.61948752 2.1085629 1.75861e-38
-0.65105838 -0.58503777 2.0879996 1.75861e-38
-0.62235814 -0.57937235 2.0991788 1.75861e-38
-0.59205949 -0.56663769 2.1085835 1.75861e-38
1.0905434 -0.57987243 2.1107492 1.75861e-38
-0.61340386 -0.54233098 2.0900958 1.75861e-38
-0.5834918 -0.53888369 2.1051881 1.75861e-38
-0.55043083 -0.52854967 2.1131876 1.75861e-38
1.0732113 -0.53237313 2.1052053 1.75861e-38
1.0863142 -0.54697919 2.1001339 1.75861e-38
-0.60784006 -0.51504004 2.0879998 1.75861e-38
-0.57922316 -0.5017162 2.0952547 1.75861e-38
-0.54247576 -0.4991892 2.1037614 1.75861e-38
-0.51742667 -0.48118669 2.1140001 1.75861e-38
1.0341822 -0.48745033 2.1140001 1.75861e-38
1.0645583 -0.49847418 2.1051478 1.75861e-38
-0.57640159 -0.46667531 2.0879991 1.75861e-38
-0.53794837 -0.46230191 2.0910778 1.75861e-38
-0.50868976 -0.45467073 2.1038032 1.75861e-38
1.0339587 -0.45546076 2.1139998 1.75861e-38
1.0543308 -0.45951873 2.1015992 1.75861e-38
-0.56276572 -0.43748569 2.0880001 1.75861e-38
-0.53236908 -0.43549711 2.0879998 1.75861e-38
-0.49965304 -0.42080456 2.0949049 1.75861e-38
-0.46212018 -0.40826231 2.1116784 1.75861e-38
1.0319602 -0.4176763 2.1020608 1.75861e-38
1.0454464 -0.42967305 2.0906005 1.75861e-38
-0.48942536 -0.39243409 2.0886192 1.75861e-38
-0.46066314 -0.379852 2.0981417 1.75861e-38
-0.43447733 -0.3652187 2.1140001 1.75861e-38
-0.39461333 -0.36038667 2.1140001 1.75861e-38
1.026626 -0.37928495 2.1065073 1.75861e-38
-0.45481038 -0.34322664 2.0903273 1.75861e-38
-0.42356181 -0.33539525 2.1019168 1.75861e-38
-0.38790965 -0.33470565 2.1128435 1.75861e-38
1.0266938 -0.34103039 2.1033359 1.75861e-38
1.0434967 -0.3451643 2.1010001 1.75861e-38
-0.44444573 -0.3132 2.0880001 1.75861e-38
-0.41816425 -0.30138183 2.0923319 1.75861e-38
-0.37973589 -0.29831365 2.1064377 1.75861e-38
-0.35067531 -0.29193333 2.1140001 1.75861e-38
1.024861 -0.30035427 2.0996988 1.75861e-38
-0.40924802 -0.27110857 2.0879998 1.75861e-38
-0.37731817 -0.2675795 2.0954275 1.75861e-38
-0.34995911 -0.26856515 2.1097937 1.75861e-38
0.995857 -0.25414488 2.1109412 1.75861e-38
1.0085064 -0.26219895 2.0995772 1.75861e-38
0.9875223 -0.21852602 2.1028564 1.75861e-38
1.0053484 -0.2221546 2.0938714 1.75861e-38
0.98942637 -0.19554487 2.0982141 1.75861e-38
1.0097268 -0.19328859 2.0896246 1.75861e-38
-0.092242137 0.106594 2.1118331 1.75861e-38
-0.068696201 0.11108811 2.113133 1.75861e-38
-0.085039891 0.13933912 2.1122272 1.75861e-38
-0.061216645 0.14171624 2.1072164 1.75861e-38
-0.030319637 0.15116215 2.1119998 1.75861e-38
-0.082768455 0.1768688 2.1082222 1.75861e-38
-0.059787512 0.17883489 2.0925553 1.75861e-38
-0.026799496 0.18235239 2.1054678 1.75861e-38
-0.059295587 0.21223482 2.0880003 1.75861e-38
-0.020155668 0.21996973 2.0983696 1.75861e-38
0.013012953 0.23208992 2.1105332 1.75861e-38
-0.012358004 0.25151533 2.091023 1.75861e-38
0.017008793 0.26151225 2.1021223 1.75861e-38
0.04228 0.27985334 2.1140001 1.75861e-38
-0.003314286 0.28900573 2.0880003 1.75861e-38
0.021719538 0.29891914 2.0951416 1.75861e-38
0.047121692 0.30612826 2.1101482 1.75861e-38
0.026829841 0.32751268 2.0887883 1.75861e-38
0.058164012 0.34137705 2.1012909 1.75861e-38
0.08415734 0.34991735 2.1140001 1.75861e-38
0.066016689 0.37664014 2.0944991 1.75861e-38
0.093494691 0.38263896 2.1026242 1.75861e-38
0.074902862 0.40633142 2.0880003 1.75861e-38
0.08600571 0.40616572 2.0880001 1.75861e-38
-0.69420797 -0.80534977 2.1321998 1.75861e-38
-0.66001481 -0.80547762 2.1388931 1.75861e-38
-0.62041527 -0.80487949 2.1361587 1.75861e-38
-0.58281076 -0.80170149 2.1300955 1.75861e-38
-0.53460449 -0.80328798 2.1270001 1.75861e-38
-0.49779266 -0.8029294 2.1270001 1.75861e-38
-0.46199796 -0.80177784 2.1270006 1.75861e-38
-0.43205595 -0.80131477 2.1270001 1.75861e-38
-0.69471914 -0.78315866 2.135524 1.75861e-38
-0.66052729 -0.77898026 2.1473269 1.75861e-38
-0.62132305 -0.78637844 2.1520298 1.75861e-38
-0.57846701 -0.78581101 2.1445675 1.75861e-38
-0.54040807 -0.78725797 2.1394579 1.75861e-38
-0.49953142 -0.78740531 2.1394725 1.75861e-38
-0.46103829 -0.78746986 2.1405268 1.75861e-38
-0.42071354 -0.78079844 2.138097 1.75861e-38
-0.38073337 -0.77415383 2.1371107 1.75861e-38
-0.34123132 -0.77449709 2.1373687 1.75861e-38
-0.2998912 -0.7747373 2.1383541 1.75861e-38
-0.26117319 -0.77102542 2.1351244 1.75861e-38
-0.21349029 -0.76396912 2.1362255 1.75861e-38
-0.19458574 -0.76271892 2.1356671 1.75861e-38
-0.12886369 -0.76185203 2.14325 1.75861e-38
-0.10160337 -0.76362199 2.1390483 1.75861e-38
-0.077738784 -0.76193529 2.1400001 1.75861e-38
-0.68806762 -0.75829244 2.1270003 1.75861e-38
-0.66008317 -0.74092948 2.1419997 1.75861e-38
-0.63205022 -0.73823196 2.1525517 1.75861e-38
-0.40804479 -0.75662571 2.1530001 1.75861e-38
-0.24902523 -0.75725693 2.14325 1.75861e-38
-0.22105616 -0.75378513 2.1469753 1.75861e-38
-0.18020223 -0.75160617 2.1455083 1.75861e-38
-0.14238533 -0.75336319 2.1446428 1.75861e-38
-0.1006366 -0.75033259 2.152025 1.75861e-38
-0.058694139 -0.74240106 2.142849 1.75861e-38
-0.02129383 -0.74194658 2.1412442 1.75861e-38
0.02110379 -0.74026787 2.1412034 1.75861e-38
0.060600843 -0.73843515 2.1417329 1.75861e-38
0.099879183 -0.7318638 2.1365466 1.75861e-38
0.13932599 -0.73242986 2.1335862 1.75861e-38
0.17886515 -0.73226815 2.1333137 1.75861e-38
0.22024928 -0.73167169 2.1347241 1.75861e-38
0.25450957 -0.73093981 2.1334996 1.75861e-38
0.30292222 -0.72691977 2.1269999 1.75861e-38
0.33593091 -0.72520578 2.1270003 1.75861e-38
0.37890121 -0.72659689 2.1275198 1.75861e-38
0.40851903 -0.72453058 2.1270001 1.75861e-38
-0.65001845 -0.7042461 2.1290522 1.75861e-38
-0.62407005 -0.69909674 2.1466477 1.75861e-38
-0.58165181 -0.68280858 2.1530004 1.75861e-38
0.015720319 -0.7197172 2.1530001 1.75861e-38
0.14542906 -0.71784955 2.1508334 1.75861e-38
0.1784579 -0.71708149 2.1485171 1.75861e-38
0.21581091 -0.71612954 2.1492858 1.75861e-38
0.26311696 -0.71101558 2.1413445 1.75861e-38
0.29978052 -0.71373469 2.1397676 1.75861e-38
0.34009311 -0.71253967 2.1370857 1.75861e-38
0.38219547 -0.71238834 2.1431997 1.75861e-38
0.4209806 -0.70664573 2.1407876 1.75861e-38
0.45893157 -0.6991384 2.1436863 1.75861e-38
0.50122321 -0.70400488 2.1430693 1.75861e-38
0.54004747 -0.7026878 2.1405735 1.75861e-38
0.57966852 -0.70365793 2.143693 1.75861e-38
0.61980748 -0.69349444 2.1394424 1.75861e-38
0.66091466 -0.68908685 2.1365068 1.75861e-38
0.70117801 -0.69037491 2.1391995 1.75861e-38
0.73957372 -0.68867099 2.1374996 1.75861e-38
0.77538824 -0.68705064 2.1333482 1.75861e-38
0.81801349 -0.68656719 2.1269999 1.75861e-38
0.87713432 -0.68266571 2.1270001 1.75861e-38
0.89739144 -0.68266571 2.1270001 1.75861e-38
-0.64316434 -0.66899216 2.1270001 1.75861e-38
-0.61881304 -0.66063118 2.1402318 1.75861e-38
-0.5804674 -0.65838253 2.1514606 1.75861e-38
-0.5577296 -0.64179909 2.1530001 1.75861e-38
0.67153108 -0.67563194 2.1530001 1.75861e-38
0.702874 -0.67416734 2.1530001 1.75861e-38
0.73742253 -0.67665356 2.1508334 1.75861e-38
0.77987891 -0.67198575 2.1410396 1.75861e-38
0.8213256 -0.66916239 2.1398284 1.75861e-38
0.85982382 -0.66441464 2.1376958 1.75861e-38
0.90054274 -0.66410238 2.1369872 1.75861e-38
0.9359737 -0.65429527 2.1344554 1.75861e-38
0.97675693 -0.64618134 2.1289258 1.75861e-38
1.0225356 -0.64260161 2.1270001 1.75861e-38
1.0630888 -0.64996666 2.1303546 1.75861e-38
1.0838343 -0.6499263 2.1399999 1.75861e-38
-0.61293983 -0.62241685 2.1365583 1.75861e-38
-0.57924336 -0.61905748 2.1435323 1.75861e-38
-0.55172008 -0.61418891 2.1526177 1.75861e-38
0.95546693 -0.63642585 2.1400001 1.75861e-38
0.98443371 -0.63174355 2.1420796 1.75861e-38
1.0152934 -0.62889272 2.1388593 1.75861e-38
1.0631503 -0.61583912 2.1397228 1.75861e-38
1.0853149 -0.61874723 2.1324162 1.75861e-38
-0.60557145 -0.59340465 2.1309001 1.75861e-38
-0.57892913 -0.58190572 2.1342592 1.75861e-38
-0.54084015 -0.57754236 2.1406114 1.75861e-38
-0.51434624 -0.57147723 2.1481249 1.75861e-38
1.0654387 -0.57926822 2.1430104 1.75861e-38
1.0861552 -0.58112091 2.1283684 1.75861e-38
-0.56919712 -0.54812229 2.12765 1.75861e-38
-0.53739506 -0.54147226 2.1295652 1.75861e-38
-0.50213259 -0.53794491 2.1422939 1.75861e-38
-0.47403285 -0.52883649 2.1530001 1.75861e-38
1.0354569 -0.53137553 2.1486669 1.75861e-38
1.0570045 -0.54178274 2.1362853 1.75861e-38
1.0857829 -0.55707145 2.1270001 1.75861e-38
-0.52590668 -0.50471455 2.1269999 1.75861e-38
-0.49960086 -0.5000968 2.1355386 1.75861e-38
-0.46722978 -0.49701759 2.1485088 1.75861e-38
1.0317329 -0.50062281 2.1361477 1.75861e-38
1.0537051 -0.50179714 2.1276836 1.75861e-38
-0.49181902 -0.46313557 2.1303699 1.75861e-38
-0.46080741 -0.46038532 2.1399996 1.75861e-38
-0.42524022 -0.44792223 2.1508336 1.75861e-38
-0.39881766 -0.44392812 2.1530001 1.75861e-38
1.0248623 -0.46037489 2.1359248 1.75861e-38
1.0507672 -0.46649307 2.1270006 1.75861e-38
-0.48267254 -0.43184552 2.1270003 1.75861e-38
-0.45686954 -0.42604059 2.1289692 1.75861e-38
-0.4219895 -0.41897291 2.1447141 1.75861e-38
-0.39552918 -0.41933575 2.151 1.75861e-38
1.0208662 -0.41938737 2.1341226 1.75861e-38
-0.44531959 -0.38758668 2.1270003 1.75861e-38
-0.42092499 -0.38048646 2.1289644 1.75861e-38
-0.38047588 -0.38058576 2.1372912 1.75861e-38
-0.35195854 -0.36833435 2.1478 1.75861e-38
1.0161021 -0.38127643 2.1332674 1.75861e-38
-0.41071361 -0.3512927 2.1269999 1.75861e-38
-0.37197796 -0.34331325 2.1290519 1.75861e-38
-0.34438378 -0.33926579 2.1429076 1.75861e-38
0.99402535 -0.3264814 2.1530001 1.75861e-38
1.0102463 -0.3390075 2.1354856 1.75861e-38
-0.36462858 -0.31803715 2.1270001 1.75861e-38
-0.34021556 -0.30597532 2.1353993 1.75861e-38
0.98347354 -0.2959055 2.1456759 1.75861e-38
1.0094937 -0.3003844 2.1338606 1.75861e-38
-0.29581729 -0.25422311 2.1520371 1.75861e-38
0.98947841 -0.26029664 2.1422606 1.75861e-38
1.0037487 -0.27837098 2.1335001 1.75861e-38
-0.28911716 -0.23990573 2.1530001 1.75861e-38
0.95318305 -0.20961955 2.1508336 1.75861e-38
0.97537518 -0.22138651 2.1422191 1.75861e-38
-0.10354906 -0.015378571 2.1530001 1.75861e-38
-0.063564762 -0.0020504764 2.1530001 1.75861e-38
-0.056427777 0.024990682 2.1526906 1.75861e-38
-0.093730748 0.067763552 2.1476817 1.75861e-38
-0.061102536 0.061675996 2.1462345 1.75861e-38
-0.029208144 0.068564288 2.1523502 1.75861e-38
-0.094370596 0.091391556 2.132827 1.75861e-38
-0.057354581 0.097083241 2.1340568 1.75861e-38
-0.022579132 0.10139243 2.1474049 1.75861e-38
0.0073231296 0.10750356 2.1530001 1.75861e-38
-0.04912357 0.12711358 2.1270001 1.75861e-38
-0.017582944 0.13530041 2.1365869 1.75861e-38
0.013209138 0.143898 2.1505926 1.75861e-38
-0.0083239106 0.17602307 2.1297364 1.75861e-38
0.02004754 0.17986597 2.1423874 1.75861e-38
0.051608857 0.19001225 2.1499667 1.75861e-38
-0.0030385714 0.20864858 2.1270001 1.75861e-38
0.022588672 0.2157288 2.135272 1.75861e-38
0.05820651 0.22270457 2.1463411 1.75861e-38
0.084069528 0.23990573 2.1530001 1.75861e-38
0.035080776 0.25480932 2.1307144 1.75861e-38
0.060988098 0.26066324 2.1399996 1.75861e-38
0.097990721 0.26489863 2.1525271 1.75861e-38
0.065738961 0.29885224 2.1365783 1.75861e-38
0.10027348 0.30079642 2.1487112 1.75861e-38
0.13054697 0.30510032 2.1530001 1.75861e-38
0.073771253 0.32853481 2.1294379 1.75861e-38
0.10085398 0.34075651 2.1333516 1.75861e-38
0.13498348 0.34322181 2.1481714 1.75861e-38
0.16403809 0.34858096 2.1530001 1.75861e-38
0.10231753 0.36925575 2.1274059 1.75861e-38
0.13147801 0.36354768 2.1345835 1.75861e-38
-0.61684543 -0.77181911 2.1764503 1.75861e-38
-0.57951343 -0.76976591 2.1807067 1.75861e-38
-0.5399735 -0.77256989 2.1828058 1.75861e-38
-0.50077844 -0.77091789 2.1748834 1.75861e-38
-0.46056071 -0.77184641 2.1782241 1.75861e-38
-0.42671427 -0.76654404 2.1732903 1.75861e-38
-0.37790647 -0.76383901 2.1670001 1.75861e-38
-0.33557543 -0.76546711 2.1670001 1.75861e-38
-0.2996276 -0.76473534 2.1670001 1.75861e-38
-0.27223524 -0.76454765 2.1670001 1.75861e-38
-0.61455339 -0.74053204 2.1723433 1.75861e-38
-0.57950234 -0.73950446 2.1888969 1.75861e-38
-0.54570287 -0.74258983 2.194 1.75861e-38
-0.49663353 -0.75560075 2.1916788 1.75861e-38
-0.46050084 -0.75648999 2.191 1.75861e-38
-0.41603935 -0.75211304 2.1853952 1.75861e-38
-0.37962714 -0.74945992 2.1817501 1.75861e-38
-0.34225804 -0.74620056 2.1809516 1.75861e-38
-0.29924306 -0.74767983 2.1812885 1.75861e-38
-0.25901517 -0.74900371 2.1820896 1.75861e-38
-0.2196243 -0.73730302 2.1782298 1.75861e-38
-0.17969398 -0.73468971 2.1773579 1.75861e-38
-0.13916524 -0.73883092 2.1786067 1.75861e-38
-0.099974677 -0.73597199 2.181329 1.75861e-38
-0.061595764 -0.72849548 2.1800981 1.75861e-38
-0.021808179 -0.72418362 2.1721628 1.75861e-38
0.02395081 -0.72138464 2.1759999 1.75861e-38
0.059948999 -0.7241829 2.1812925 1.75861e-38
0.096774697 -0.72345138 2.1762645 1.75861e-38
0.1279562 -0.72164547 2.1670001 1.75861e-38
0.19193429 -0.72026956 2.1670001 1.75861e-38
0.23527429 -0.72026956 2.1670001 1.75861e-38
0.24146572 -0.72026956 2.1670001 1.75861e-38
-0.60533351 -0.70747697 2.1677368 1.75861e-38
-0.58035827 -0.70203519 2.1785676 1.75861e-38
-0.54183781 -0.69746977 2.1878378 1.75861e-38
-0.51611239 -0.68536377 2.194 1.75861e-38
-0.053352512 -0.713642 2.194 1.75861e-38
-0.01928374 -0.7127952 2.1908813 1.75861e-38
0.016862601 -0.71473593 2.1899617 1.75861e-38
0.062058855 -0.71399015 2.194 1.75861e-38
0.10454725 -0.70277089 2.1863921 1.75861e-38
0.14032406 -0.70203102 2.1807404 1.75861e-38
0.17979136 -0.70138657 2.1826379 1.75861e-38
0.2197305 -0.7019496 2.1808982 1.75861e-38
0.258376 -0.69814456 2.1827033 1.75861e-38
0.30101678 -0.69564271 2.1782515 1.75861e-38
0.34113225 -0.6958217 2.1793456 1.75861e-38
0.37923729 -0.69426745 2.1789761 1.75861e-38
0.41773704 -0.69310755 2.1738663 1.75861e-38
0.46498275 -0.68709278 2.1682174 1.75861e-38
0.49804774 -0.690005 2.1687872 1.75861e-38
0.54049075 -0.68813151 2.1695228 1.75861e-38
0.5784325 -0.68775421 2.1675599 1.75861e-38
0.61458123 -0.68625563 2.1747999 1.75861e-38
0.65127933 -0.68371069 2.1670001 1.75861e-38
0.7574181 -0.68312097 2.1670001 1.75861e-38
-0.57112491 -0.67046291 2.1670003 1.75861e-38
-0.53906852 -0.66043109 2.1800542 1.75861e-38
-0.50650042 -0.6532895 2.194 1.75861e-38
0.30716002 -0.67909521 2.1940002 1.75861e-38
0.34060857 -0.67748457 2.1925557 1.75861e-38
0.38516891 -0.67839873 2.1940002 1.75861e-38
0.42281708 -0.67731148 2.1878335 1.75861e-38
0.46197894 -0.67607582 2.1833413 1.75861e-38
0.49778694 -0.67504978 2.1817105 1.75861e-38
0.54324752 -0.67721546 2.1841428 1.75861e-38
0.58005065 -0.6746695 2.1822791 1.75861e-38
0.623173 -0.67012602 2.1830966 1.75861e-38
0.65944463 -0.67183781 2.1838646 1.75861e-38
0.69983053 -0.66821295 2.1839199 1.75861e-38
0.74128449 -0.66804373 2.1887879 1.75861e-38
0.78006566 -0.66339833 2.1845505 1.75861e-38
0.81860518 -0.65347928 2.1820123 1.75861e-38
0.86001271 -0.64965558 2.1759465 1.75861e-38
0.90003681 -0.64860648 2.1806793 1.75861e-38
0.93555093 -0.64616489 2.1813254 1.75861e-38
1.0641003 -0.64473408 2.1670001 1.75861e-38
1.0851511 -0.64514685 2.1670001 1.75861e-38
-0.53552324 -0.62167054 2.1724877 1.75861e-38
-0.50040567 -0.61929375 2.1893778 1.75861e-38
-0.47530517 -0.6149345 2.194 1.75861e-38
0.81977779 -0.63338673 2.1926317 1.75861e-38
0.86093616 -0.62979341 2.1890476 1.75861e-38
0.89595824 -0.62417048 2.1940002 1.75861e-38
0.94627005 -0.62642115 2.1844652 1.75861e-38
0.980147 -0.61743778 2.178123 1.75861e-38
1.0217671 -0.61072779 2.1747148 1.75861e-38
1.0522509 -0.62156671 2.1679547 1.75861e-38
1.0855639 -0.63771719 2.1670001 1.75861e-38
-0.52214384 -0.59644097 2.1670001 1.75861e-38
-0.49661154 -0.58244359 2.1768095 1.75861e-38
-0.46444145 -0.57730782 2.1906087 1.75861e-38
-0.43671048 -0.56208187 2.194 1.75861e-38
1.0304213 -0.58550358 2.182761 1.75861e-38
1.0508682 -0.58187717 2.1706305 1.75861e-38
1.0835 -0.59231335 2.1670001 1.75861e-38
-0.48964214 -0.55277997 2.1693335 1.75861e-38
-0.45827529 -0.54161149 2.1802235 1.75861e-38
-0.42651978 -0.53430206 2.190321 1.75861e-38
-0.39074096 -0.52029145 2.194 1.75861e-38
0.99670279 -0.53282857 2.194 1.75861e-38
1.0187672 -0.53605485 2.1858251 1.75861e-38
1.044775 -0.54834449 2.1803076 1.75861e-38
-0.45012796 -0.50303811 2.1732223 1.75861e-38
-0.42012438 -0.49971572 2.1814001 1.75861e-38
-0.38364172 -0.4972927 2.1905336 1.75861e-38
0.99910575 -0.51720852 2.181 1.75861e-38
1.0187787 -0.4996036 2.1762881 1.75861e-38
-0.44613788 -0.47351339 2.16875 1.75861e-38
-0.41734448 -0.46710753 2.1735482 1.75861e-38
-0.37962028 -0.46140966 2.1812699 1.75861e-38
-0.35204428 -0.45308149 2.1923227 1.75861e-38
0.99280971 -0.44598663 2.1831665 1.75861e-38
1.0152968 -0.45845833 2.1775134 1.75861e-38
-0.41069812 -0.43546385 2.1670003 1.75861e-38
-0.37673837 -0.42254424 2.1706533 1.75861e-38
-0.34127262 -0.4191654 2.1836941 1.75861e-38
-0.31479383 -0.40739807 2.1916363 1.75861e-38
0.98771793 -0.42094803 2.1853015 1.75861e-38
1.0099317 -0.41820127 2.1762815 1.75861e-38
-0.36254257 -0.39349967 2.1670001 1.75861e-38
-0.33730549 -0.38172299 2.1695144 1.75861e-38
-0.30608451 -0.37814066 2.1860313 1.75861e-38
-0.27581716 -0.36148763 2.194 1.75861e-38
0.98802888 -0.37927195 2.1868105 1.75861e-38
1.0089891 -0.38269204 2.1731896 1.75861e-38
-0.32836291 -0.34509063 2.1670001 1.75861e-38
-0.30007714 -0.3402819 2.1738417 1.75861e-38
-0.27162513 -0.33680415 2.1883669 1.75861e-38
0.98449945 -0.34001476 2.1792328 1.75861e-38
1.0052092 -0.34734058 2.1690001 1.75861e-38
