# .PCD v0.7 - Point Cloud Data file format
VERSION 0.7
FIELDS x y z rgb
SIZE 4 4 4 4
TYPE F F F F
COUNT 1 1 1 1
WIDTH 275
HEIGHT 1
VIEWPOINT 0 0 0 1 0 0 0
POINTS 275
DATA ascii
0.017585292 -0.088502988 0.59811974 1.6862462e-38
-0.016769975 -0.044629432 0.59813112 5.5332176e-39
0.020674035 -0.067653157 0.59630227 6.6381218e-39
0.054242074 -0.045214657 0.59231311 1.0786571e-38
-0.013915373 -0.035719588 0.59858114 4.2421088e-39
0.019948548 -0.007461973 0.59526289 7.4711321e-39
0.055294789 -0.03208594 0.59169769 8.2954725e-39
0.021231046 0.0069693225 0.59559608 8.5713377e-39
-0.048067804 -0.12483658 0.63162154 1.0339301e-38
-0.038129736 -0.12152127 0.62444448 1.4857956e-38
-0.04653015 -0.10685991 0.62128079 8.9498663e-39
-0.024804357 -0.09487959 0.61518353 9.2322279e-39
0.011176059 -0.086727962 0.60305357 1.3993596e-38
-0.014785293 -0.062239017 0.61234182 5.4485988e-39
0.017493146 -0.052831765 0.61481768 6.741504e-39
0.042596266 -0.054113552 0.62615693 1.4381829e-38
-0.016983593 -0.031133898 0.60716587 5.5241988e-39
0.021646574 -0.02626347 0.61557931 4.894346e-39
0.054984406 -0.01151228 0.62031901 1.0337135e-38
0.080357142 -0.00059523806 0.625 2.0463114e-38
0.021747533 0.0041290047 0.61145455 7.7336569e-39
0.065062761 0.017001193 0.62037951 6.7407823e-39
0.086756639 0.025376983 0.61706537 1.5402469e-38
0.073777236 0.041564703 0.61768967 1.2166613e-38
0.084377699 0.040867385 0.61741674 1.7883803e-38
-0.047504187 -0.011659599 0.67427754 1.3443989e-38
-0.023433095 -0.010464557 0.67320502 1.0496604e-38
0.0022097672 -0.0089325253 0.66889381 8.6559425e-39
-0.049259771 0.018990725 0.67366648 1.1877019e-38
-0.019763742 0.019790009 0.66919035 1.0680277e-38
0.0085218856 0.022160135 0.66827923 1.3447587e-38
-0.044250369 0.043496199 0.67883337 1.0220017e-38
-0.024565957 0.044317428 0.67788088 1.1140892e-38
0.19014296 0.2694872 0.67467958 9.6654015e-39
0.21950336 0.26556829 0.67037052 1.206069e-38
0.25422338 0.27001598 0.67321247 1.7315478e-38
0.18610203 0.29065871 0.67226708 8.5594155e-39
0.21901157 0.28892517 0.66368848 9.850513e-39
0.2602216 0.29027107 0.66996104 1.528717e-38
0.28236261 0.295082 0.67815113 1.6853777e-38
-0.046161361 -0.042674694 0.68934625 1.5840723e-38
-0.048795689 -0.029261345 0.68374556 1.4826207e-38
-0.019218931 -0.021707255 0.68657076 8.1927952e-39
-0.063336924 0.028197125 0.68394732 1.2798262e-38
0.003253143 0.03963257 0.68220001 1.4642525e-38
-0.082148276 0.071048602 0.70023942 1.3167049e-38
-0.059790377 0.061265532 0.68697584 1.0864306e-38
-0.021298917 0.062276606 0.68829095 1.335323e-38
0.002531263 0.044113047 0.68678272 1.8246442e-38
-0.088613756 0.10256039 0.70155424 1.0587365e-38
-0.059813716 0.10006233 0.69109893 1.1692986e-38
-0.028335314 0.09823139 0.70250434 1.5470488e-38
-0.094873592 0.1411761 0.7040956 1.0034546e-38
-0.059920292 0.13990341 0.69606483 1.2521309e-38
-0.03339655 0.13661747 0.71103996 1.6759063e-38
-0.096438795 0.1794183 0.7060129 9.3898992e-39
-0.059888147 0.18002264 0.70358974 1.279754e-38
-0.037593052 0.17427196 0.71589202 1.7495911e-38
-0.092066661 0.21721047 0.71273023 8.468666e-39
-0.062927984 0.21800452 0.71162778 1.1047624e-38
0.19297545 0.23683789 0.71396226 1.1783729e-38
0.2207595 0.23462929 0.70830917 1.3442531e-38
0.2549693 0.23523051 0.71148324 1.6760854e-38
0.28006762 0.23898192 0.71900004 1.9435602e-38
-0.084979646 0.24298705 0.7186923 7.9162139e-39
-0.070417568 0.24312079 0.71811104 8.8370884e-39
0.152714 0.27055418 0.70867509 1.0678465e-38
0.17812361 0.25683957 0.69669574 1.0954693e-38
0.21976323 0.24625601 0.68897337 1.3258505e-38
0.26270413 0.25270632 0.69175416 1.8328904e-38
0.29520369 0.26448324 0.70228112 2.0727435e-38
0.3211371 0.27504912 0.71536374 2.0360453e-38
0.14420314 0.29768825 0.7037369 9.2044234e-39
0.16651906 0.29248995 0.68481779 8.9285553e-39
0.30284446 0.29416728 0.68964398 1.8236708e-38
0.33701661 0.30210164 0.70762932 1.7407671e-38
0.36086956 0.30471906 0.71900004 1.8698407e-38
0.12718762 0.32070667 0.71800005 8.7430893e-39
-0.1139138 0.14570394 0.72275597 1.1871639e-38
-0.027391572 0.14893998 0.72272927 1.6395697e-38
-0.12340004 0.18683441 0.73123419 1.1780875e-38
-0.1169192 0.18204945 0.72229415 1.012675e-38
-0.040457144 0.19885714 0.72000003 1.6759789e-38
-0.030513445 0.18149118 0.72754759 1.6481749e-38
0.21729058 0.19918838 0.75731045 1.436197e-38
-0.12323858 0.22126673 0.73638135 9.3891888e-39
-0.1100787 0.22327848 0.72499263 9.0221999e-39
-0.0452029 0.2275783 0.72362483 1.4087558e-38
-0.024361098 0.2253201 0.74281603 1.307304e-38
0.011616023 0.23467997 0.75673378 1.2060691e-38
0.15087393 0.22912911 0.75180292 1.1507505e-38
0.18077281 0.22259907 0.7424497 1.224399e-38
0.21916157 0.21572977 0.73901886 1.3810235e-38
0.25890091 0.2184168 0.7396757 1.7128555e-38
0.29509193 0.23063 0.74358952 1.9894429e-38
0.32272664 0.2386485 0.75600004 2.0448686e-38
-0.12415988 0.25567997 0.75273412 8.8378129e-39
-0.09958265 0.26005706 0.73440194 7.9158537e-39
-0.058514789 0.26154855 0.73055184 9.573573e-39
-0.020037888 0.25972727 0.74677175 1.0125305e-38
0.012425104 0.25739449 0.75508732 1.0586282e-38
0.11794281 0.27625436 0.75623834 9.4795697e-39
0.13973834 0.25950614 0.73928809 1.058627e-38
0.16676499 0.24484889 0.72607929 1.1414948e-38
0.30841196 0.25040552 0.73055238 2.0910745e-38
0.33878511 0.26348534 0.74370843 1.9528529e-38
0.36833921 0.27132577 0.75237274 1.5657749e-38
-0.095010124 0.29066372 0.7498247 7.0878937e-39
-0.059194461 0.29620758 0.7446419 7.7321828e-39
-0.023409106 0.29260486 0.75016373 6.8095076e-39
0.0048693214 0.28357166 0.75600004 7.2693983e-39
0.11126525 0.30358729 0.74527216 8.8356394e-39
0.12601966 0.29578248 0.72863412 9.5724828e-39
0.34871486 0.2885977 0.72848094 1.8330706e-38
0.3659507 0.29020709 0.73756278 1.6026893e-38
0.10399509 0.32656705 0.74380505 8.0987961e-39
0.12275317 0.32141533 0.72154552 8.7430907e-39
0.15557341 0.15801974 0.79727787 1.4085747e-38
0.17599042 0.15753363 0.79798245 1.5467242e-38
-0.012057384 0.19054478 0.78738648 1.131988e-38
0.021172604 0.18616293 0.78446788 1.279573e-38
0.059308011 0.18522418 0.78620815 1.4730759e-38
0.095730431 0.18996303 0.79214293 1.4178663e-38
0.1428553 0.18329342 0.78717768 1.2059605e-38
0.17994733 0.18066999 0.77994913 1.4177583e-38
0.21902031 0.18284383 0.77798754 1.5651991e-38
0.25681943 0.18932036 0.78245199 1.7955799e-38
0.29119608 0.19563238 0.79306275 1.8601168e-38
-0.01380179 0.21366844 0.76762623 1.1044014e-38
0.021298839 0.21688604 0.76507401 1.2152163e-38
0.059592165 0.21939936 0.77037758 1.2797173e-38
0.10009868 0.22020938 0.7836197 1.012602e-38
0.13573006 0.21686524 0.77341193 1.0585914e-38
0.1731375 0.20404559 0.76160675 1.288864e-38
0.22621006 0.20080642 0.76018196 1.5099533e-38
0.26696882 0.20369233 0.76527417 1.8325659e-38
0.30236274 0.21298274 0.77588832 1.9340171e-38
0.33804289 0.22636347 0.78051716 1.9894072e-38
0.37383717 0.23421952 0.79062414 1.8881353e-38
-0.13100854 0.26952747 0.76663357 1.0216782e-38
0.031086737 0.26236349 0.76180929 9.0196748e-39
0.059669897 0.25913507 0.77159792 7.9140461e-39
0.10253857 0.26056531 0.78094828 6.9013333e-39
0.12501033 0.24975729 0.76530236 8.9285553e-39
0.34888658 0.24692507 0.76516396 1.9250862e-38
0.3768566 0.25194389 0.77258158 1.7407668e-38
-0.12761986 0.28547594 0.76657802 1.2433791e-38
-0.10352316 0.30205867 0.76176143 1.1513993e-38
-0.041311432 0.3145467 0.76100004 2.3045362e-39
-0.0091235572 0.30377445 0.76420009 3.7713762e-39
0.020617485 0.29600835 0.7729575 4.5993306e-39
0.058066763 0.29227519 0.78705549 4.3227437e-39
0.094864093 0.29820481 0.77821338 6.901692e-39
0.078034267 0.34019393 0.79473352 6.2577631e-39
0.086202003 0.33176035 0.77409691 6.9938876e-39
0.39316475 -0.0040960251 0.83773947 7.2780542e-39
0.41055939 -0.0074429214 0.83667171 1.0775359e-38
0.3587724 0.036756191 0.83900005 1.1324205e-38
0.38551962 0.022925269 0.8329044 9.575738e-39
0.40771857 0.020601906 0.82690561 9.118727e-39
0.35405439 0.066802017 0.83248824 1.0402612e-38
0.37880048 0.058921911 0.82210702 1.1509323e-38
0.40655741 0.059109844 0.82102847 1.1232375e-38
0.35174003 0.098605976 0.82997721 7.7332618e-39
0.37923238 0.10055043 0.81645501 7.7354282e-39
0.40502775 0.097857676 0.81576288 1.0496618e-38
0.034771878 0.15816374 0.82553345 1.4361979e-38
0.062988408 0.15472879 0.82801336 1.4546364e-38
0.10230295 0.14785294 0.82432491 1.3716965e-38
0.14032474 0.14306137 0.81950879 1.4454169e-38
0.17892094 0.14251526 0.81771553 1.638955e-38
0.21702668 0.15090664 0.82173866 1.6757614e-38
0.24810863 0.15754965 0.83120424 1.6113321e-38
0.35553905 0.128566 0.83361876 6.719107e-39
0.37999862 0.13656206 0.82142681 5.9840699e-39
0.40467927 0.13803221 0.81599987 7.2769794e-39
-0.011125483 0.17915364 0.80683345 1.2334394e-38
0.020381564 0.16822988 0.80954808 1.3624772e-38
0.060808193 0.16546759 0.80860102 1.5006263e-38
0.10269853 0.17175019 0.80490488 1.3164512e-38
0.12933823 0.16731329 0.80204117 1.2427672e-38
0.19733334 0.16152382 0.80000007 1.648103e-38
0.22468932 0.16338855 0.80476958 1.6665423e-38
0.26289532 0.17113009 0.81599128 1.7034202e-38
0.29917043 0.18214644 0.81927592 1.7312587e-38
0.3328459 0.19309883 0.82923639 1.9710035e-38
0.36276767 0.19896287 0.83900005 1.8328185e-38
0.31673849 0.20200364 0.80100006 1.9525282e-38
0.34490183 0.20841752 0.81510943 1.9525284e-38
0.37997264 0.21751963 0.81882155 1.8696605e-38
0.40835121 0.22415461 0.82487392 1.759026e-38
0.074919194 0.31160083 0.8147766 3.495504e-39
0.082870901 0.30101159 0.80407429 3.9554003e-39
0.071927682 0.33794391 0.81350452 4.7855183e-39
0.069241829 0.36227518 0.81541681 5.0639003e-39
0.38962778 -0.052827407 0.87100881 3.6842239e-39
0.41396224 -0.055297635 0.8601982 3.6842323e-39
0.35580808 -0.0062101972 0.87418938 4.2381221e-39
0.37963703 -0.019452076 0.85969979 6.2624575e-39
0.41204938 -0.028174723 0.84788805 9.8512347e-39
0.34921503 0.022881694 0.8619808 8.7463347e-39
0.3701295 0.013027573 0.84654015 1.0218937e-38
0.33915943 0.058789939 0.85718924 9.9430716e-39
0.14255433 0.1166963 0.85941398 1.5099899e-38
0.1736407 0.1164612 0.8576405 1.5469407e-38
0.31678569 0.11249894 0.87639564 1.169118e-38
0.33293623 0.10052286 0.85861897 8.8378016e-39
0.035705715 0.15686381 0.84250003 1.4085404e-38
0.065130405 0.14605635 0.85065979 1.4270137e-38
0.098961242 0.13238999 0.85145801 1.4270853e-38
0.13775627 0.12349246 0.84665751 1.5100612e-38
0.18268752 0.1246819 0.84861511 1.6390628e-38
0.21712857 0.13905862 0.848647 1.5744893e-38
0.26284531 0.15377298 0.85712904 1.4086099e-38
0.30519533 0.14542201 0.86938822 1.1876288e-38
0.3383387 0.14028747 0.85778403 9.7572328e-39
0.36536542 0.15291907 0.84922743 8.8352821e-39
0.03489143 0.16147429 0.85200006 1.4179392e-38
0.27617446 0.1614337 0.84409094 1.4731102e-38
0.30440566 0.16564669 0.85058814 1.4547797e-38
0.34201616 0.17600237 0.85340685 1.7037082e-38
0.37490675 0.1825411 0.86217803 1.832818e-38
0.41182801 0.19815157 0.87616676 1.6945249e-38
0.3910608 0.20338967 0.84882808 1.8696605e-38
0.41792127 0.20863487 0.85938305 1.740587e-38
-0.024488438 0.35848686 0.87800014 1.6566459e-39
-0.045724548 0.38255438 0.87134778 3.2232513e-39
-0.020482663 0.37578836 0.86917162 1.4729721e-39
0.01054839 0.38167876 0.87230122 9.2051576e-40
0.38267088 -0.080963403 0.90977776 2.487152e-39
0.35086027 -0.043367676 0.90338808 2.9477406e-39
0.37780184 -0.060671855 0.8932879 3.4083614e-39
0.4020988 -0.077110484 0.88142872 4.2381417e-39
0.31883144 -0.0026036191 0.91220009 1.0674157e-38
0.34302256 -0.018842613 0.89733666 4.6040194e-39
0.36359519 -0.032953132 0.88258839 3.22361e-39
0.31522816 0.023108026 0.90754658 1.1229848e-38
0.33240193 0.017769303 0.89433354 1.0310051e-38
0.31544536 0.062063236 0.90378201 1.1692622e-38
0.32419291 0.058923405 0.88712907 1.1230922e-38
0.30772245 0.10145257 0.89769584 1.1968845e-38
0.32126886 0.086534336 0.88217396 1.1324191e-38
0.2341563 0.14301489 0.91248846 1.3534367e-38
0.26069736 0.1424478 0.89678401 1.3258503e-38
0.29363966 0.1326393 0.89180398 1.2245069e-38
0.39644027 0.18922886 0.88636357 1.9433084e-38
0.41614351 0.19339438 0.8978622 1.7405502e-38
0.45129058 0.19858031 0.91022736 1.5194971e-38
0.43429083 0.20284213 0.89165914 1.6392437e-38
0.44655308 0.20340025 0.89320034 1.6208044e-38
-0.010754763 0.35839188 0.88321435 1.3804163e-39
0.013336247 0.35918286 0.89717644 1.1041882e-39
-0.050995342 0.37914488 0.88682526 3.3165259e-39
-0.016210223 0.36468896 0.88066006 1.4729721e-39
0.023176577 0.37354469 0.89165306 1.1045483e-39
0.053171821 0.3921293 0.90314561 1.4729707e-39
0.062081039 0.40183449 0.90247828 1.1967453e-39
0.38288072 -0.083265632 0.92131573 3.1303999e-39
0.34033048 -0.041225716 0.921 3.5923912e-39
0.37779397 -0.076753162 0.92066675 3.6845826e-39
0.33204436 -0.027222628 0.92490768 3.5927499e-39
0.31132796 0.029463004 0.938344 7.18189e-39
0.31056124 0.057195723 0.93404979 8.4722659e-39
0.29728803 0.10101754 0.92811805 1.1418197e-38
0.22818248 0.13389482 0.93130648 1.4180836e-38
0.26218385 0.13081145 0.92684048 1.3073756e-38
0.28438023 0.12389553 0.92587894 1.2428744e-38
0.43426818 0.19195126 0.92851061 1.6390997e-38
0.44926906 0.19502547 0.92296004 1.5194978e-38
0.44422856 0.20064762 0.92000002 1.5560516e-38
0.038075808 0.36461791 0.92119998 1.1978243e-39
0.058416318 0.3803646 0.93033046 2.3023754e-39
0.11221245 0.14299572 0.79026997 1.0768518e-38
-0.0051196306 0.22082065 0.87757605 1.3539068e-38
-0.092970349 0.0087527372 0.76502407 1.0871177e-38
