# .PCD v0.7 - Point Cloud Data file format
VERSION 0.7
FIELDS x y z rgb
SIZE 4 4 4 4
TYPE F F F F
COUNT 1 1 1 1
WIDTH 1030
HEIGHT 1
VIEWPOINT 0 0 0 1 0 0 0
POINTS 1030
DATA ascii
0.84153807 -0.64127332 2.237 2.1595115e-38
0.9051432 -0.6427871 2.2096667 2.1595115e-38
0.70731807 -0.63701242 2.237 2.1595115e-38
0.73916686 -0.63555866 2.2286294 2.1595115e-38
0.76959831 -0.6347729 2.2351332 2.1595115e-38
0.81894052 -0.63606167 2.2207499 2.1595115e-38
0.86265582 -0.62001878 2.2288249 2.1595115e-38
0.89586127 -0.62073952 2.2231996 2.1595115e-38
0.94649917 -0.61604685 2.2313249 2.1595115e-38
0.97767246 -0.61021662 2.2233684 2.1595115e-38
1.0116345 -0.60496372 2.2202222 2.1595115e-38
0.88840854 -0.59866381 2.237 2.1595115e-38
0.9565838 -0.59866381 2.237 2.1595115e-38
0.97243434 -0.59218717 2.2369995 2.1595115e-38
1.0190547 -0.5798378 2.223448 2.1595115e-38
0.99894124 -0.5432741 2.21525 2.1595115e-38
1.0100299 -0.53977966 2.2183137 2.1595115e-38
0.99333447 -0.49959666 2.2369998 2.1595115e-38
1.0142375 -0.50250483 2.224596 2.1595115e-38
0.99507236 -0.44908997 2.2361248 2.1595115e-38
1.0099919 -0.46613851 2.2319641 2.1595115e-38
0.98772502 -0.41501409 2.2286036 2.1595115e-38
1.0132769 -0.41546452 2.2080002 2.1595115e-38
0.9565838 -0.36644191 2.237 2.1595115e-38
0.98308688 -0.38099512 2.2301533 2.1595115e-38
1.0058668 -0.39463624 2.2080002 2.1595115e-38
0.9523229 -0.32809332 2.2369998 2.1595115e-38
0.97850817 -0.33766067 2.2256978 2.1595115e-38
0.95157713 -0.29848036 2.2335849 2.1595115e-38
0.96902561 -0.30224854 2.2238359 2.1595115e-38
0.94449592 -0.25953075 2.2283344 2.1595115e-38
0.96607167 -0.26798284 2.2125218 2.1595115e-38
0.8926695 -0.20239523 2.237 2.1595115e-38
0.94673431 -0.22317074 2.2273979 2.1595115e-38
0.96161687 -0.21952295 2.2147274 2.1595115e-38
0.89266956 -0.19600382 2.237 2.1595115e-38
0.9565838 -0.19813429 2.237 2.1595115e-38
0.96084476 -0.19813429 2.237 2.1595115e-38
0.18322095 0.23648284 2.237 2.1595115e-38
0.15666287 0.25444573 2.2080002 2.1595115e-38
0.18341537 0.25822097 2.2254121 2.1595115e-38
0.20700452 0.26754624 2.2344544 2.1595115e-38
0.19139625 0.29589781 2.2100689 2.1595115e-38
0.21726297 0.30355194 2.2290001 2.1595115e-38
0.24196126 0.31074515 2.237 2.1595115e-38
0.19977143 0.32384002 2.2080002 2.1595115e-38
0.21870327 0.32830378 2.2166772 2.1595115e-38
0.24804832 0.32352802 2.237 2.1595115e-38
0.34690002 -0.65234667 2.2625 2.1595115e-38
0.38126212 -0.65094942 2.2601285 2.1595115e-38
0.41951597 -0.64772904 2.259567 2.1595115e-38
0.46049497 -0.64869052 2.2580535 2.1595115e-38
0.50096178 -0.64198679 2.2563753 2.1595115e-38
0.54246235 -0.64232469 2.256846 2.1595115e-38
0.58584929 -0.6466009 2.257133 2.1595115e-38
0.617266 -0.64825195 2.2603993 2.1595115e-38
0.65817672 -0.64332223 2.2566667 2.1595115e-38
0.68954098 -0.64396477 2.2520001 2.1595115e-38
0.79785144 -0.64128381 2.2520001 2.1595115e-38
0.82328218 -0.64128381 2.2520001 2.1595115e-38
0.84610862 -0.64235622 2.2520001 2.1595115e-38
0.50047028 -0.63121384 2.2637293 2.1595115e-38
0.53312635 -0.6308068 2.2649999 2.1595115e-38
0.57681292 -0.63439494 2.264353 2.1595115e-38
0.62055045 -0.63585335 2.2660003 2.1595115e-38
0.66571361 -0.62937385 2.2624993 2.1595115e-38
0.70007688 -0.62482172 2.2628005 2.1595115e-38
0.74081093 -0.62616771 2.2591314 2.1595115e-38
0.78003603 -0.62360561 2.2589996 2.1595115e-38
0.81967354 -0.62667835 2.2595553 2.1595115e-38
0.85801101 -0.61677456 2.2586031 2.1595115e-38
0.90200591 -0.6073302 2.2577927 2.1595115e-38
0.93644863 -0.60618222 2.2553935 2.1595115e-38
0.99588454 -0.60553783 2.2520003 2.1595115e-38
1.0051785 -0.60625279 2.2520001 2.1595115e-38
0.87506288 -0.59838861 2.2520001 2.1595115e-38
0.90300977 -0.59644461 2.2609093 2.1595115e-38
0.94466555 -0.59362948 2.2598231 2.1595115e-38
0.98179024 -0.58115822 2.2548511 2.1595115e-38
1.0082941 -0.58323878 2.2533543 2.1595115e-38
0.99647486 -0.5303058 2.2618003 2.1595115e-38
1.0064462 -0.54002112 2.2569408 2.1595115e-38
0.98765337 -0.49743766 2.261059 2.1595115e-38
1.0101136 -0.50065506 2.2611995 2.1595115e-38
0.98645902 -0.46117812 2.2587302 2.1595115e-38
1.0055034 -0.47243261 2.2520003 2.1595115e-38
0.95870858 -0.4117943 2.2520001 2.1595115e-38
0.97397596 -0.42229727 2.2537811 2.1595115e-38
0.95183629 -0.37173566 2.2589998 2.1595115e-38
0.96647006 -0.37962765 2.2563446 2.1595115e-38
0.95151484 -0.34143603 2.2566664 2.1595115e-38
0.97342873 -0.34966624 2.2524512 2.1595115e-38
0.9409923 -0.30062008 2.2552302 2.1595115e-38
0.91719043 -0.24386477 2.266 2.1595115e-38
0.92805892 -0.25840142 2.2566662 2.1595115e-38
0.89846337 -0.20634609 2.261059 2.1595115e-38
0.93041366 -0.22348864 2.2591789 2.1595115e-38
0.891792 -0.19774707 2.2520001 2.1595115e-38
0.19361353 0.23338911 2.2520003 2.1595115e-38
0.22241607 0.22717451 2.2631991 2.1595115e-38
0.2453035 0.22803873 2.2660003 2.1595115e-38
0.19731811 0.2423581 2.2520001 2.1595115e-38
0.2246469 0.25790447 2.2537494 2.1595115e-38
0.25035185 0.26445651 2.2643027 2.1595115e-38
0.23099084 0.28889945 2.2520001 2.1595115e-38
0.25848711 0.29897127 2.2564542 2.1595115e-38
0.30601794 0.31378704 2.266 2.1595115e-38
0.34396333 -0.64623702 2.2833524 2.1595115e-38
0.37768877 -0.64504039 2.2822301 2.1595115e-38
0.42094064 -0.64218926 2.2810001 2.1595115e-38
0.45788491 -0.64239472 2.2851737 2.1595115e-38
0.4822686 -0.64085239 2.2810001 2.1595115e-38
0.34070057 -0.62459075 2.2989848 2.1595115e-38
0.3796753 -0.62499052 2.2984393 2.1595115e-38
0.41863889 -0.62751335 2.2969363 2.1595115e-38
0.46244973 -0.62755007 2.3021021 2.1595115e-38
0.49890581 -0.61674309 2.2940555 2.1595115e-38
0.54270041 -0.61718881 2.2952414 2.1595115e-38
0.57953954 -0.61691236 2.2926307 2.1595115e-38
0.61829376 -0.62061739 2.2919393 2.1595115e-38
0.66120988 -0.61697614 2.2948475 2.1595115e-38
0.70254695 -0.6065833 2.2866125 2.1595115e-38
0.74101108 -0.61025578 2.2965231 2.1595115e-38
0.77828085 -0.60716474 2.2933471 2.1595115e-38
0.82253319 -0.60965514 2.2933261 2.1595115e-38
0.85605061 -0.60592324 2.2922139 2.1595115e-38
0.89081514 -0.60166138 2.290143 2.1595115e-38
0.49542859 -0.59671617 2.312 2.1595115e-38
0.67406172 -0.5969916 2.2996001 2.1595115e-38
0.69607228 -0.59270841 2.2989712 2.1595115e-38
0.74626219 -0.59176201 2.3120003 2.1595115e-38
0.78393692 -0.59342378 2.3081114 2.1595115e-38
0.81128639 -0.59513867 2.3085389 2.1595115e-38
0.87015504 -0.59241402 2.3028803 2.1595115e-38
0.90058303 -0.58478194 2.3012519 2.1595115e-38
0.93992299 -0.5800004 2.3023961 2.1595115e-38
0.97674477 -0.57272798 2.2939517 2.1595115e-38
1.0054731 -0.56489325 2.2901433 2.1595115e-38
0.95021141 -0.54684484 2.3085001 2.1595115e-38
0.98022681 -0.54030186 2.299458 2.1595115e-38
1.004329 -0.54861373 2.2832859 2.1595115e-38
0.95258594 -0.49479952 2.312 2.1595115e-38
0.97823828 -0.50030893 2.2927201 2.1595115e-38
1.0036401 -0.4974753 2.2810001 2.1595115e-38
0.95332289 -0.45554024 2.309931 2.1595115e-38
0.96955687 -0.46116143 2.290606 2.1595115e-38
0.9170934 -0.4128572 2.312 2.1595115e-38
0.94261628 -0.4186379 2.3055742 2.1595115e-38
0.96588099 -0.42392331 2.2908821 2.1595115e-38
0.91379052 -0.38092956 2.312 2.1595115e-38
0.93928337 -0.38026091 2.3012714 2.1595115e-38
0.96136481 -0.3924 2.289 2.1595115e-38
0.91226792 -0.33689702 2.3110318 2.1595115e-38
0.9374522 -0.34166688 2.2973621 2.1595115e-38
0.90674514 -0.29943743 2.3070765 2.1595115e-38
0.9298628 -0.30113545 2.2913692 2.1595115e-38
0.87856001 -0.24220952 2.312 2.1595115e-38
0.9011156 -0.26010191 2.3033135 2.1595115e-38
0.92396349 -0.26308045 2.290231 2.1595115e-38
0.87789768 -0.21946907 2.3045003 2.1595115e-38
0.89753079 -0.22309396 2.2920966 2.1595115e-38
0.92638952 -0.22242346 2.2850001 2.1595115e-38
0.86730587 -0.18911918 2.312 2.1595115e-38
0.88897336 -0.19545655 2.3023574 2.1595115e-38
0.8367238 -0.14312381 2.312 2.1595115e-38
0.79312605 -0.069139816 2.312 2.1595115e-38
0.27303618 0.15633525 2.312 2.1595115e-38
0.23644859 0.1971527 2.2916667 2.1595115e-38
0.2620067 0.18648614 2.3099535 2.1595115e-38
0.23130743 0.21042822 2.2826002 2.1595115e-38
0.2616443 0.21797638 2.2974677 2.1595115e-38
0.30025643 0.23074768 2.3097503 2.1595115e-38
0.26810271 0.25561565 2.2933037 2.1595115e-38
0.30041412 0.26013264 2.3045745 2.1595115e-38
0.33256719 0.26532748 2.3060687 2.1595115e-38
0.27347863 0.29230595 2.2810001 2.1595115e-38
0.29960722 0.29963434 2.2869537 2.1595115e-38
0.33969429 0.29797962 2.2989118 2.1595115e-38
0.37079749 0.3047666 2.3047783 2.1595115e-38
0.26792699 0.32513306 2.2810001 2.1595115e-38
0.28945622 0.32315859 2.2850001 2.1595115e-38
0.35039565 -0.6064617 2.3371053 2.1595115e-38
0.38065428 -0.60626435 2.333477 2.1595115e-38
0.42280933 -0.61040515 2.3399241 2.1595115e-38
0.45931497 -0.61046171 2.3367155 2.1595115e-38
0.49483156 -0.60590184 2.3323331 2.1595115e-38
0.53900087 -0.60315394 2.3269999 2.1595115e-38
0.57325256 -0.60108984 2.3312666 2.1595115e-38
0.62053943 -0.60276473 2.3329253 2.1595115e-38
0.65224564 -0.60601729 2.3282306 2.1595115e-38
0.72691053 -0.60058767 2.3270001 2.1595115e-38
0.8369813 -0.60206515 2.3270001 2.1595115e-38
0.85101718 -0.60058767 2.3270001 2.1595115e-38
0.35232598 -0.59027618 2.3483338 2.1595115e-38
0.38150021 -0.59027946 2.3566589 2.1595115e-38
0.41963893 -0.59161478 2.3586287 2.1595115e-38
0.4600246 -0.5931024 2.3569365 2.1595115e-38
0.50446576 -0.58628625 2.3470011 2.1595115e-38
0.53911233 -0.58896083 2.3465211 2.1595115e-38
0.58063078 -0.58774817 2.3466504 2.1595115e-38
0.61759144 -0.58860201 2.3487151 2.1595115e-38
0.65592092 -0.59091312 2.3459096 2.1595115e-38
0.69914144 -0.58485091 2.3398008 2.1595115e-38
0.73629105 -0.58119971 2.3480802 2.1595115e-38
0.77997696 -0.58174765 2.3408313 2.1595115e-38
0.82191879 -0.5817132 2.3386569 2.1595115e-38
0.85988492 -0.57967585 2.340538 2.1595115e-38
0.89745218 -0.56807786 2.3388529 2.1595115e-38
0.92958879 -0.56455672 2.3323333 2.1595115e-38
0.90660083 -0.54697782 2.3568952 2.1595115e-38
0.9442873 -0.54299736 2.3509998 2.1595115e-38
0.96554375 -0.53089225 2.3382003 2.1595115e-38
0.90091342 -0.51898009 2.3590002 2.1595115e-38
0.94174975 -0.5002892 2.3432109 2.1595115e-38
0.96625912 -0.51415622 2.3270001 2.1595115e-38
0.91740984 -0.44612455 2.3510003 2.1595115e-38
0.93724471 -0.46236488 2.3420477 2.1595115e-38
0.91342813 -0.41882023 2.3490009 2.1595115e-38
0.92687273 -0.43306834 2.3410001 2.1595115e-38
0.91096371 -0.37862155 2.3484297 2.1595115e-38
0.92507237 -0.38167179 2.335 2.1595115e-38
0.90296477 -0.34202155 2.34389 2.1595115e-38
0.89418632 -0.3020018 2.339541 2.1595115e-38
0.87372446 -0.2551685 2.3565392 2.1595115e-38
0.88529128 -0.26236555 2.3435519 2.1595115e-38
0.87082976 -0.21779688 2.3402886 2.1595115e-38
0.88141429 -0.23876287 2.3430002 2.1595115e-38
0.8656224 -0.18865228 2.3360264 2.1595115e-38
0.8399362 -0.14109747 2.3270001 2.1595115e-38
0.84545451 -0.14548774 2.3341115 2.1595115e-38
0.81395578 -0.095437542 2.3518007 2.1595115e-38
0.79122037 -0.054478258 2.3336668 2.1595115e-38
0.8035627 -0.068147361 2.3521433 2.1595115e-38
0.32127336 0.11682668 2.3590002 2.1595115e-38
0.30561313 0.15474951 2.3550005 2.1595115e-38
0.33063447 0.15277335 2.3590007 2.1595115e-38
0.7414 0.15951334 2.3590002 2.1595115e-38
0.27340344 0.16954248 2.3302 2.1595115e-38
0.30124423 0.18083769 2.3427927 2.1595115e-38
0.340229 0.18265529 2.3539093 2.1595115e-38
0.36659744 0.18451972 2.3590009 2.1595115e-38
0.74078733 0.17626123 2.3590004 2.1595115e-38
0.30324212 0.21680407 2.3350015 2.1595115e-38
0.34109569 0.22095247 2.3423693 2.1595115e-38
0.37364507 0.22294258 2.3550012 2.1595115e-38
0.71512264 0.23338161 2.3563337 2.1595115e-38
0.72841305 0.22823355 2.3556323 2.1595115e-38
0.30361813 0.2415648 2.3270001 2.1595115e-38
0.34873182 0.25482219 2.3321896 2.1595115e-38
0.3806839 0.26098865 2.3493164 2.1595115e-38
0.40848491 0.26490247 2.3590009 2.1595115e-38
0.71149468 0.25171039 2.3567147 2.1595115e-38
0.7254591 0.24180955 2.3510003 2.1595115e-38
0.38540086 0.2937164 2.3371828 2.1595115e-38
0.41697416 0.30124578 2.3540173 2.1595115e-38
0.35979432 -0.58381712 2.3760002 2.1595115e-38
0.38035053 -0.58113283 2.3864346 2.1595115e-38
0.41545439 -0.58196682 2.3870001 2.1595115e-38
0.46492186 -0.58210337 2.380645 2.1595115e-38
0.49198624 -0.58264178 2.3796363 2.1595115e-38
0.54715884 -0.57426906 2.383384 2.1595115e-38
0.58091664 -0.57161593 2.3846953 2.1595115e-38
0.61902821 -0.57314318 2.3843994 2.1595115e-38
0.6602754 -0.57630509 2.3848879 2.1595115e-38
0.69824535 -0.57583022 2.3835783 2.1595115e-38
0.74448007 -0.56797725 2.3759999 2.1595115e-38
0.77939594 -0.56899726 2.376941 2.1595115e-38
0.81904531 -0.56693578 2.3782065 2.1595115e-38
0.86033839 -0.56586516 2.3760002 2.1595115e-38
0.88704002 -0.56345147 2.3760002 2.1595115e-38
0.55813336 -0.55813336 2.3920002 2.1595115e-38
0.56496763 -0.55813336 2.3920002 2.1595115e-38
0.71055287 -0.55469972 2.3877337 2.1595115e-38
0.740843 -0.5535289 2.3884869 2.1595115e-38
0.78190833 -0.55179965 2.3893943 2.1595115e-38
0.82064605 -0.55043489 2.3889351 2.1595115e-38
0.85974461 -0.55340213 2.3851423 2.1595115e-38
0.89838576 -0.5411374 2.3838639 2.1595115e-38
0.93023109 -0.53196824 2.3759999 2.1595115e-38
0.91325867 -0.50012147 2.3894186 2.1595115e-38
0.92594314 -0.50108981 2.3790264 2.1595115e-38
0.91039068 -0.46052051 2.3804996 2.1595115e-38
0.9234134 -0.46555892 2.3776 2.1595115e-38
0.90439248 -0.41906208 2.3813329 2.1595115e-38
0.8719334 -0.37052953 2.3849998 2.1595115e-38
0.89629686 -0.38190758 2.387233 2.1595115e-38
0.87418669 -0.34690017 2.386353 2.1595115e-38
0.88918346 -0.34076011 2.3807054 2.1595115e-38
0.86819565 -0.29452655 2.3907993 2.1595115e-38
0.8874439 -0.30269718 2.3777773 2.1595115e-38
0.86060303 -0.25920999 2.3827097 2.1595115e-38
0.88477725 -0.27833146 2.3760002 2.1595115e-38
0.83653551 -0.21462707 2.3856003 2.1595115e-38
0.85296887 -0.22202379 2.3803873 2.1595115e-38
0.88025147 -0.23307429 2.3760002 2.1595115e-38
0.83036584 -0.18338667 2.3920002 2.1595115e-38
0.8557924 -0.17933536 2.3853967 2.1595115e-38
0.82292926 -0.13717574 2.3855522 2.1595115e-38
0.8482973 -0.14374098 2.3826663 2.1595115e-38
0.7968778 -0.087023243 2.3920002 2.1595115e-38
0.81777322 -0.10678726 2.38415 2.1595115e-38
0.84857148 -0.11993144 2.3760002 2.1595115e-38
0.78881639 -0.057678457 2.3869622 2.1595115e-38
0.80345654 -0.071746036 2.3786669 2.1595115e-38
0.75860578 -0.020502858 2.3920002 2.1595115e-38
0.77612764 -0.021908697 2.3842578 2.1595115e-38
0.75144613 0.032218777 2.3920002 2.1595115e-38
0.76743442 0.020425497 2.3846157 2.1595115e-38
0.74600518 0.0618436 2.3898661 2.1595115e-38
0.76371968 0.05630172 2.3824003 2.1595115e-38
0.3384361 0.10965756 2.3896289 2.1595115e-38
0.36221716 0.11162667 2.3920002 2.1595115e-38
0.7415778 0.10074057 2.388571 2.1595115e-38
0.76316196 0.10137525 2.3920002 2.1595115e-38
0.31386992 0.13977034 2.3782856 2.1595115e-38
0.34131485 0.13881829 2.3860641 2.1595115e-38
0.36839005 0.14102143 2.3919992 2.1595115e-38
0.71511477 0.14600521 2.3920002 2.1595115e-38
0.73702389 0.13864827 2.3891754 2.1595115e-38
0.76316196 0.12301715 2.3920002 2.1595115e-38
0.34292579 0.16765715 2.3759999 2.1595115e-38
0.38034865 0.17837326 2.3818178 2.1595115e-38
0.40626034 0.19439748 2.3920002 2.1595115e-38
0.71240598 0.18055223 2.3914473 2.1595115e-38
0.73242861 0.18038554 2.3805332 2.1595115e-38
0.3923007 0.21368453 2.3847272 2.1595115e-38
0.40966269 0.2221968 2.3909669 2.1595115e-38
0.71322799 0.21903813 2.3793333 2.1595115e-38
0.73246813 0.21077195 2.3764997 2.1595115e-38
0.424384 0.25736278 2.3845575 2.1595115e-38
0.44650668 0.27564955 2.3920002 2.1595115e-38
0.51712769 0.26653716 2.3920002 2.1595115e-38
0.52168387 0.26653716 2.3920002 2.1595115e-38
0.71099299 0.25939879 2.3819997 2.1595115e-38
0.43399009 0.28568536 2.3808 2.1595115e-38
0.45866054 0.29843888 2.3869998 2.1595115e-38
0.49238944 0.30959418 2.3908961 2.1595115e-38
0.52168387 0.31209907 2.3920002 2.1595115e-38
0.58091432 0.31665528 2.3920002 2.1595115e-38
0.69527465 0.29022935 2.3920002 2.1595115e-38
0.44502097 0.32467812 2.3840003 2.1595115e-38
0.4966248 0.32121146 2.3920002 2.1595115e-38
0.58091432 0.32121146 2.3920002 2.1595115e-38
0.38773733 -0.57027149 2.4122696 2.1595115e-38
0.42164767 -0.57115376 2.4122686 2.1595115e-38
0.45451805 -0.57601053 2.4123051 2.1595115e-38
0.58795404 -0.56264669 2.4146671 2.1595115e-38
0.62341994 -0.56376857 2.4090004 2.1595115e-38
0.65408432 -0.56441009 2.4114287 2.1595115e-38
0.69308287 -0.56543714 2.4090004 2.1595115e-38
0.39406458 -0.55169034 2.4260004 2.1595115e-38
0.42401749 -0.55245125 2.4241109 2.1595115e-38
0.44281387 -0.55409288 2.4175003 2.1595115e-38
0.58290642 -0.55601823 2.4175005 2.1595115e-38
0.61920881 -0.54743588 2.416285 2.1595115e-38
0.66074985 -0.55220783 2.4175 2.1595115e-38
0.69925553 -0.54863566 2.4165115 2.1595115e-38
0.73942012 -0.54190493 2.4165001 2.1595115e-38
0.77982706 -0.53823251 2.4193027 2.1595115e-38
0.81845117 -0.53503007 2.4169693 2.1595115e-38
0.86014509 -0.53928369 2.419755 2.1595115e-38
0.89408952 -0.53709745 2.41835 2.1595115e-38
0.87104958 -0.51985717 2.4260001 2.1595115e-38
0.91249776 -0.50216818 2.4246922 2.1595115e-38
0.90792865 -0.45706871 2.4201152 2.1595115e-38
0.90057236 -0.41860601 2.4181542 2.1595115e-38
0.87278366 -0.36985397 2.4196253 2.1595115e-38
0.88989735 -0.39532706 2.4238753 2.1595115e-38
0.86993241 -0.33816296 2.4208603 2.1595115e-38
0.88029146 -0.3327086 2.4260001 2.1595115e-38
0.8574146 -0.30318668 2.4154222 2.1595115e-38
0.83291471 -0.25093895 2.4235718 2.1595115e-38
0.84662467 -0.26227543 2.4156787 2.1595115e-38
0.83229971 -0.22074986 2.4174998 2.1595115e-38
0.84200293 -0.23401716 2.4090002 2.1595115e-38
0.79434174 -0.18114133 2.4260004 2.1595115e-38
0.82036328 -0.18033332 2.4182072 2.1595115e-38
0.84926814 -0.17015955 2.4090004 2.1595115e-38
0.795434 -0.14051898 2.4260006 2.1595115e-38
0.80981421 -0.14380644 2.4179721 2.1595115e-38
0.73473144 -0.083177149 2.4260001 2.1595115e-38
0.78753322 -0.09254811 2.4177289 2.1595115e-38
0.80281788 -0.10682154 2.4135337 2.1595115e-38
0.73242098 -0.076245718 2.4260001 2.1595115e-38
0.77310091 -0.061046362 2.4126751 2.1595115e-38
0.75615466 -0.02074248 2.4192002 2.1595115e-38
0.76405764 -0.023027858 2.4189167 2.1595115e-38
0.75087208 0.027002757 2.4131036 2.1595115e-38
0.76999575 0.015117789 2.4181075 2.1595115e-38
0.37416124 0.07053747 2.4260001 2.1595115e-38
0.74110675 0.059902687 2.4105458 2.1595115e-38
0.35102576 0.097277716 2.4090002 2.1595115e-38
0.37781769 0.099699572 2.4203327 2.1595115e-38
0.40433335 0.11783429 2.4260001 2.1595115e-38
0.31890571 0.12618573 2.4090002 2.1595115e-38
0.34337813 0.12618575 2.4090002 2.1595115e-38
0.38750461 0.13787694 2.4121623 2.1595115e-38
0.41871271 0.14582072 2.4218304 2.1595115e-38
0.44207114 0.15095112 2.4260004 2.1595115e-38
0.71467006 0.14683428 2.4090002 2.1595115e-38
0.74258381 0.13587271 2.4090002 2.1595115e-38
0.7639972 0.13765715 2.4090002 2.1595115e-38
0.39499956 0.17857192 2.4090004 2.1595115e-38
0.42018774 0.18032698 2.4164691 2.1595115e-38
0.45227581 0.18599339 2.4260001 2.1595115e-38
0.48288953 0.19639048 2.4260001 2.1595115e-38
0.70113665 0.18746863 2.4102595 2.1595115e-38
0.42903155 0.21944532 2.4089992 2.1595115e-38
0.46065828 0.2190327 2.4210408 2.1595115e-38
0.49334747 0.22569709 2.4260006 2.1595115e-38
0.67696959 0.21256381 2.4260001 2.1595115e-38
0.7042017 0.2210146 2.4194622 2.1595115e-38
0.43296456 0.2454886 2.4090002 2.1595115e-38
0.46274427 0.258641 2.4103954 2.1595115e-38
0.50032949 0.26074076 2.4167492 2.1595115e-38
0.53527325 0.27603453 2.4168465 2.1595115e-38
0.67696965 0.26570478 2.4260004 2.1595115e-38
0.69495684 0.25890812 2.4123042 2.1595115e-38
0.46574005 0.2985121 2.4090002 2.1595115e-38
0.5044111 0.29578006 2.4114785 2.1595115e-38
0.5389176 0.30091432 2.4143958 2.1595115e-38
0.57466871 0.31301996 2.423316 2.1595115e-38
0.67696959 0.29112002 2.4260001 2.1595115e-38
0.69060886 0.28904086 2.4116158 2.1595115e-38
0.46196908 0.32579383 2.4132502 2.1595115e-38
0.59610289 0.32346669 2.4260001 2.1595115e-38
0.60303432 0.32346666 2.4260001 2.1595115e-38
0.66542673 -0.56072664 2.4430001 2.1595115e-38
0.393666 -0.53368944 2.4674006 2.1595115e-38
0.41556934 -0.53832382 2.4652824 2.1595115e-38
0.59229273 -0.54524916 2.4438951 2.1595115e-38
0.6178323 -0.53203958 2.4528596 2.1595115e-38
0.66207188 -0.53627741 2.4591386 2.1595115e-38
0.69981301 -0.53280026 2.4613841 2.1595115e-38
0.7376712 -0.52943802 2.4478059 2.1595115e-38
0.78039807 -0.5294767 2.4460006 2.1595115e-38
0.82185513 -0.52700722 2.4452178 2.1595115e-38
0.85591334 -0.52509862 2.4494762 2.1595115e-38
0.89524966 -0.53022158 2.4430006 2.1595115e-38
0.40828001 -0.51565999 2.4780002 2.1595115e-38
0.62403131 -0.51225609 2.46931 2.1595115e-38
0.66253078 -0.5143227 2.4780004 2.1595115e-38
0.70285445 -0.51150119 2.4773793 2.1595115e-38
0.73831528 -0.51166618 2.4618661 2.1595115e-38
0.77963001 -0.51367766 2.4653416 2.1595115e-38
0.81993037 -0.51102054 2.4650843 2.1595115e-38
0.86473209 -0.50579894 2.4640844 2.1595115e-38
0.89623886 -0.50009102 2.4509878 2.1595115e-38
0.86742407 -0.45684564 2.4675589 2.1595115e-38
0.89367789 -0.46051094 2.4475341 2.1595115e-38
0.83640003 -0.40062857 2.46 2.1595115e-38
0.86037815 -0.41924107 2.46015 2.1595115e-38
0.8901276 -0.42395049 2.4454288 2.1595115e-38
0.83206004 -0.36928096 2.4750004 2.1595115e-38
0.85900491 -0.38053611 2.4574461 2.1595115e-38
0.88373297 -0.39179966 2.4451251 2.1595115e-38
0.82743025 -0.33849195 2.470587 2.1595115e-38
0.85184294 -0.34150782 2.4510708 2.1595115e-38
0.79532003 -0.28084001 2.4780002 2.1595115e-38
0.82106519 -0.29873297 2.4602778 2.1595115e-38
0.84731084 -0.30295882 2.4444788 2.1595115e-38
0.79315698 -0.25310835 2.46825 2.1595115e-38
0.81697232 -0.26206949 2.4506412 2.1595115e-38
0.8457433 -0.27338335 2.4430001 2.1595115e-38
0.78981495 -0.2197699 2.4645824 2.1595115e-38
0.81662178 -0.22197153 2.4486666 2.1595115e-38
0.7841152 -0.17932937 2.4556758 2.1595115e-38
0.80688804 -0.17822267 2.4430003 2.1595115e-38
0.75503665 -0.13385259 2.4744003 2.1595115e-38
0.77833188 -0.13960806 2.4561589 2.1595115e-38
0.80580223 -0.15433556 2.4430003 2.1595115e-38
0.75038636 -0.093730278 2.4619136 2.1595115e-38
0.77466941 -0.10428814 2.4533131 2.1595115e-38
0.3527506 -0.055945892 2.4780004 2.1595115e-38
0.36652619 -0.047381546 2.4780004 2.1595115e-38
0.74957836 -0.06103383 2.4435489 2.1595115e-38
0.76592553 -0.063901857 2.4437733 2.1595115e-38
0.35385498 -0.019407855 2.4667497 2.1595115e-38
0.37848929 -0.01809191 2.4770987 2.1595115e-38
0.40936929 -0.012163079 2.4780004 2.1595115e-38
0.75214785 -0.023055157 2.4430006 2.1595115e-38
0.76221603 -0.019544004 2.4430003 2.1595115e-38
0.38413119 0.019325612 2.4691567 2.1595115e-38
0.4172748 0.020616608 2.4779985 2.1595115e-38
0.75393605 0.0077582537 2.4458334 2.1595115e-38
0.77827001 0.0081433328 2.4430001 2.1595115e-38
0.38671592 0.054796275 2.4552581 2.1595115e-38
0.41841 0.058743332 2.4679999 2.1595115e-38
0.45045814 0.061234146 2.4775705 2.1595115e-38
0.39786002 0.087637782 2.4430003 2.1595115e-38
0.42076632 0.099872209 2.4519858 2.1595115e-38
0.45883122 0.10085146 2.4709277 2.1595115e-38
0.48380002 0.11328001 2.4780002 2.1595115e-38
0.42478985 0.12760559 2.4472501 2.1595115e-38
0.46295363 0.13747928 2.4673698 2.1595115e-38
0.49699181 0.14674358 2.4779992 2.1595115e-38
0.53719497 0.14248499 2.4780004 2.1595115e-38
0.46572131 0.17358199 2.4461217 2.1595115e-38
0.49881133 0.17863655 2.4662414 2.1595115e-38
0.53135115 0.1797657 2.4725211 2.1595115e-38
0.50805885 0.21248718 2.4614825 2.1595115e-38
0.52897722 0.21341145 2.4780004 2.1595115e-38
0.67563689 0.23151387 2.4662225 2.1595115e-38
0.69033837 0.22183175 2.4499378 2.1595115e-38
0.62768728 0.27216879 2.4708004 2.1595115e-38
0.66495991 0.2618694 2.4699721 2.1595115e-38
0.68591636 0.24509801 2.4562221 2.1595115e-38
0.55607337 0.28850669 2.4430001 2.1595115e-38
0.58243322 0.29621622 2.4492118 2.1595115e-38
0.62149209 0.2983337 2.4605999 2.1595115e-38
0.66206789 0.29803854 2.4645782 2.1595115e-38
0.68729562 0.31164035 2.4569089 2.1595115e-38
0.62085718 0.32097146 2.46 2.1595115e-38
0.66867775 0.32144117 2.4635999 2.1595115e-38
0.68411428 0.32097143 2.46 2.1595115e-38
0.39104003 -0.52416003 2.4960001 2.1595115e-38
0.40173715 -0.52297145 2.4960001 2.1595115e-38
0.39022675 -0.506832 2.4959996 2.1595115e-38
0.40377471 -0.50972742 2.4960001 2.1595115e-38
0.63806784 -0.50412655 2.4985714 2.1595115e-38
0.66126943 -0.50355846 2.502923 2.1595115e-38
0.69961792 -0.50141984 2.5032001 2.1595115e-38
0.74337125 -0.49964321 2.5053103 2.1595115e-38
0.78012604 -0.49609759 2.5053465 2.1595115e-38
0.81876308 -0.49380091 2.5072944 2.1595115e-38
0.85964507 -0.49270594 2.5061893 2.1595115e-38
0.781905 -0.47179118 2.5101428 2.1595115e-38
0.82808667 -0.46005499 2.513 2.1595115e-38
0.85206211 -0.46359971 2.5064652 2.1595115e-38
0.83251154 -0.42304674 2.5088573 2.1595115e-38
0.84385413 -0.41859037 2.5026312 2.1595115e-38
0.82026088 -0.37957826 2.5072076 2.1595115e-38
0.8432588 -0.39521307 2.5062859 2.1595115e-38
0.79624403 -0.33353204 2.5122001 2.1595115e-38
0.81153655 -0.34189034 2.5050004 2.1595115e-38
0.78553587 -0.29623613 2.5068002 2.1595115e-38
0.80282593 -0.30362597 2.4960003 2.1595115e-38
0.75779146 -0.24541432 2.5140002 2.1595115e-38
0.77878928 -0.25940388 2.5024698 2.1595115e-38
0.75659424 -0.22027428 2.5140002 2.1595115e-38
0.77462041 -0.2194844 2.5082402 2.1595115e-38
0.75204891 -0.17934123 2.5089231 2.1595115e-38
0.76980245 -0.18177843 2.4994838 2.1595115e-38
0.74853122 -0.137375 2.4980934 2.1595115e-38
0.76425147 -0.15570286 2.4960001 2.1595115e-38
0.35894856 -0.0832 2.4960001 2.1595115e-38
0.38348266 -0.08638823 2.499176 2.1595115e-38
0.4143829 -0.088132851 2.5094998 2.1595115e-38
0.74740076 -0.109866 2.4968996 2.1595115e-38
0.35657144 -0.076068573 2.4960001 2.1595115e-38
0.38280067 -0.062007159 2.496001 2.1595115e-38
0.41558456 -0.057427522 2.5040004 2.1595115e-38
0.39619049 -0.027733337 2.4960003 2.1595115e-38
0.4232223 -0.020933691 2.4993758 2.1595115e-38
0.44991434 -0.013227971 2.5121052 2.1595115e-38
0.436746 0.010589093 2.4960003 2.1595115e-38
0.45521963 0.020947522 2.5031054 2.1595115e-38
0.49561715 0.035914287 2.5140002 2.1595115e-38
0.47146669 0.056259032 2.4959998 2.1595115e-38
0.49828479 0.06153851 2.5060687 2.1595115e-38
0.53775668 0.076138295 2.5140002 2.1595115e-38
0.5680443 0.060455717 2.5140002 2.1595115e-38
0.47685489 0.088905148 2.4960001 2.1595115e-38
0.50119752 0.09876544 2.4981732 2.1595115e-38
0.53698748 0.10096333 2.508462 2.1595115e-38
0.5662486 0.092179999 2.5140002 2.1595115e-38
0.50450289 0.13019423 2.4959993 2.1595115e-38
0.53802663 0.13733208 2.4960008 2.1595115e-38
0.53485715 0.16877714 2.4960001 2.1595115e-38
0.6601764 -0.49008238 2.534924 2.1595115e-38
0.69906485 -0.49134937 2.5320003 2.1595115e-38
0.73859406 -0.48918906 2.5371819 2.1595115e-38
0.76562858 -0.48831427 2.5320001 2.1595115e-38
0.82953143 -0.49193144 2.5320001 2.1595115e-38
0.66503513 -0.47297937 2.5444689 2.1595115e-38
0.69949585 -0.47319186 2.5473065 2.1595115e-38
0.74008071 -0.47597292 2.5455716 2.1595115e-38
0.77850831 -0.46430305 2.540216 2.1595115e-38
0.81839103 -0.46019787 2.5323513 2.1595115e-38
0.8427943 -0.4714343 2.5320001 2.1595115e-38
0.78899586 -0.4086085 2.5450003 2.1595115e-38
0.81550074 -0.41987094 2.5364461 2.1595115e-38
0.78489226 -0.38007152 2.539283 2.1595115e-38
0.80855197 -0.38558748 2.5320003 2.1595115e-38
0.78217036 -0.34075424 2.5391963 2.1595115e-38
0.8030057 -0.35930285 2.5320001 2.1595115e-38
0.75959998 -0.28454858 2.5320001 2.1595115e-38
0.77202916 -0.30364251 2.5412564 2.1595115e-38
0.75460088 -0.25956854 2.5328264 2.1595115e-38
0.76656634 -0.26874033 2.5319998 2.1595115e-38
0.74964714 -0.21917209 2.5417719 2.1595115e-38
0.71670955 -0.17735524 2.5510001 2.1595115e-38
0.73705792 -0.1771396 2.5477667 2.1595115e-38
0.73731542 -0.14716107 2.5356772 2.1595115e-38
0.43519449 -0.09032134 2.5358002 2.1595115e-38
0.45091963 -0.084061533 2.5510004 2.1595115e-38
0.43427637 -0.068177655 2.5319998 2.1595115e-38
0.46057588 -0.058352552 2.5432124 2.1595115e-38
0.48590478 -0.055879049 2.5510004 2.1595115e-38
0.46685746 -0.021957144 2.5324869 2.1595115e-38
0.49783474 -0.017647302 2.5493119 2.1595115e-38
0.47505143 0.016880002 2.5320001 2.1595115e-38
0.50089699 0.018955225 2.5454309 2.1595115e-38
0.54145986 0.030288072 2.5510004 2.1595115e-38
0.56998551 0.031492271 2.5442941 2.1595115e-38
0.51604575 0.047424763 2.5320001 2.1595115e-38
0.54189146 0.057127323 2.5386498 2.1595115e-38
0.56948602 0.058729939 2.5320001 2.1595115e-38
0.55382478 0.09565334 2.5320001 2.1595115e-38
0.57129091 0.10291463 2.5400386 2.1595115e-38
0.6704765 -0.46003634 2.5831544 2.1595115e-38
0.70045745 -0.45939919 2.5826669 2.1595115e-38
0.74125695 -0.46177927 2.5828035 2.1595115e-38
0.77836853 -0.45447826 2.5833855 2.1595115e-38
0.80692458 -0.44729131 2.5729234 2.1595115e-38
0.78105462 -0.42283511 2.5819991 2.1595115e-38
0.80446625 -0.43262967 2.5717273 2.1595115e-38
0.77298594 -0.38233891 2.5766501 2.1595115e-38
0.75697434 -0.32547432 2.5890002 2.1595115e-38
0.76791954 -0.33881751 2.5780385 2.1595115e-38
0.75302917 -0.30920058 2.5890005 2.1595115e-38
0.76425141 -0.30208799 2.5858338 2.1595115e-38
0.74538183 -0.25826353 2.5782602 2.1595115e-38
0.76190579 -0.27862576 2.5890002 2.1595115e-38
0.73717135 -0.22095409 2.5828032 2.1595115e-38
0.71533537 -0.18658364 2.5776002 2.1595115e-38
0.72759277 -0.19102684 2.5733528 2.1595115e-38
0.47141147 -0.082729533 2.5700002 2.1595115e-38
0.48218098 -0.080771431 2.5700002 2.1595115e-38
0.47728574 -0.075876199 2.5700002 2.1595115e-38
0.50296718 -0.05437376 2.5739114 2.1595115e-38
0.5275951 -0.05108488 2.5822945 2.1595115e-38
0.51094043 -0.033654764 2.5699999 2.1595115e-38
0.5361017 -0.017453991 2.5751452 2.1595115e-38
0.56050479 -0.0024476191 2.5700002 2.1595115e-38
0.54166192 0.016161926 2.5729554 2.1595115e-38
0.56905717 0.012816137 2.5722353 2.1595115e-38
0.67030811 -0.44914979 2.6165004 2.1595115e-38
0.69957346 -0.44951609 2.6090009 2.1595115e-38
0.73943591 -0.44769561 2.6090007 2.1595115e-38
0.76921135 -0.44903198 2.6090002 2.1595115e-38
0.66846162 -0.42982802 2.622334 2.1595115e-38
0.70165586 -0.43170929 2.6179478 2.1595115e-38
0.74624467 -0.4276326 2.6228461 2.1595115e-38
0.76846403 -0.41989821 2.6174853 2.1595115e-38
0.75393939 -0.37640408 2.626693 2.1595115e-38
0.76918739 -0.38133278 2.620429 2.1595115e-38
0.74691343 -0.33842894 2.6233392 2.1595115e-38
0.76530689 -0.34538195 2.6090004 2.1595115e-38
0.74192518 -0.2993699 2.616796 2.1595115e-38
0.76282203 -0.29817146 2.6090002 2.1595115e-38
0.71384943 -0.25631106 2.6290004 2.1595115e-38
0.72872233 -0.26126096 2.6140008 2.1595115e-38
0.70913273 -0.22098403 2.6211946 2.1595115e-38
0.72623861 -0.2247818 2.6115005 2.1595115e-38
0.71312666 -0.19629622 2.6090002 2.1595115e-38
0.55658668 -0.017393334 2.6090002 2.1595115e-38
0.66762847 -0.41270608 2.6571829 2.1595115e-38
0.70177841 -0.41364264 2.6607072 2.1595115e-38
0.74170399 -0.41731042 2.6592224 2.1595115e-38
0.76002955 -0.41941428 2.6690001 2.1595115e-38
0.71766442 -0.39399526 2.6690001 2.1595115e-38
0.73842692 -0.38222742 2.6547787 2.1595115e-38
0.73271734 -0.33986729 2.6604285 2.1595115e-38
0.71208042 -0.29093844 2.6640003 2.1595115e-38
0.72779483 -0.30339834 2.6590004 2.1595115e-38
0.67360479 -0.25419047 2.6690001 2.1595115e-38
0.70004052 -0.26054215 2.6571822 2.1595115e-38
0.69782233 -0.23765314 2.6490002 2.1595115e-38
0.63773054 -0.40019524 2.7110002 2.1595115e-38
0.65838408 -0.40312549 2.6984 2.1595115e-38
0.69747865 -0.40285954 2.6900003 2.1595115e-38
0.72672701 -0.40392703 2.6900001 2.1595115e-38
0.63579416 -0.38276741 2.7110002 2.1595115e-38
0.66230232 -0.3858512 2.7073469 2.1595115e-38
0.70292628 -0.38162854 2.7033329 2.1595115e-38
0.72791761 -0.37306687 2.6947722 2.1595115e-38
0.67581362 -0.32919288 2.7110002 2.1595115e-38
0.70359081 -0.33871531 2.7006567 2.1595115e-38
0.72854179 -0.34265482 2.6899998 2.1595115e-38
0.66767186 -0.29755065 2.7085993 2.1595115e-38
0.69710672 -0.30305612 2.695688 2.1595115e-38
0.67123508 -0.27080399 2.6952496 2.1595115e-38
0.68881088 -0.26729202 2.6900001 2.1595115e-38
0.63561773 -0.3659617 2.733 2.1595115e-38
0.66184449 -0.36785004 2.7346807 2.1595115e-38
0.6888895 -0.3652676 2.7330003 2.1595115e-38
0.63333076 -0.3448725 2.7408755 2.1595115e-38
0.66039956 -0.34029526 2.7443335 2.1595115e-38
0.68715429 -0.34965047 2.7330003 2.1595115e-38
0.6574738 -0.31206807 2.7453535 2.1595115e-38
0.63738763 -0.32795048 2.7770002 2.1595115e-38
0.64267719 -0.32266098 2.7770002 2.1595115e-38
0.65325624 -0.31208193 2.7770002 2.1595115e-38
-0.61380434 0.64665002 1.437 2.0871819e-38
-0.61200726 0.65596998 1.4621251 2.0871819e-38
-0.59937435 0.65805429 1.4670001 2.0871819e-38
-0.90425467 0.26272345 1.5190006 2.0871819e-38
-0.89680862 0.28225935 1.5183001 2.0871819e-38
-0.82901621 0.29295403 1.5103334 2.0871819e-38
-0.77830666 0.41229999 1.5190001 2.0871819e-38
-0.50544006 0.57312 1.5120001 2.0871819e-38
-0.65110612 0.632743 1.492149 2.0871819e-38
-0.62440813 0.63549244 1.5094742 2.0871819e-38
-0.68224192 0.66550863 1.506 2.0871819e-38
-0.65494061 0.65503532 1.496171 2.0871819e-38
-0.62337166 0.65636307 1.5117044 2.0871819e-38
-0.61176562 0.68451929 1.5166365 2.0871819e-38
-0.92527485 0.15321192 1.553 2.0871819e-38
-0.91633731 0.1523419 1.5530002 2.0871819e-38
-0.92425585 0.17348768 1.5478067 2.0871819e-38
-0.90414476 0.18444806 1.5485646 2.0871819e-38
-0.87576056 0.1940839 1.5530002 2.0871819e-38
-0.92108619 0.20125952 1.5425 2.0871819e-38
-0.89795047 0.21967568 1.5377175 2.0871819e-38
-0.87113202 0.22923379 1.548556 2.0871819e-38
-0.89466715 0.25920671 1.5276407 2.0871819e-38
-0.86173326 0.26155469 1.5416634 2.0871819e-38
-0.82619601 0.27431411 1.5530005 2.0871819e-38
-0.89088589 0.28277755 1.5259999 2.0871819e-38
-0.8535217 0.2890417 1.538278 2.0871819e-38
-0.81935501 0.30259565 1.5506516 2.0871819e-38
-0.78881198 0.31199911 1.5530006 2.0871819e-38
-0.81331849 0.33000433 1.5453337 2.0871819e-38
-0.78585726 0.34270108 1.5480169 2.0871819e-38
-0.77648681 0.37905785 1.5427001 2.0871819e-38
-0.74991524 0.38916051 1.5514199 2.0871819e-38
-0.77020496 0.41439706 1.5305992 2.0871819e-38
-0.74056834 0.42061186 1.5438511 2.0871819e-38
-0.71501392 0.43251577 1.5530001 2.0871819e-38
-0.73219597 0.45142245 1.5372345 2.0871819e-38
-0.70781785 0.46398133 1.5484819 2.0871819e-38
-0.6788829 0.47625333 1.5530001 2.0871819e-38
-0.69232035 0.49153307 1.5472499 2.0871819e-38
-0.66445559 0.50459802 1.5463692 2.0871819e-38
-0.65705431 0.52306938 1.5479094 2.0871819e-38
-0.61685318 0.53049695 1.5493157 2.0871819e-38
-0.57527357 0.57111073 1.5395832 2.0871819e-38
-0.50542861 0.57804763 1.5250001 2.0871819e-38
-0.60273814 0.6375953 1.5250001 2.0871819e-38
-0.59983331 0.6375953 1.5250001 2.0871819e-38
-0.60602969 0.66250747 1.5302835 2.0871819e-38
-0.58146268 0.66172045 1.5404197 2.0871819e-38
-0.5471018 0.66203076 1.5451965 2.0871819e-38
-0.60611027 0.6868642 1.5302498 2.0871819e-38
-0.5783025 0.68745071 1.5386117 2.0871819e-38
-0.54436505 0.68914664 1.5425785 2.0871819e-38
-0.95004874 0.027683871 1.5950972 2.0871819e-38
-0.93602484 0.060045846 1.5881311 2.0871819e-38
-0.91538477 0.066170737 1.5911707 2.0871819e-38
-0.93129444 0.098925091 1.5721474 2.0871819e-38
-0.90468186 0.10213936 1.586181 2.0871819e-38
-0.87728089 0.11444584 1.591625 2.0871819e-38
-0.93000442 0.13243604 1.5638894 2.0871819e-38
-0.89984202 0.14000714 1.5738971 2.0871819e-38
-0.8699199 0.14549693 1.5904455 2.0871819e-38
-0.89041078 0.17149207 1.5644039 2.0871819e-38
-0.86313498 0.18151686 1.5815334 2.0871819e-38
-0.82994336 0.19069861 1.5895337 2.0871819e-38
-0.8825143 0.21097143 1.5600001 2.0871819e-38
-0.85693747 0.21766388 1.569546 2.0871819e-38
-0.82322454 0.2220659 1.5833384 2.0871819e-38
-0.79313606 0.23803201 1.5960001 2.0871819e-38
-0.8466484 0.24715313 1.5635859 2.0871819e-38
-0.81911576 0.25906995 1.5712874 2.0871819e-38
-0.7866115 0.2630949 1.5869849 2.0871819e-38
-0.84893715 0.30635428 1.5600001 2.0871819e-38
-0.811674 0.28900585 1.5658089 2.0871819e-38
-0.77763754 0.29867816 1.5777174 2.0871819e-38
-0.7541815 0.3056823 1.5913531 2.0871819e-38
-0.82655239 0.33527622 1.5600002 2.0871819e-38
-0.76822972 0.33603609 1.5671929 2.0871819e-38
-0.74264508 0.34329286 1.5849934 2.0871819e-38
-0.71830404 0.35596001 1.5932001 2.0871819e-38
-0.76216424 0.3635537 1.5661252 2.0871819e-38
-0.73781061 0.37821284 1.5717276 2.0871819e-38
-0.70699739 0.38373622 1.5902671 2.0871819e-38
-0.67791998 0.39976001 1.5960001 2.0871819e-38
-0.72267061 0.40859655 1.5672417 2.0871819e-38
-0.69867116 0.41882294 1.5752484 2.0871819e-38
-0.66926515 0.42937347 1.5900104 2.0871819e-38
-0.69326079 0.45478532 1.5630665 2.0871819e-38
-0.66095507 0.4605605 1.5778842 2.0871819e-38
-0.63448775 0.467823 1.5907409 2.0871819e-38
-0.65295041 0.49509686 1.5666871 2.0871819e-38
-0.62277657 0.50266808 1.584393 2.0871819e-38
-0.65311491 0.53140962 1.5694215 2.0871819e-38
-0.61399978 0.52757466 1.5722547 2.0871819e-38
-0.57981551 0.54080927 1.5856297 2.0871819e-38
-0.55632007 0.55480003 1.5960001 2.0871819e-38
-0.56787902 0.5728851 1.5911112 2.0871819e-38
-0.53621805 0.5837298 1.5947063 2.0871819e-38
-0.57303882 0.60387266 1.5792501 2.0871819e-38
-0.52210003 0.62652004 1.5890001 2.0871819e-38
-0.50527436 0.61936009 1.5735148 2.0871819e-38
-0.60739911 0.64918572 1.567 2.0871819e-38
-0.57645714 0.64925718 1.5600002 2.0871819e-38
-0.5292418 0.66579401 1.5650123 2.0871819e-38
-0.50334638 0.66720575 1.5830548 2.0871819e-38
-0.47278267 0.67701113 1.5955336 2.0871819e-38
-0.52939659 0.69175792 1.5620519 2.0871819e-38
-0.49810755 0.69495875 1.5745966 2.0871819e-38
-0.46607956 0.70037979 1.5925022 2.0871819e-38
-0.96483815 -0.082478099 1.6340001 2.0871819e-38
-0.96945244 -0.060708072 1.6299073 2.0871819e-38
-0.9484567 -0.05400854 1.6306381 2.0871819e-38
-0.96442163 -0.022256045 1.6139059 2.0871819e-38
-0.94273698 -0.018019659 1.6224587 2.0871819e-38
-0.91534203 -0.016470565 1.6312728 2.0871819e-38
-0.96172142 0.0089971423 1.6065556 2.0871819e-38
-0.93756938 0.018769868 1.6119803 2.0871819e-38
-0.90758073 0.023056446 1.6233568 2.0871819e-38
-0.9287222 0.045630377 1.6029999 2.0871819e-38
-0.89956719 0.059106857 1.6151518 2.0871819e-38
-0.86678386 0.069570147 1.6296996 2.0871819e-38
-0.88842076 0.092743732 1.6084322 2.0871819e-38
-0.86067128 0.10017373 1.6200414 2.0871819e-38
-0.83579516 0.10890689 1.629449 2.0871819e-38
-0.85734642 0.13666008 1.6090418 2.0871819e-38
-0.82696265 0.14225756 1.6236669 2.0871819e-38
-0.8478725 0.16774251 1.6030004 2.0871819e-38
-0.81668991 0.17796269 1.6139466 2.0871819e-38
-0.79171044 0.1890396 1.6300474 2.0871819e-38
-0.8086744 0.21530455 1.604058 2.0871819e-38
-0.78117037 0.22045688 1.6195003 2.0871819e-38
-0.75350744 0.23311734 1.6340001 2.0871819e-38
-0.77047235 0.25576001 1.6093318 2.0871819e-38
-0.74562943 0.26485825 1.6260952 2.0871819e-38
-0.71412766 0.27118671 1.6340004 2.0871819e-38
-0.76333332 0.28243336 1.603 2.0871819e-38
-0.73695093 0.29827654 1.6136199 2.0871819e-38
-0.70486492 0.3043994 1.6305847 2.0871819e-38
-0.73198014 0.32915056 1.6042197 2.0871819e-38
-0.70022374 0.33887917 1.6155838 2.0871819e-38
-0.66919136 0.34813127 1.6288531 2.0871819e-38
-0.6931178 0.37540323 1.6043782 2.0871819e-38
-0.66245019 0.3811793 1.6197978 2.0871819e-38
-0.63519329 0.39025417 1.6334481 2.0871819e-38
-0.65584451 0.41602817 1.6084509 2.0871819e-38
-0.62620723 0.42346165 1.6271008 2.0871819e-38
-0.59913337 0.43106475 1.6340001 2.0871819e-38
-0.64425337 0.44273335 1.603 2.0871819e-38
-0.61826289 0.45787477 1.6165448 2.0871819e-38
-0.58423883 0.46933523 1.6289482 2.0871819e-38
-0.6089167 0.49095181 1.6071492 2.0871819e-38
-0.58121747 0.49960575 1.6158985 2.0871819e-38
-0.55267078 0.50539029 1.6257864 2.0871819e-38
-0.69193196 0.55200195 1.6145 2.0871819e-38
-0.57513463 0.53030407 1.6069474 2.0871819e-38
-0.54049844 0.54133064 1.6215013 2.0871819e-38
-0.51389152 0.55005658 1.6315552 2.0871819e-38
-0.57071543 0.57842648 1.6190587 2.0871819e-38
-0.53858316 0.57456803 1.6110133 2.0871819e-38
-0.50720298 0.58243287 1.6255505 2.0871819e-38
-0.53761142 0.60245335 1.622 2.0871819e-38
-0.49620232 0.61798984 1.624988 2.0871819e-38
-0.46832827 0.63418853 1.6272445 2.0871819e-38
-0.48619521 0.65467596 1.6183748 2.0871819e-38
-0.45929834 0.66142887 1.619472 2.0871819e-38
-0.43387794 0.66947544 1.6266087 2.0871819e-38
-0.44842082 0.69948834 1.6092283 2.0871819e-38
-0.42324066 0.70276934 1.6195077 2.0871819e-38
-0.41143447 0.72340542 1.6186959 2.0871819e-38
-0.39825082 0.72814101 1.6313336 2.0871819e-38
-1.0025719 -0.18405686 1.6701767 2.0871819e-38
-0.98635411 -0.17354335 1.6705198 2.0871819e-38
-1.0038 -0.15296002 1.6730002 2.0871819e-38
-0.97738183 -0.13933307 1.6615936 2.0871819e-38
-0.95428669 -0.12888101 1.6665486 2.0871819e-38
-0.97526687 -0.10173602 1.6472303 2.0871819e-38
-0.94398433 -0.09721382 1.6622479 2.0871819e-38
-0.91680402 -0.085084014 1.6730002 2.0871819e-38
-0.97110265 -0.074022599 1.6410002 2.0871819e-38
-0.93486136 -0.062693596 1.6514335 2.0871819e-38
-0.90573221 -0.057082355 1.6661624 2.0871819e-38
-0.87282813 -0.046206664 1.6730002 2.0871819e-38
-0.93485415 -0.031667776 1.6422969 2.0871819e-38
-0.89877385 -0.020575615 1.6557944 2.0871819e-38
-0.86917955 -0.019908935 1.6678497 2.0871819e-38
-0.89111555 0.017444272 1.6462045 2.0871819e-38
-0.86049926 0.020397725 1.661801 2.0871819e-38
-0.83470142 0.029542113 1.6718892 2.0871819e-38
-0.88622844 0.04606 1.6416155 2.0871819e-38
-0.85442382 0.05500073 1.6461743 2.0871819e-38
-0.82556099 0.062734954 1.6661353 2.0871819e-38
-0.85566431 0.086738572 1.641 2.0871819e-38
-0.81802952 0.098334163 1.6554863 2.0871819e-38
-0.79097158 0.10698295 1.6718378 2.0871819e-38
-0.80923307 0.13294651 1.6468018 2.0871819e-38
-0.78184158 0.14344235 1.6608385 2.0871819e-38
-0.75165504 0.1511675 1.6730002 2.0871819e-38
-0.80362111 0.16347486 1.641 2.0871819e-38
-0.77639514 0.17701167 1.6514796 2.0871819e-38
-0.74219775 0.18147932 1.6664677 2.0871819e-38
-0.71567249 0.19674705 1.6714003 2.0871819e-38
-0.76459235 0.21274275 1.6444286 2.0871819e-38
-0.73920369 0.21936481 1.6517196 2.0871819e-38
-0.70689577 0.22260007 1.6677091 2.0871819e-38
-0.73463136 0.25307906 1.6427889 2.0871819e-38
-0.69901884 0.25975701 1.6584551 2.0871819e-38
-0.67100203 0.27329674 1.6694448 2.0871819e-38
-0.72777051 0.28652382 1.641 2.0871819e-38
-0.68869513 0.29572529 1.6474519 2.0871819e-38
-0.66302055 0.30064055 1.6640786 2.0871819e-38
-0.63574004 0.31707337 1.6730001 2.0871819e-38
-0.68204731 0.32142699 1.6463335 2.0871819e-38
-0.65534216 0.33538383 1.6522305 2.0871819e-38
-0.62680906 0.34649903 1.668149 2.0871819e-38
-0.59750003 0.3585 1.6730001 2.0871819e-38
-0.64789057 0.36476532 1.6414448 2.0871819e-38
-0.62040675 0.37926659 1.6572933 2.0871819e-38
-0.58696872 0.38570899 1.6650735 2.0871819e-38
-0.61017615 0.41301399 1.6478999 2.0871819e-38
-0.58020478 0.42112848 1.6568706 2.0871819e-38
-0.5496586 0.43450034 1.6699234 2.0871819e-38
-0.6016655 0.44733399 1.6423333 2.0871819e-38
-0.57499593 0.45398113 1.6468803 2.0871819e-38
-0.54102719 0.46199831 1.6603305 2.0871819e-38
-0.51737809 0.47048858 1.6730002 2.0871819e-38
-0.53616452 0.49780822 1.6511952 2.0871819e-38
-0.50782353 0.51005256 1.6641423 2.0871819e-38
-0.52919877 0.52629417 1.6432855 2.0871819e-38
-0.49845672 0.53778762 1.6540347 2.0871819e-38
-0.46697202 0.5478977 1.667454 2.0871819e-38
-0.58157736 0.59065568 1.6442 2.0871819e-38
-0.49067521 0.57565403 1.6476543 2.0871819e-38
-0.45914346 0.57929969 1.6563863 2.0871819e-38
-0.43282586 0.58786362 1.668924 2.0871819e-38
-0.48457193 0.60584629 1.6418889 2.0871819e-38
-0.46011594 0.61874366 1.6476296 2.0871819e-38
-0.42385995 0.6233508 1.6619786 2.0871819e-38
-0.39992669 0.63733339 1.6730001 2.0871819e-38
-0.45435619 0.64232951 1.645 2.0871819e-38
-0.4166683 0.65843987 1.6475377 2.0871819e-38
-0.38825572 0.66639489 1.6684489 2.0871819e-38
-0.3585 0.67557335 1.6730001 2.0871819e-38
-0.40984938 0.69518685 1.64222 2.0871819e-38
-0.37939492 0.69716114 1.6532081 2.0871819e-38
-0.34840384 0.70720583 1.6715077 2.0871819e-38
-0.3170734 0.71540678 1.6730001 2.0871819e-38
-0.40269619 0.72151911 1.6410002 2.0871819e-38
-0.37862408 0.72950876 1.6490834 2.0871819e-38
-0.34076846 0.73382038 1.6661773 2.0871819e-38
-0.31004107 0.74019343 1.6709573 2.0871819e-38
-1.0265501 -0.32841673 1.7150002 2.0871819e-38
-1.0139209 -0.29920924 1.7083287 2.0871819e-38
-0.98979998 -0.28542498 1.715 2.0871819e-38
-1.008665 -0.26241142 1.6978588 2.0871819e-38
-0.98616135 -0.25821307 1.7107117 2.0871819e-38
-1.0069588 -0.22172627 1.6856554 2.0871819e-38
-0.98059082 -0.21941273 1.6977211 2.0871819e-38
-0.94428754 -0.21264735 1.7147059 2.0871819e-38
-0.91085553 -0.20743334 1.715 2.0871819e-38
-1.0005953 -0.19691716 1.6810001 2.0871819e-38
-0.97121668 -0.1843078 1.6847925 2.0871819e-38
-0.94050062 -0.179153 1.7030867 2.0871819e-38
-0.9082045 -0.17277826 1.715 2.0871819e-38
-0.96377343 -0.15241066 1.681 2.0871819e-38
-0.93820161 -0.14022286 1.6923008 2.0871819e-38
-0.90338451 -0.13914639 1.709318 2.0871819e-38
-0.87056667 -0.1225 1.715 2.0871819e-38
-0.92763484 -0.10841329 1.684872 2.0871819e-38
-0.90034682 -0.099975429 1.695282 2.0871819e-38
-0.86899084 -0.09701708 1.7088993 2.0871819e-38
-0.89271307 -0.064811632 1.6825851 2.0871819e-38
-0.86017722 -0.059329964 1.6983111 2.0871819e-38
-0.83658659 -0.048129145 1.7070001 2.0871819e-38
-0.89012957 -0.036821906 1.6810001 2.0871819e-38
-0.8533935 -0.020235 1.6904048 2.0871819e-38
-0.826814 -0.014851154 1.7060816 2.0871819e-38
-0.79674 -0.0035933331 1.715 2.0871819e-38
-0.84090024 0.013608095 1.681 2.0871819e-38
-0.81924999 0.018516846 1.6976149 2.0871819e-38
-0.79425657 0.019555563 1.7119211 2.0871819e-38
-0.80776113 0.054775827 1.690383 2.0871819e-38
-0.78275758 0.061595373 1.7056662 2.0871819e-38
-0.75369471 0.065037988 1.7138751 2.0871819e-38
-0.80527908 0.081648573 1.6810001 2.0871819e-38
-0.77578801 0.097646967 1.6930569 2.0871819e-38
-0.74320644 0.10380501 1.7037129 2.0871819e-38
-0.71703333 0.11923333 1.715 2.0871819e-38
-0.77041471 0.12832916 1.6835625 2.0871819e-38
-0.73886544 0.13904111 1.693306 2.0871819e-38
-0.71182084 0.14415365 1.7063134 2.0871819e-38
-0.72908205 0.17024867 1.684512 2.0871819e-38
-0.70086259 0.18071145 1.6995982 2.0871819e-38
-0.66850513 0.19003852 1.7147802 2.0871819e-38
-0.69006574 0.21654686 1.6900935 2.0871819e-38
-0.66533297 0.221936 1.702773 2.0871819e-38
-0.62229997 0.23222159 1.715 2.0871819e-38
-0.68040478 0.25134954 1.6810001 2.0871819e-38
-0.65863144 0.2587457 1.6914103 2.0871819e-38
-0.62262619 0.26268411 1.7077782 2.0871819e-38
-0.59616661 0.27393335 1.7150002 2.0871819e-38
-0.64637995 0.29530278 1.6848695 2.0871819e-38
-0.62087917 0.30009004 1.6942022 2.0871819e-38
-0.58637851 0.3030597 1.7093388 2.0871819e-38
-0.55152225 0.31741112 1.715 2.0871819e-38
-0.61336082 0.33298516 1.6854901 2.0871819e-38
-0.57825494 0.34008053 1.6976001 2.0871819e-38
-0.5475058 0.34268308 1.7147704 2.0871819e-38
-0.57274479 0.37561259 1.6857935 2.0871819e-38
-0.54276389 0.38210699 1.7061696 2.0871819e-38
-0.51110774 0.38936147 1.715 2.0871819e-38
-0.56342864 0.41229865 1.681 2.0871819e-38
-0.53829837 0.41651836 1.6884373 2.0871819e-38
-0.50695294 0.4236984 1.7053626 2.0871819e-38
-0.4685753 0.43148375 1.7143078 2.0871819e-38
-0.52517563 0.45031768 1.6827095 2.0871819e-38
-0.49945009 0.45957118 1.6947728 2.0871819e-38
-0.46291783 0.46303719 1.7091831 2.0871819e-38
-0.43936667 0.47203332 1.715 2.0871819e-38
-0.52030951 0.49149239 1.6810001 2.0871819e-38
-0.49635553 0.49617895 1.6851586 2.0871819e-38
-0.45875785 0.50037289 1.6966765 2.0871819e-38
-0.42816427 0.50292951 1.7124487 2.0871819e-38
-0.48295403 0.52244413 1.6810001 2.0871819e-38
-0.4558475 0.5352785 1.6834366 2.0871819e-38
-0.42223254 0.54115957 1.7057718 2.0871819e-38
-0.39119375 0.55278885 1.7138752 2.0871819e-38
-0.44266337 0.56273484 1.6810001 2.0871819e-38
-0.41641495 0.57626599 1.6892871 2.0871819e-38
-0.38550574 0.58243513 1.709615 2.0871819e-38
-0.34997883 0.58874243 1.715 2.0871819e-38
-0.75876385 0.63853145 1.7060001 2.0871819e-38
-0.40653232 0.61265767 1.6834998 2.0871819e-38
-0.37987798 0.62194616 1.6968286 2.0871819e-38
-0.34332618 0.62754613 1.7112194 2.0871819e-38
-0.31422898 0.63398212 1.7060002 2.0871819e-38
-0.7709865 0.65787399 1.7017149 2.0871819e-38
