# .PCD v0.7 - Point Cloud Data file format
VERSION 0.7
FIELDS x y z rgb
SIZE 4 4 4 4
TYPE F F F F
COUNT 1 1 1 1
WIDTH 1018
HEIGHT 1
VIEWPOINT 0 0 0 1 0 0 0
POINTS 1018
DATA ascii
0.97237629 -0.1796824 2.2613328 5.3926869e-40
-0.047718901 -0.14345302 2.256242 5.3926869e-40
-0.02188601 -0.13940206 2.2658007 5.3926869e-40
0.015969906 -0.12301143 2.266 5.3926869e-40
0.9887352 -0.15656763 2.2520001 5.3926869e-40
-0.040750477 -0.11581714 2.2520001 5.3926869e-40
-0.014810376 -0.10970523 2.256052 5.3926869e-40
0.018515689 -0.10012916 2.2634728 5.3926869e-40
0.048892021 -0.094137616 2.2659996 5.3926869e-40
0.027784809 -0.066413678 2.2531047 5.3926869e-40
0.056811363 -0.058300089 2.2625437 5.3926869e-40
0.087402865 -0.042082857 2.266 5.3926869e-40
0.071467176 -0.02367454 2.2588103 5.3926869e-40
0.099442132 -0.017511014 2.2656004 5.3926869e-40
0.12301143 -0.0064742859 2.2660003 5.3926869e-40
0.079356194 0.0021447621 2.2520001 5.3926869e-40
0.10579592 0.016410258 2.2586308 5.3926869e-40
0.12933156 0.023739049 2.2659998 5.3926869e-40
0.11331493 0.046112385 2.2520003 5.3926869e-40
0.14032662 0.060562152 2.2621021 5.3926869e-40
0.1647346 0.074094608 2.266 5.3926869e-40
0.21024211 0.076248579 2.2618003 5.3926869e-40
0.14757068 0.095887281 2.2555892 5.3926869e-40
0.17712039 0.10494757 2.2653224 5.3926869e-40
0.20555532 0.090451144 2.257385 5.3926869e-40
0.15513781 0.12368127 2.2520003 5.3926869e-40
0.18076062 0.13163485 2.2564673 5.3926869e-40
0.20146525 0.13253285 2.2625 5.3926869e-40
-0.41102946 -0.73508865 2.2809992 5.3926869e-40
-0.38107511 -0.73317033 2.2932582 5.3926869e-40
-0.33604515 -0.72419018 2.2986085 5.3926869e-40
-0.29923987 -0.7238825 2.297868 5.3926869e-40
-0.266938 -0.72361749 2.2981906 5.3926869e-40
-0.21506572 -0.72394603 2.2810001 5.3926869e-40
-0.17781661 -0.72564524 2.2826004 5.3926869e-40
-0.15303463 -0.72452378 2.2845559 5.3926869e-40
-0.061137006 -0.72402364 2.2810001 5.3926869e-40
-0.030413335 -0.72340292 2.2810001 5.3926869e-40
-0.40362841 -0.71384442 2.2810001 5.3926869e-40
-0.3807703 -0.70023888 2.2853827 5.3926869e-40
-0.34336513 -0.69985765 2.3040199 5.3926869e-40
-0.30274832 -0.71052974 2.3103335 5.3926869e-40
-0.25893036 -0.71274036 2.3047264 5.3926869e-40
-0.2189889 -0.7088356 2.2966661 5.3926869e-40
-0.17933606 -0.71211529 2.3000834 5.3926869e-40
-0.1372942 -0.70455456 2.3016205 5.3926869e-40
-0.10097148 -0.70665425 2.300998 5.3926869e-40
-0.058394916 -0.71162802 2.2977533 5.3926869e-40
-0.019707346 -0.71128619 2.2981422 5.3926869e-40
0.018522309 -0.7066614 2.2977905 5.3926869e-40
0.060115322 -0.69931561 2.2958508 5.3926869e-40
0.098581746 -0.69306237 2.2979858 5.3926869e-40
0.14080097 -0.69036496 2.2954075 5.3926869e-40
0.18030074 -0.68691951 2.2926757 5.3926869e-40
0.2183059 -0.68679172 2.2872431 5.3926869e-40
0.25460339 -0.68442881 2.286773 5.3926869e-40
0.28458193 -0.68538618 2.2810001 5.3926869e-40
0.33889145 -0.68430001 2.2810001 5.3926869e-40
0.38668382 -0.68430001 2.2810001 5.3926869e-40
0.46923429 -0.68430001 2.2810001 5.3926869e-40
-0.37670884 -0.6707198 2.2822621 5.3926869e-40
-0.33981374 -0.65901351 2.2948892 5.3926869e-40
-0.30889741 -0.65627271 2.3110204 5.3926869e-40
0.085874282 -0.67598474 2.312 5.3926869e-40
0.13899523 -0.67295706 2.312 5.3926869e-40
0.188549 -0.67346895 2.3098574 5.3926869e-40
0.2183115 -0.67336595 2.3039718 5.3926869e-40
0.26389843 -0.67380333 2.2966335 5.3926869e-40
0.29823771 -0.67028481 2.2918165 5.3926869e-40
0.34133554 -0.67181426 2.2929807 5.3926869e-40
0.38020998 -0.67068052 2.2956922 5.3926869e-40
0.41715541 -0.66361237 2.2944179 5.3926869e-40
0.46217078 -0.6646297 2.2947421 5.3926869e-40
0.4980529 -0.65880996 2.2897875 5.3926869e-40
0.54004258 -0.65810585 2.2949686 5.3926869e-40
0.58087683 -0.65662557 2.2942293 5.3926869e-40
0.6201449 -0.65853161 2.2961192 5.3926869e-40
0.657727 -0.65529871 2.2926347 5.3926869e-40
0.70130461 -0.65316951 2.2919748 5.3926869e-40
0.73937291 -0.65382522 2.2838206 5.3926869e-40
0.78303558 -0.65063202 2.2895653 5.3926869e-40
0.82018477 -0.64648992 2.290482 5.3926869e-40
0.85501951 -0.64659417 2.2849541 5.3926869e-40
0.89679843 -0.64322233 2.2810001 5.3926869e-40
0.93076646 -0.64677709 2.2810001 5.3926869e-40
-0.33319107 -0.62071252 2.2854245 5.3926869e-40
-0.30411825 -0.61854631 2.304682 5.3926869e-40
-0.26134372 -0.60534525 2.3113184 5.3926869e-40
0.71565109 -0.63520557 2.2952003 5.3926869e-40
0.73006886 -0.63455027 2.2982731 5.3926869e-40
0.79185277 -0.63479155 2.3063753 5.3926869e-40
0.81959236 -0.63443923 2.3110626 5.3926869e-40
0.86411494 -0.63424683 2.3024585 5.3926869e-40
0.90047956 -0.63169396 2.2924626 5.3926869e-40
0.9431228 -0.62619388 2.2963736 5.3926869e-40
0.9777022 -0.61444283 2.2948818 5.3926869e-40
1.0201256 -0.60896915 2.2942231 5.3926869e-40
1.0424471 -0.60600722 2.2862225 5.3926869e-40
-0.29538441 -0.58527106 2.281743 5.3926869e-40
-0.25760537 -0.57937551 2.3041327 5.3926869e-40
-0.2296457 -0.5689981 2.312 5.3926869e-40
1.0333375 -0.57884353 2.3082497 5.3926869e-40
1.0474621 -0.58098656 2.2939403 5.3926869e-40
-0.2845819 -0.55830193 2.2810001 5.3926869e-40
-0.259197 -0.54387432 2.2864189 5.3926869e-40
-0.22067936 -0.53566563 2.3058245 5.3926869e-40
-0.19352299 -0.52821255 2.312 5.3926869e-40
1.033455 -0.54104173 2.3008528 5.3926869e-40
1.0436544 -0.54490656 2.2855239 5.3926869e-40
-0.24113429 -0.4974753 2.2810001 5.3926869e-40
-0.21763606 -0.50279236 2.2894645 5.3926869e-40
-0.18195668 -0.49829134 2.307807 5.3926869e-40
1.0296229 -0.49701014 2.2949064 5.3926869e-40
1.0481739 -0.51268196 2.2810001 5.3926869e-40
-0.20947033 -0.45949838 2.2821031 5.3926869e-40
-0.1807626 -0.46108979 2.297365 5.3926869e-40
-0.14879827 -0.44999522 2.3091431 5.3926869e-40
0.99746293 -0.44258285 2.312 5.3926869e-40
1.0172217 -0.45988017 2.2873497 5.3926869e-40
1.0405706 -0.47140667 2.2810001 5.3926869e-40
-0.20637619 -0.43664858 2.2810001 5.3926869e-40
-0.17361435 -0.42619771 2.2809992 5.3926869e-40
-0.14188156 -0.41909164 2.3033471 5.3926869e-40
-0.10904216 -0.41290501 2.312 5.3926869e-40
0.99718332 -0.41208884 2.3039336 5.3926869e-40
1.0102576 -0.42051491 2.2891786 5.3926869e-40
-0.16292858 -0.39320096 2.2810001 5.3926869e-40
-0.1361665 -0.38107142 2.2879524 5.3926869e-40
-0.10121428 -0.37808034 2.3058825 5.3926869e-40
-0.075305142 -0.36683735 2.312 5.3926869e-40
0.99046433 -0.37811553 2.2967038 5.3926869e-40
1.0113342 -0.37953302 2.2809989 5.3926869e-40
-0.13014539 -0.34896344 2.2809997 5.3926869e-40
-0.10009552 -0.34088153 2.2962582 5.3926869e-40
-0.074517079 -0.34152707 2.312 5.3926869e-40
0.98918575 -0.34087458 2.2927277 5.3926869e-40
1.0034426 -0.33908892 2.2810001 5.3926869e-40
-0.090116665 -0.30663258 2.2874372 5.3926869e-40
-0.063622944 -0.29733336 2.3045309 5.3926869e-40
0.98045379 -0.2990534 2.2898657 5.3926869e-40
1.0029159 -0.31789178 2.2810001 5.3926869e-40
-0.054725148 -0.26081243 2.2966652 5.3926869e-40
-0.032088671 -0.25243872 2.3112106 5.3926869e-40
0.95319289 -0.25298727 2.312 5.3926869e-40
0.97320557 -0.25849709 2.2913647 5.3926869e-40
-0.051805653 -0.22359906 2.2813544 5.3926869e-40
-0.020283187 -0.21863507 2.2918072 5.3926869e-40
0.01253281 -0.20812812 2.3051503 5.3926869e-40
0.95272917 -0.21665676 2.3006387 5.3926869e-40
0.97042483 -0.22795956 2.2849491 5.3926869e-40
-0.04127524 -0.19334193 2.2810001 5.3926869e-40
-0.015930803 -0.18529607 2.2809987 5.3926869e-40
0.018223125 -0.17996269 2.2989151 5.3926869e-40
0.046533596 -0.17130819 2.312 5.3926869e-40
0.91819429 -0.16073905 2.312 5.3926869e-40
0.94950283 -0.17824352 2.2983465 5.3926869e-40
0.96432769 -0.17062911 2.2838185 5.3926869e-40
-0.0037522945 -0.14673448 2.2810001 5.3926869e-40
0.01979875 -0.14250715 2.2833161 5.3926869e-40
0.057589695 -0.13757965 2.3020415 5.3926869e-40
0.083121903 -0.12826096 2.312 5.3926869e-40
0.94382042 -0.15568915 2.3090003 5.3926869e-40
0.96411312 -0.15885597 2.30075 5.3926869e-40
0.029870238 -0.1151362 2.2810001 5.3926869e-40
0.064335883 -0.10312696 2.2839375 5.3926869e-40
0.094514363 -0.097415395 2.3056595 5.3926869e-40
0.074102342 -0.067826569 2.2810001 5.3926869e-40
0.099426843 -0.060323376 2.2901213 5.3926869e-40
0.13172489 -0.048100136 2.3105717 5.3926869e-40
0.11426724 -0.031282287 2.2810001 5.3926869e-40
0.14026047 -0.019551447 2.2916138 5.3926869e-40
0.16596855 -0.012660952 2.312 5.3926869e-40
0.14715046 0.017265292 2.2828102 5.3926869e-40
0.17670092 0.021709342 2.3055165 5.3926869e-40
0.20184128 0.035964444 2.312 5.3926869e-40
0.15771487 0.046488952 2.2810001 5.3926869e-40
0.18150152 0.058285635 2.2888751 5.3926869e-40
0.21253435 0.059316389 2.3032281 5.3926869e-40
0.18691167 0.087329693 2.2809994 5.3926869e-40
-0.32688808 -0.70087034 2.3269999 5.3926869e-40
-0.29966399 -0.69570124 2.3277063 5.3926869e-40
-0.25913802 -0.69362372 2.3392599 5.3926869e-40
-0.21896495 -0.69146991 2.3407552 5.3926869e-40
-0.18185626 -0.69535601 2.3430007 5.3926869e-40
-0.14412211 -0.68648934 2.3406179 5.3926869e-40
-0.097612828 -0.68772686 2.3398008 5.3926869e-40
-0.060243733 -0.69337386 2.3375077 5.3926869e-40
-0.020102119 -0.69174159 2.3365006 5.3926869e-40
0.019872369 -0.68846315 2.3299401 5.3926869e-40
0.057150848 -0.68748915 2.3270006 5.3926869e-40
0.10139073 -0.68037045 2.3269999 5.3926869e-40
0.13962001 -0.68037051 2.3270001 5.3926869e-40
0.1639981 -0.68037051 2.3270001 5.3926869e-40
-0.28907081 -0.65934491 2.3270009 5.3926869e-40
-0.26000479 -0.65785611 2.3447535 5.3926869e-40
-0.22181249 -0.65801513 2.3574009 5.3926869e-40
-0.19995335 -0.67624676 2.3590002 5.3926869e-40
-0.14154002 -0.67624676 2.3590002 5.3926869e-40
-0.092042863 -0.67454624 2.3570004 5.3926869e-40
-0.076208897 -0.67172229 2.353667 5.3926869e-40
-0.01383688 -0.67172033 2.3545864 5.3926869e-40
0.022082599 -0.66559768 2.3462551 5.3926869e-40
0.059704836 -0.66368139 2.3425794 5.3926869e-40
0.099322699 -0.66619599 2.3393874 5.3926869e-40
0.13927281 -0.66471761 2.336668 5.3926869e-40
0.17940757 -0.66485697 2.3376677 5.3926869e-40
0.22227113 -0.66207266 2.3408051 5.3926869e-40
0.25969413 -0.65820736 2.3400364 5.3926869e-40
0.2999917 -0.65209794 2.3376667 5.3926869e-40
0.3397719 -0.65352738 2.336864 5.3926869e-40
0.37973446 -0.65109283 2.3308105 5.3926869e-40
0.42003989 -0.64716488 2.3302014 5.3926869e-40
0.45662963 -0.648 2.3311613 5.3926869e-40
0.50228375 -0.64549714 2.3321896 5.3926869e-40
0.53836381 -0.64474088 2.3269999 5.3926869e-40
0.57745743 -0.64582443 2.328655 5.3926869e-40
0.62272108 -0.64186645 2.3303683 5.3926869e-40
0.65585691 -0.64255804 2.3288825 5.3926869e-40
0.69288546 -0.64360785 2.3269999 5.3926869e-40
0.7523967 -0.6415872 2.3270001 5.3926869e-40
0.77241975 -0.64615017 2.3276398 5.3926869e-40
0.87096286 -0.64047909 2.3270001 5.3926869e-40
0.89534104 -0.64047909 2.3270001 5.3926869e-40
-0.28759336 -0.62922764 2.3269999 5.3926869e-40
-0.25958472 -0.62459075 2.3280015 5.3926869e-40
-0.22129101 -0.61737072 2.3353591 5.3926869e-40
-0.19095261 -0.61071831 2.354131 5.3926869e-40
0.30448017 -0.6352185 2.3532863 5.3926869e-40
0.34169918 -0.63386762 2.3530743 5.3926869e-40
0.38045716 -0.63308346 2.3483331 5.3926869e-40
0.41701773 -0.63220972 2.3481767 5.3926869e-40
0.46485671 -0.63165307 2.3494871 5.3926869e-40
0.50099945 -0.62940454 2.3470006 5.3926869e-40
0.54129285 -0.62496078 2.3427582 5.3926869e-40
0.57871372 -0.62597251 2.3439698 5.3926869e-40
0.61734116 -0.62810481 2.3446674 5.3926869e-40
0.66117752 -0.62520856 2.3413293 5.3926869e-40
0.69849122 -0.62217432 2.3439763 5.3926869e-40
0.73800242 -0.62682647 2.3430014 5.3926869e-40
0.78003252 -0.62184179 2.3433814 5.3926869e-40
0.81857336 -0.620336 2.3358204 5.3926869e-40
0.86205822 -0.62092298 2.3406222 5.3926869e-40
0.90305209 -0.61784923 2.3404057 5.3926869e-40
0.93959832 -0.61152446 2.335243 5.3926869e-40
0.9807651 -0.60461718 2.3269999 5.3926869e-40
1.0180368 -0.6027801 2.3281429 5.3926869e-40
-0.21547917 -0.58089632 2.3270009 5.3926869e-40
-0.18071942 -0.5796442 2.3459876 5.3926869e-40
-0.15502 -0.57290006 2.3590007 5.3926869e-40
0.67624676 -0.59986001 2.3590002 5.3926869e-40
0.78633338 -0.59986001 2.3590002 5.3926869e-40
0.86272007 -0.59986001 2.3590002 5.3926869e-40
0.91214669 -0.59986001 2.3590002 5.3926869e-40
0.9369179 -0.5916847 2.3493032 5.3926869e-40
0.98194122 -0.59294873 2.3434575 5.3926869e-40
1.0172592 -0.57997441 2.3401871 5.3926869e-40
1.0438257 -0.58285815 2.3270001 5.3926869e-40
-0.2105381 -0.55360442 2.3269999 5.3926869e-40
-0.17757599 -0.54104799 2.3323345 5.3926869e-40
-0.14513978 -0.53880024 2.3519239 5.3926869e-40
1.0175859 -0.53843051 2.3358469 5.3926869e-40
1.0438257 -0.5274533 2.3270001 5.3926869e-40
-0.16355486 -0.50529146 2.3269999 5.3926869e-40
-0.14081246 -0.50123477 2.3411772 5.3926869e-40
-0.10617519 -0.49594057 2.3586454 5.3926869e-40
0.9965111 -0.49708581 2.3486779 5.3926869e-40
1.0138614 -0.50287968 2.3313646 5.3926869e-40
1.0438257 -0.51415622 2.3270001 5.3926869e-40
-0.13542721 -0.46315765 2.3284559 5.3926869e-40
-0.10055126 -0.4592661 2.3368635 5.3926869e-40
-0.075896084 -0.45896536 2.3561771 5.3926869e-40
0.99410766 -0.45938435 2.3502007 5.3926869e-40
1.0099937 -0.46039575 2.3335316 5.3926869e-40
-0.12632287 -0.43215716 2.3270001 5.3926869e-40
-0.094670869 -0.42246747 2.3278904 5.3926869e-40
-0.068871185 -0.41545865 2.3525004 5.3926869e-40
0.98568076 -0.41907546 2.3385792 5.3926869e-40
1.0086344 -0.43248394 2.3287778 5.3926869e-40
-0.084769294 -0.39115766 2.3269999 5.3926869e-40
-0.059292667 -0.38092598 2.3439705 5.3926869e-40
-0.032030929 -0.37246126 2.3581586 5.3926869e-40
0.97772419 -0.38144735 2.3418064 5.3926869e-40
-0.055210449 -0.33909151 2.3280332 5.3926869e-40
-0.020514905 -0.3403036 2.3468924 5.3926869e-40
0.0058413334 -0.33026004 2.3590004 5.3926869e-40
0.95165175 -0.33259574 2.3551605 5.3926869e-40
0.97663653 -0.33950812 2.3401287 5.3926869e-40
-0.050233655 -0.30675769 2.3269999 5.3926869e-40
-0.019995196 -0.30039024 2.3362842 5.3926869e-40
0.016974637 -0.29819685 2.3518012 5.3926869e-40
0.045682222 -0.28382891 2.3590002 5.3926869e-40
0.94943756 -0.29912627 2.3455815 5.3926869e-40
0.97248894 -0.30708778 2.3344426 5.3926869e-40
-0.015516901 -0.26163697 2.328068 5.3926869e-40
0.019663697 -0.25998735 2.3371272 5.3926869e-40
0.052435983 -0.25751308 2.3531468 5.3926869e-40
0.94000733 -0.25924921 2.3400376 5.3926869e-40
0.96625918 -0.27259144 2.3270001 5.3926869e-40
-0.0022161906 -0.23713239 2.3270001 5.3926869e-40
0.023332754 -0.22425096 2.3303697 5.3926869e-40
0.058940694 -0.21922043 2.3401904 5.3926869e-40
0.09146452 -0.21121833 2.3524549 5.3926869e-40
0.91888678 -0.21493113 2.3590002 5.3926869e-40
0.93457836 -0.22059384 2.3383737 5.3926869e-40
0.036567144 -0.19391668 2.3270001 5.3926869e-40
0.063447766 -0.18193471 2.3295007 5.3926869e-40
0.098365903 -0.17908928 2.3452864 5.3926869e-40
0.13294928 -0.17118597 2.3555226 5.3926869e-40
0.90996802 -0.17569843 2.3451703 5.3926869e-40
0.93357337 -0.18380474 2.3295112 5.3926869e-40
0.072247826 -0.15336037 2.3269999 5.3926869e-40
0.10177869 -0.14115931 2.3331375 5.3926869e-40
0.13808416 -0.13924086 2.3470008 5.3926869e-40
0.16400668 -0.12806001 2.3590002 5.3926869e-40
0.87769914 -0.15673333 2.3510003 5.3926869e-40
0.89233065 -0.156922 2.3386366 5.3926869e-40
0.11395886 -0.10439424 2.3269999 5.3926869e-40
0.14025716 -0.10017689 2.337075 5.3926869e-40
0.17537424 -0.097682431 2.3513086 5.3926869e-40
0.20444669 -0.083126672 2.3590002 5.3926869e-40
0.14209336 -0.063844047 2.3275347 5.3926869e-40
0.18082775 -0.060291819 2.343791 5.3926869e-40
0.21007219 -0.054468863 2.3522308 5.3926869e-40
0.15513334 -0.037675239 2.3270001 5.3926869e-40
0.18353389 -0.022313885 2.3305566 5.3926869e-40
0.21923649 -0.01875413 2.3454452 5.3926869e-40
0.24982724 -0.010516643 2.3564742 5.3926869e-40
0.19363968 0.013020118 2.3269999 5.3926869e-40
0.22090198 0.019382758 2.336026 5.3926869e-40
0.25255233 0.0163936 2.3407683 5.3926869e-40
0.22290215 0.045606878 2.3269999 5.3926869e-40
0.24304223 0.043585084 2.3270001 5.3926869e-40
-0.24923757 -0.6843527 2.3760004 5.3926869e-40
-0.22452572 -0.68413717 2.3760002 5.3926869e-40
-0.18002287 -0.68363428 2.3759999 5.3926869e-40
-0.12445715 -0.68338287 2.3760002 5.3926869e-40
-0.10958696 -0.68370616 2.3760004 5.3926869e-40
-0.0568786 -0.68351001 2.3793685 5.3926869e-40
-0.037401907 -0.68225908 2.3800004 5.3926869e-40
-0.24212573 -0.67659438 2.3760002 5.3926869e-40
-0.20827337 -0.66102582 2.3759997 5.3926869e-40
-0.17896497 -0.65982372 2.381855 5.3926869e-40
-0.14102888 -0.66004866 2.3879485 5.3926869e-40
-0.10150243 -0.66375864 2.3837419 5.3926869e-40
-0.062093638 -0.66353327 2.3891137 5.3926869e-40
-0.022238025 -0.66116685 2.3884435 5.3926869e-40
0.015909724 -0.65536171 2.3881207 5.3926869e-40
0.063892752 -0.65138358 2.3895378 5.3926869e-40
0.10107733 -0.65405178 2.390399 5.3926869e-40
0.14033376 -0.65298599 2.3877726 5.3926869e-40
0.17868844 -0.64951259 2.3825712 5.3926869e-40
0.21925852 -0.64886868 2.3852792 5.3926869e-40
0.255108 -0.64450407 2.3803072 5.3926869e-40
0.29721361 -0.64021444 2.387429 5.3926869e-40
-0.20290288 -0.63435429 2.3760002 5.3926869e-40
-0.17401542 -0.6239363 2.377043 5.3926869e-40
-0.13826671 -0.61917412 2.3874624 5.3926869e-40
-0.11097578 -0.61020416 2.3920002 5.3926869e-40
0.18843104 -0.63233417 2.3920002 5.3926869e-40
0.22082832 -0.62970954 2.3919992 5.3926869e-40
0.2628392 -0.63017058 2.387764 5.3926869e-40
0.29968995 -0.6316027 2.3895378 5.3926869e-40
0.33884636 -0.62890548 2.3878703 5.3926869e-40
0.38249269 -0.62708569 2.3866658 5.3926869e-40
0.42103446 -0.61906612 2.3886781 5.3926869e-40
0.45721203 -0.61965096 2.3875854 5.3926869e-40
0.50068939 -0.62180161 2.3903992 5.3926869e-40
0.53977096 -0.61443239 2.3897135 5.3926869e-40
0.58225954 -0.60973424 2.3846147 5.3926869e-40
0.62009799 -0.61264998 2.3858171 5.3926869e-40
0.65717095 -0.61333871 2.3850973 5.3926869e-40
0.70722294 -0.60655141 2.382 5.3926869e-40
0.74269617 -0.61166912 2.3855231 5.3926869e-40
0.77448523 -0.60995305 2.3852117 5.3926869e-40
0.82316893 -0.60622746 2.383333 5.3926869e-40
0.85798323 -0.60814041 2.3830395 5.3926869e-40
0.90011948 -0.60804832 2.3813334 5.3926869e-40
-0.16066287 -0.59739435 2.3760002 5.3926869e-40
-0.1366002 -0.58328372 2.3806453 5.3926869e-40
-0.10441814 -0.57739997 2.390744 5.3926869e-40
-0.077455245 -0.56496763 2.3920002 5.3926869e-40
0.4487848 -0.59913909 2.3920002 5.3926869e-40
0.55585527 -0.596861 2.3920002 5.3926869e-40
0.57256132 -0.59837979 2.3920002 5.3926869e-40
0.66910923 -0.59527087 2.3908572 5.3926869e-40
0.69590974 -0.59466147 2.389575 5.3926869e-40
0.73628044 -0.5977723 2.3920002 5.3926869e-40
0.78221512 -0.59831077 2.3920002 5.3926869e-40
0.8223272 -0.59722352 2.3908572 5.3926869e-40
0.86195403 -0.59389639 2.3897769 5.3926869e-40
0.90068465 -0.58804417 2.3886974 5.3926869e-40
0.93936169 -0.58712417 2.3853788 5.3926869e-40
0.98251289 -0.58270007 2.3859994 5.3926869e-40
1.004675 -0.57219815 2.3828568 5.3926869e-40
-0.12983143 -0.54987431 2.3759999 5.3926869e-40
-0.10216484 -0.54108655 2.38148 5.3926869e-40
-0.074494094 -0.53671587 2.3892169 5.3926869e-40
0.99027926 -0.54121387 2.3907685 5.3926869e-40
1.0047925 -0.5421108 2.3827364 5.3926869e-40
-0.093279995 -0.50964564 2.3759997 5.3926869e-40
-0.070979647 -0.49743184 2.385025 5.3926869e-40
0.99224567 -0.49699399 2.3881207 5.3926869e-40
1.0009952 -0.50983781 2.3920002 5.3926869e-40
-0.057474129 -0.45820051 2.3878391 5.3926869e-40
-0.03113397 -0.4548597 2.3919997 5.3926869e-40
0.98396933 -0.45939082 2.3851907 5.3926869e-40
-0.054705139 -0.42438167 2.3798091 5.3926869e-40
-0.022270687 -0.4197349 2.3889306 5.3926869e-40
0.011390477 -0.40853849 2.392 5.3926869e-40
0.95907819 -0.40322289 2.3920002 5.3926869e-40
0.97455055 -0.4184157 2.3862216 5.3926869e-40
-0.015335948 -0.38377497 2.3832152 5.3926869e-40
0.018936744 -0.37890413 2.3912823 5.3926869e-40
0.04556191 -0.36449528 2.3920002 5.3926869e-40
0.95477587 -0.37889344 2.3904757 5.3926869e-40
0.96702105 -0.37928942 2.3813329 5.3926869e-40
0.021361908 -0.34195453 2.3851426 5.3926869e-40
0.05532518 -0.33303595 2.391999 5.3926869e-40
0.088845722 -0.32121146 2.3920002 5.3926869e-40
0.9463203 -0.34043178 2.3866661 5.3926869e-40
0.96397722 -0.3552686 2.3760004 5.3926869e-40
0.03394286 -0.30904165 2.3760002 5.3926869e-40
0.063326806 -0.30035594 2.3873622 5.3926869e-40
0.092642546 -0.29400086 2.3919992 5.3926869e-40
0.91807246 -0.28248385 2.3920002 5.3926869e-40
0.9355343 -0.29829839 2.3879313 5.3926869e-40
0.071818098 -0.2620357 2.3794997 5.3926869e-40
0.099663772 -0.25916329 2.3904507 5.3926869e-40
0.12073906 -0.2437562 2.3920002 5.3926869e-40
0.91067159 -0.25546154 2.3914831 5.3926869e-40
0.92719656 -0.26211616 2.3837414 5.3926869e-40
0.077691428 -0.23609143 2.3760002 5.3926869e-40
0.10415863 -0.22585873 2.3843632 5.3926869e-40
0.13542879 -0.21665476 2.3919988 5.3926869e-40
0.1632635 -0.20426922 2.3920002 5.3926869e-40
0.90455788 -0.21848676 2.3900297 5.3926869e-40
0.922607 -0.22227453 2.3802104 5.3926869e-40
0.11597144 -0.19290857 2.3760002 5.3926869e-40
0.14449666 -0.18488932 2.3800926 5.3926869e-40
0.17138508 -0.17433719 2.3907018 5.3926869e-40
0.87706673 -0.17427428 2.3920002 5.3926869e-40
0.89480007 -0.18384524 2.3859668 5.3926869e-40
0.15538287 -0.14708573 2.3760004 5.3926869e-40
0.18054767 -0.14052851 2.3866661 5.3926869e-40
0.20800762 -0.12809907 2.3920002 5.3926869e-40
0.87706673 -0.15491049 2.3920002 5.3926869e-40
0.88116586 -0.15531938 2.386667 5.3926869e-40
0.19129144 -0.10762546 2.3776839 5.3926869e-40
0.21865743 -0.097948499 2.3875082 5.3926869e-40
0.24603431 -0.086567625 2.3920002 5.3926869e-40
0.2273773 -0.064607561 2.3780866 5.3926869e-40
0.25640044 -0.058686767 2.3917081 5.3926869e-40
0.28248385 -0.043283813 2.3920002 5.3926869e-40
0.23646858 -0.03394286 2.3760002 5.3926869e-40
0.26245958 -0.025163539 2.3835096 5.3926869e-40
0.29279527 -0.017265566 2.391999 5.3926869e-40
0.32526138 -0.029108997 2.3920002 5.3926869e-40
0.28248385 0.0022780953 2.3920002 5.3926869e-40
-0.12363651 -0.65234196 2.4090002 5.3926869e-40
-0.10119279 -0.64772606 2.4171853 5.3926869e-40
-0.057267174 -0.64709741 2.4169686 5.3926869e-40
-0.021890538 -0.64530027 2.4101331 5.3926869e-40
0.023039369 -0.64467859 2.4115753 5.3926869e-40
0.059234291 -0.64448577 2.4090004 5.3926869e-40
0.10010332 -0.64300388 2.4090002 5.3926869e-40
0.13719831 -0.64255297 2.4090002 5.3926869e-40
0.16518858 -0.64010572 2.4090002 5.3926869e-40
-0.097065687 -0.62058067 2.4158804 5.3926869e-40
-0.063296743 -0.61628425 2.4235718 5.3926869e-40
-0.019815588 -0.63205773 2.4186337 5.3926869e-40
0.022784391 -0.63239825 2.4223044 5.3926869e-40
0.061567955 -0.63041234 2.4169683 5.3926869e-40
0.099725835 -0.62869775 2.4169059 5.3926869e-40
0.13868716 -0.62764287 2.4163914 5.3926869e-40
0.17982225 -0.62695771 2.4134998 5.3926869e-40
0.21964607 -0.62024635 2.4175003 5.3926869e-40
0.26043117 -0.61957937 2.4174993 5.3926869e-40
0.30068943 -0.61660457 2.419692 5.3926869e-40
0.33875939 -0.61321348 2.4156108 5.3926869e-40
0.37689748 -0.61335546 2.4089987 5.3926869e-40
0.41635826 -0.60733032 2.4090002 5.3926869e-40
0.4622986 -0.60941976 2.4090002 5.3926869e-40
0.49992424 -0.61138397 2.4094851 5.3926869e-40
0.5331921 -0.60821527 2.4090002 5.3926869e-40
0.59422004 -0.60339713 2.4090002 5.3926869e-40
0.61945713 -0.60339713 2.4090002 5.3926869e-40
0.64928287 -0.60470814 2.4090002 5.3926869e-40
0.75252575 -0.60339713 2.4090002 5.3926869e-40
-0.0876 -0.5896315 2.4090004 5.3926869e-40
-0.062249701 -0.57800114 2.4214902 5.3926869e-40
-0.030036191 -0.56144571 2.4260001 5.3926869e-40
0.30267242 -0.59841335 2.4260001 5.3926869e-40
0.35250553 -0.59857148 2.4192002 5.3926869e-40
0.37989289 -0.59861106 2.4175 5.3926869e-40
0.41835931 -0.59630477 2.4130478 5.3926869e-40
0.46218869 -0.59531766 2.4183228 5.3926869e-40
0.50456703 -0.59470963 2.4175003 5.3926869e-40
0.53910106 -0.59186691 2.4172926 5.3926869e-40
0.58165878 -0.59050804 2.4135602 5.3926869e-40
0.62104547 -0.5894112 2.4165559 5.3926869e-40
0.65696216 -0.58919275 2.4169061 5.3926869e-40
0.70125747 -0.58283466 2.4179473 5.3926869e-40
0.74162459 -0.58311009 2.4111233 5.3926869e-40
0.77997983 -0.58256632 2.416528 5.3926869e-40
0.81846535 -0.58619434 2.4145575 5.3926869e-40
0.8589651 -0.5803706 2.4144247 5.3926869e-40
0.89641291 -0.57109004 2.4143426 5.3926869e-40
0.93900442 -0.57446957 2.4153252 5.3926869e-40
0.97536409 -0.5696246 2.4168112 5.3926869e-40
-0.056461956 -0.54072815 2.4147789 5.3926869e-40
-0.035077229 -0.54254186 2.4260006 5.3926869e-40
0.94960576 -0.54758286 2.4260001 5.3926869e-40
0.98111534 -0.53982902 2.4193208 5.3926869e-40
1.0026029 -0.52768576 2.4090002 5.3926869e-40
-0.051719755 -0.50205523 2.4089994 5.3926869e-40
-0.021219645 -0.49993101 2.4174993 5.3926869e-40
0.0032346665 -0.50414592 2.4260004 5.3926869e-40
0.97777736 -0.50016326 2.4163265 5.3926869e-40
-0.048180003 -0.47767034 2.4090002 5.3926869e-40
-0.014868589 -0.465518 2.4106989 5.3926869e-40
0.016833471 -0.45076299 2.4259999 5.3926869e-40
0.94859642 -0.44834417 2.4156113 5.3926869e-40
0.97017324 -0.46233895 2.4111693 5.3926869e-40
-0.0038238098 -0.43285525 2.4090004 5.3926869e-40
0.02422641 -0.42265397 2.4128952 5.3926869e-40
0.047981009 -0.41700956 2.4217498 5.3926869e-40
0.94832653 -0.41834885 2.4163909 5.3926869e-40
0.96794343 -0.42591974 2.4101725 5.3926869e-40
0.031355239 -0.39181301 2.4090002 5.3926869e-40
0.059349719 -0.37718183 2.4142308 5.3926869e-40
0.088148214 -0.37350637 2.420769 5.3926869e-40
0.94022477 -0.38022664 2.4163179 5.3926869e-40
0.9613058 -0.38314575 2.4090002 5.3926869e-40
0.033267144 -0.34873146 2.4090002 5.3926869e-40
0.065983653 -0.34753838 2.4090002 5.3926869e-40
0.09605822 -0.33898452 2.418 5.3926869e-40
0.12649858 -0.32751 2.4260004 5.3926869e-40
0.91679931 -0.32520646 2.4217501 5.3926869e-40
0.93237621 -0.34110776 2.4147863 5.3926869e-40
0.10859622 -0.30501258 2.4089994 5.3926869e-40
0.13493797 -0.29688555 2.4211435 5.3926869e-40
0.16404381 -0.28649902 2.4260001 5.3926869e-40
0.91052228 -0.29583818 2.4193034 5.3926869e-40
0.92351568 -0.3059659 2.4105458 5.3926869e-40
0.11700858 -0.27302003 2.4090002 5.3926869e-40
0.14081109 -0.26029906 2.4103224 5.3926869e-40
0.17248873 -0.25988355 2.4239769 5.3926869e-40
0.89956582 -0.26108706 2.4146659 5.3926869e-40
0.9200086 -0.27760857 2.4090002 5.3926869e-40
0.14966841 -0.23091312 2.4090002 5.3926869e-40
0.17937036 -0.22027205 2.4133952 5.3926869e-40
0.20835058 -0.21106879 2.4260001 5.3926869e-40
0.8742913 -0.20740701 2.4108891 5.3926869e-40
0.88928622 -0.22520638 2.4136896 5.3926869e-40
0.18844433 -0.18594149 2.408999 5.3926869e-40
0.21748884 -0.17794406 2.4188597 5.3926869e-40
0.24260001 -0.16866477 2.4260001 5.3926869e-40
0.87482309 -0.18130149 2.4167712 5.3926869e-40
0.88330001 -0.18583716 2.4090002 5.3926869e-40
0.19960287 -0.15371716 2.4090002 5.3926869e-40
0.22265173 -0.14238127 2.4092865 5.3926869e-40
0.25502416 -0.13700703 2.418582 5.3926869e-40
0.87202978 -0.154337 2.4187145 5.3926869e-40
0.23019335 -0.11394954 2.4090002 5.3926869e-40
0.26157081 -0.10040852 2.4141502 5.3926869e-40
0.29229298 -0.087766625 2.4250557 5.3926869e-40
0.27378482 -0.067299061 2.4090004 5.3926869e-40
0.29954472 -0.059568286 2.4125066 5.3926869e-40
0.32975724 -0.049228322 2.4146669 5.3926869e-40
0.30350128 -0.032775506 2.4090002 5.3926869e-40
0.32808289 -0.036708571 2.4090002 5.3926869e-40
-0.089576676 -0.64681339 2.4430001 5.3926869e-40
-0.071602069 -0.6482802 2.4514999 5.3926869e-40
-0.084757157 -0.63518 2.4430001 5.3926869e-40
-0.05836495 -0.62273169 2.4436545 5.3926869e-40
-0.020621831 -0.61658931 2.4565446 5.3926869e-40
0.019610176 -0.61715865 2.461211 5.3926869e-40
0.059396558 -0.61416781 2.4621375 5.3926869e-40
0.10003622 -0.61221933 2.4559002 5.3926869e-40
0.14091672 -0.61114991 2.4618747 5.3926869e-40
0.17925186 -0.61262351 2.4580762 5.3926869e-40
0.21946383 -0.60912001 2.4527273 5.3926869e-40
0.25776437 -0.60878479 2.4549067 5.3926869e-40
0.29454526 -0.60376275 2.4490714 5.3926869e-40
0.33570316 -0.60253638 2.4454286 5.3926869e-40
0.37251431 -0.60211432 2.46 5.3926869e-40
-0.049217958 -0.59115237 2.4430006 5.3926869e-40
-0.020797376 -0.58070129 2.453671 5.3926869e-40
0.018693712 -0.58062589 2.4768908 5.3926869e-40
0.055538673 -0.5851227 2.4780004 5.3926869e-40
0.09534128 -0.59451592 2.4750004 5.3926869e-40
0.14420843 -0.59335375 2.4780004 5.3926869e-40
0.18015446 -0.58879751 2.4775128 5.3926869e-40
0.22100839 -0.58950382 2.473999 5.3926869e-40
0.26079538 -0.58918029 2.4729123 5.3926869e-40
0.3000893 -0.58694452 2.4643493 5.3926869e-40
0.3394058 -0.58598703 2.4666381 5.3926869e-40
0.37978333 -0.58316922 2.4677341 5.3926869e-40
0.4212656 -0.58410901 2.4651179 5.3926869e-40
0.45914161 -0.57848352 2.4626434 5.3926869e-40
0.49965131 -0.57961285 2.4613328 5.3926869e-40
0.53968608 -0.57301986 2.4575474 5.3926869e-40
0.5798586 -0.57576817 2.4602709 5.3926869e-40
0.61879891 -0.57345265 2.45491 5.3926869e-40
0.66307664 -0.57475048 2.4537609 5.3926869e-40
0.69982761 -0.57081157 2.4616315 5.3926869e-40
0.73889345 -0.57016218 2.458952 5.3926869e-40
0.78107524 -0.56597608 2.4519472 5.3926869e-40
0.82373512 -0.57065469 2.457587 5.3926869e-40
0.856754 -0.56857419 2.4537501 5.3926869e-40
0.89689952 -0.56640571 2.4597881 5.3926869e-40
0.94294608 -0.56507218 2.4447005 5.3926869e-40
0.96556675 -0.56538004 2.4430001 5.3926869e-40
-0.044206668 -0.5421133 2.4430001 5.3926869e-40
-0.018657435 -0.54146343 2.4450166 5.3926869e-40
0.019734239 -0.53944963 2.4621909 5.3926869e-40
0.056042962 -0.53708476 2.4776773 5.3926869e-40
0.083948575 -0.53032583 2.4780004 5.3926869e-40
0.46256003 -0.55729711 2.4780004 5.3926869e-40
0.49874669 -0.55932003 2.4780004 5.3926869e-40
0.54358673 -0.55932009 2.4780002 5.3926869e-40
0.59236002 -0.55932003 2.4780002 5.3926869e-40
0.62513149 -0.55569679 2.4727738 5.3926869e-40
0.6597172 -0.55359018 2.4741812 5.3926869e-40
0.69925421 -0.55001891 2.4779994 5.3926869e-40
0.73941457 -0.55291075 2.4768002 5.3926869e-40
0.77585286 -0.55537707 2.4699306 5.3926869e-40
0.81903124 -0.55358702 2.4774373 5.3926869e-40
0.85507852 -0.5512951 2.4741073 5.3926869e-40
0.89993703 -0.54898942 2.4764566 5.3926869e-40
0.94299191 -0.54434532 2.4673409 5.3926869e-40
0.96796805 -0.53697741 2.4466066 5.3926869e-40
-0.017062223 -0.5172956 2.4430001 5.3926869e-40
0.021484803 -0.49973536 2.4533491 5.3926869e-40
0.060732935 -0.49857831 2.463177 5.3926869e-40
0.095063865 -0.49724326 2.4764338 5.3926869e-40
0.91804004 -0.48616004 2.4780002 5.3926869e-40
0.94365323 -0.49768019 2.4611411 5.3926869e-40
0.96538055 -0.50097781 2.4430003 5.3926869e-40
0.02258235 -0.46419296 2.4430008 5.3926869e-40
0.061450813 -0.45950893 2.4557502 5.3926869e-40
0.097401246 -0.46007621 2.469152 5.3926869e-40
0.13105868 -0.44541073 2.4780004 5.3926869e-40
0.91298985 -0.46048489 2.4766159 5.3926869e-40
0.93628788 -0.46022019 2.4598029 5.3926869e-40
0.96423721 -0.47297812 2.4430001 5.3926869e-40
0.039553333 -0.43974 2.4430001 5.3926869e-40
0.066100173 -0.42261514 2.452822 5.3926869e-40
0.10001019 -0.41913715 2.4561977 5.3926869e-40
0.13829675 -0.41869491 2.4755158 5.3926869e-40
0.16553715 -0.4096286 2.4780004 5.3926869e-40
0.91009104 -0.41705102 2.4761531 5.3926869e-40
0.93358105 -0.42204332 2.4585235 5.3926869e-40
0.068507411 -0.39579186 2.4430001 5.3926869e-40
0.10657402 -0.38181624 2.451319 5.3926869e-40
0.14081652 -0.3801693 2.4639537 5.3926869e-40
0.17366146 -0.37650639 2.477999 5.3926869e-40
0.90296102 -0.38014853 2.4687252 5.3926869e-40
0.92560703 -0.37732619 2.4504375 5.3926869e-40
0.11297824 -0.35135174 2.4458337 5.3926869e-40
0.14251289 -0.34158912 2.4498599 5.3926869e-40
0.17804314 -0.33877921 2.4654546 5.3926869e-40
0.21305558 -0.33393994 2.4779994 5.3926869e-40
0.87320006 -0.33276007 2.4780004 5.3926869e-40
0.90028745 -0.33920184 2.4650424 5.3926869e-40
0.92520159 -0.35174412 2.4508462 5.3926869e-40
0.14944431 -0.31021285 2.444134 5.3926869e-40
0.1815678 -0.30113387 2.4557498 5.3926869e-40
0.22177027 -0.29965159 2.4751289 5.3926869e-40
0.24898003 -0.29146001 2.4780004 5.3926869e-40
0.86959338 -0.29644555 2.4769089 5.3926869e-40
0.89531624 -0.30191958 2.4618733 5.3926869e-40
0.19281967 -0.26222721 2.4482312 5.3926869e-40
0.22043921 -0.25907969 2.4668183 5.3926869e-40
0.25778869 -0.25836831 2.4776828 5.3926869e-40
0.28084001 -0.25016001 2.4780002 5.3926869e-40
0.86878198 -0.25911561 2.4712064 5.3926869e-40
0.88963723 -0.26117742 2.4533899 5.3926869e-40
0.19660334 -0.23615667 2.4430001 5.3926869e-40
0.22441345 -0.2221964 2.4489133 5.3926869e-40
0.25844008 -0.2205743 2.4641478 5.3926869e-40
0.28957197 -0.20744406 2.4780004 5.3926869e-40
0.32804 -0.21240002 2.4780002 5.3926869e-40
0.83544004 -0.20060001 2.4780002 5.3926869e-40
0.86206996 -0.21821116 2.4628906 5.3926869e-40
0.8847596 -0.22869338 2.4502861 5.3926869e-40
0.23479213 -0.18885984 2.444134 5.3926869e-40
0.26220611 -0.18059106 2.450727 5.3926869e-40
0.30078587 -0.17849079 2.4738674 5.3926869e-40
0.33061457 -0.1735673 2.4780006 5.3926869e-40
0.83162779 -0.17591082 2.4780004 5.3926869e-40
0.8573041 -0.17961796 2.4579997 5.3926869e-40
0.27144444 -0.15045777 2.4430003 5.3926869e-40
0.29985255 -0.14055972 2.4594061 5.3926869e-40
0.33885536 -0.13774715 2.4764988 5.3926869e-40
0.36517072 -0.13011467 2.4780004 5.3926869e-40
0.83041996 -0.15316808 2.462158 5.3926869e-40
0.8537975 -0.15406442 2.4476368 5.3926869e-40
0.27687335 -0.11400667 2.4430001 5.3926869e-40
0.30236307 -0.10455863 2.4440413 5.3926869e-40
0.33815742 -0.099903367 2.4658155 5.3926869e-40
0.37586939 -0.095396444 2.477999 5.3926869e-40
0.40558285 -0.095411442 2.4780004 5.3926869e-40
0.31875333 -0.076779999 2.4430001 5.3926869e-40
0.34243509 -0.065787084 2.4521163 5.3926869e-40
0.37090003 -0.073309802 2.4715717 5.3926869e-40
0.046354286 -0.60260576 2.4960001 5.3926869e-40
0.061266802 -0.58183169 2.5033782 5.3926869e-40
0.10201763 -0.57893926 2.5069835 5.3926869e-40
0.13571559 -0.58042353 2.5034728 5.3926869e-40
0.17851399 -0.57944947 2.5058999 5.3926869e-40
0.21854173 -0.58019197 2.5049999 5.3926869e-40
0.26069716 -0.57588601 2.5043073 5.3926869e-40
0.30110011 -0.57277024 2.5039997 5.3926869e-40
0.33843532 -0.56822598 2.4992726 5.3926869e-40
0.37625274 -0.56464899 2.5039997 5.3926869e-40
0.41939873 -0.56634599 2.5043073 5.3926869e-40
0.44452572 -0.56338286 2.4960001 5.3926869e-40
0.51174003 -0.56301999 2.5050001 5.3926869e-40
0.542781 -0.56338286 2.4960003 5.3926869e-40
0.57855248 -0.56374985 2.5000002 5.3926869e-40
0.60379434 -0.56338286 2.4960001 5.3926869e-40
0.070125714 -0.55268568 2.4960003 5.3926869e-40
0.10276414 -0.53992796 2.5023339 5.3926869e-40
0.12614104 -0.54350293 2.5140002 5.3926869e-40
0.32563812 -0.55812192 2.5080001 5.3926869e-40
0.38750798 -0.55803746 2.51 5.3926869e-40
0.42659006 -0.55646527 2.5095 5.3926869e-40
0.45929271 -0.55147952 2.5077388 5.3926869e-40
0.49737149 -0.55149943 2.5080001 5.3926869e-40
0.5372237 -0.55529451 2.5042498 5.3926869e-40
0.58284092 -0.55671996 2.5054736 5.3926869e-40
0.61750531 -0.54845649 2.5073144 5.3926869e-40
0.66201973 -0.54227179 2.5083752 5.3926869e-40
0.69902313 -0.54377151 2.5003192 5.3926869e-40
0.74477649 -0.54424661 2.5019999 5.3926869e-40
0.78028053 -0.54001749 2.5042179 5.3926869e-40
0.8182568 -0.53985602 2.5036004 5.3926869e-40
0.86320245 -0.53824538 2.5068004 5.3926869e-40
0.89924747 -0.5369944 2.4975009 5.3926869e-40
0.93414736 -0.53233832 2.4985712 5.3926869e-40
0.11184572 -0.5061813 2.4985714 5.3926869e-40
0.13489127 -0.49571866 2.512579 5.3926869e-40
0.16281144 -0.48125145 2.5140002 5.3926869e-40
0.90329236 -0.49864376 2.5118401 5.3926869e-40
0.93065804 -0.5082351 2.5053911 5.3926869e-40
0.11648001 -0.46829715 2.4960001 5.3926869e-40
0.14141087 -0.46346545 2.4970393 5.3926869e-40
0.16737822 -0.45998895 2.5106251 5.3926869e-40
0.90725976 -0.45929319 2.5061252 5.3926869e-40
0.15609907 -0.43343237 2.4960001 5.3926869e-40
0.18203826 -0.41997331 2.5042801 5.3926869e-40
0.20870194 -0.41221616 2.5140002 5.3926869e-40
0.89848739 -0.42305005 2.5047429 5.3926869e-40
0.19108047 -0.3859829 2.4983473 5.3926869e-40
0.21655679 -0.37600479 2.5120542 5.3926869e-40
0.24182288 -0.36632574 2.5140004 5.3926869e-40
0.87394941 -0.37491286 2.5072498 5.3926869e-40
0.88848758 -0.38287365 2.5034485 5.3926869e-40
0.22360235 -0.3497107 2.496666 5.3926869e-40
0.2504656 -0.33366814 2.5076132 5.3926869e-40
0.87027264 -0.34364697 2.4999995 5.3926869e-40
0.88192004 -0.35419428 2.4960001 5.3926869e-40
0.26454148 -0.30276725 2.499892 5.3926869e-40
0.28218371 -0.29381308 2.5140004 5.3926869e-40
0.86420149 -0.30006492 2.5041816 5.3926869e-40
0.27634287 -0.26742858 2.4960001 5.3926869e-40
0.29833415 -0.25420409 2.5095003 5.3926869e-40
0.33320478 -0.24461624 2.5140002 5.3926869e-40
0.83560574 -0.24182287 2.5140002 5.3926869e-40
0.85598689 -0.25648451 2.5066872 5.3926869e-40
0.3035365 -0.22347201 2.4996827 5.3926869e-40
0.33649364 -0.21894167 2.5036676 5.3926869e-40
0.36632574 -0.20351431 2.5140004 5.3926869e-40
0.82981819 -0.21296254 2.5065515 5.3926869e-40
0.84700006 -0.22512476 2.5035 5.3926869e-40
0.34297901 -0.18535675 2.4994054 5.3926869e-40
0.37311882 -0.17801239 2.5140002 5.3926869e-40
0.81974256 -0.18266106 2.5032771 5.3926869e-40
0.35155305 -0.15609905 2.4960001 5.3926869e-40
0.38450953 -0.14061025 2.5042505 5.3926869e-40
0.40583146 -0.13168572 2.5140002 5.3926869e-40
0.81568629 -0.15008721 2.5014777 5.3926869e-40
0.38830575 -0.10545667 2.4974995 5.3926869e-40
0.40937528 -0.10944635 2.5040002 5.3926869e-40
0.079577141 -0.57392001 2.5320001 5.3926869e-40
0.090026669 -0.57793909 2.5320001 5.3926869e-40
0.14769836 -0.56960338 2.5330558 5.3926869e-40
0.17888084 -0.56948197 2.5414999 5.3926869e-40
0.21852042 -0.56953359 2.5400224 5.3926869e-40
0.25859183 -0.56659007 2.5390565 5.3926869e-40
0.29637203 -0.56558138 2.5336528 5.3926869e-40
0.34354818 -0.56475663 2.5320001 5.3926869e-40
0.36573333 -0.56347048 2.5320001 5.3926869e-40
0.41717714 -0.56186283 2.5320001 5.3926869e-40
0.44129145 -0.56186283 2.5320001 5.3926869e-40
0.14463444 -0.53898001 2.5319991 5.3926869e-40
0.18033102 -0.5401541 2.549417 5.3926869e-40
0.21750632 -0.5412724 2.5510004 5.3926869e-40
0.26119003 -0.55208886 2.5502689 5.3926869e-40
0.3027626 -0.54974765 2.5465007 5.3926869e-40
0.33855486 -0.54763764 2.5407081 5.3926869e-40
0.38083979 -0.54787147 2.5412889 5.3926869e-40
0.41917732 -0.5409081 2.54106 5.3926869e-40
0.46045321 -0.53850085 2.5396659 5.3926869e-40
0.50081265 -0.53315598 2.539917 5.3926869e-40
0.54020977 -0.5398131 2.5440583 5.3926869e-40
0.57823402 -0.53901088 2.5395989 5.3926869e-40
0.61950481 -0.53177291 2.5370188 5.3926869e-40
0.6583243 -0.52921093 2.5347137 5.3926869e-40
0.70026237 -0.52931184 2.5366209 5.3926869e-40
0.73960483 -0.53161699 2.5392199 5.3926869e-40
0.77952999 -0.52622163 2.5376296 5.3926869e-40
0.82102793 -0.52708751 2.5320003 5.3926869e-40
0.85846853 -0.52810287 2.5320005 5.3926869e-40
0.88692349 -0.52424461 2.5320001 5.3926869e-40
0.92598855 -0.52328002 2.5320001 5.3926869e-40
0.14753559 -0.5099076 2.5320005 5.3926869e-40
0.17865281 -0.50196564 2.5369132 5.3926869e-40
0.21560733 -0.49784571 2.5510008 5.3926869e-40
0.47375718 -0.5174886 2.5510001 5.3926869e-40
0.48347524 -0.5174886 2.5510001 5.3926869e-40
0.58511555 -0.51536798 2.5492733 5.3926869e-40
0.6200313 -0.51195931 2.5509999 5.3926869e-40
0.66178894 -0.5137459 2.5467777 5.3926869e-40
0.69994581 -0.51335835 2.5509999 5.3926869e-40
0.74367732 -0.51044297 2.5509999 5.3926869e-40
0.78158045 -0.50954217 2.5480769 5.3926869e-40
0.82084411 -0.51005363 2.543586 5.3926869e-40
0.8628248 -0.51024669 2.5434 5.3926869e-40
0.88940883 -0.50224024 2.540837 5.3926869e-40
0.92598861 -0.51363432 2.5320001 5.3926869e-40
0.18597165 -0.46209118 2.5328834 5.3926869e-40
0.21780898 -0.45972019 2.5400603 5.3926869e-40
0.25142294 -0.45839202 2.5510006 5.3926869e-40
0.87225497 -0.45467898 2.5433996 5.3926869e-40
0.89268541 -0.4622761 2.5354538 5.3926869e-40
0.22398993 -0.42145392 2.5319991 5.3926869e-40
0.26087713 -0.42072329 2.5414994 5.3926869e-40
0.29202875 -0.41156131 2.5509996 5.3926869e-40
0.83818573 -0.41058955 2.5510001 5.3926869e-40
0.86723 -0.42097297 2.5466154 5.3926869e-40
0.88681811 -0.42063916 2.533226 5.3926869e-40
0.2281671 -0.39122561 2.5320005 5.3926869e-40
0.26129854 -0.3816435 2.5323105 5.3926869e-40
0.29785627 -0.37782916 2.5506356 5.3926869e-40
0.32879558 -0.36361873 2.5510004 5.3926869e-40
0.83818573 -0.36442858 2.5510001 5.3926869e-40
0.86227673 -0.37717479 2.5454121 5.3926869e-40
0.88499439 -0.39788574 2.5320001 5.3926869e-40
0.26758552 -0.34769171 2.5325758 5.3926869e-40
0.30068442 -0.33947936 2.5459523 5.3926869e-40
0.33369508 -0.3373394 2.5510006 5.3926869e-40
0.83591807 -0.33899957 2.5510004 5.3926869e-40
0.85801715 -0.3396897 2.5416369 5.3926869e-40
0.30164292 -0.30006582 2.5330355 5.3926869e-40
0.33840629 -0.29968512 2.5398414 5.3926869e-40
0.36937767 -0.29739174 2.5509996 5.3926869e-40
0.83073753 -0.29781854 2.549849 5.3926869e-40
0.85178399 -0.30094028 2.5342348 5.3926869e-40
0.30959034 -0.27174947 2.5319998 5.3926869e-40
0.34109169 -0.26363733 2.5327027 5.3926869e-40
0.37657782 -0.25852662 2.545572 5.3926869e-40
0.40330097 -0.24538192 2.5510004 5.3926869e-40
0.82319582 -0.26034608 2.5432265 5.3926869e-40
0.84856683 -0.26374638 2.5334623 5.3926869e-40
0.35869998 -0.22607142 2.5319998 5.3926869e-40
0.38034222 -0.21995908 2.5367494 5.3926869e-40
0.41104496 -0.21394993 2.5510001 5.3926869e-40
0.79688382 -0.20165049 2.5510001 5.3926869e-40
0.81780767 -0.22171134 2.5400383 5.3926869e-40
0.84399998 -0.23873143 2.5320001 5.3926869e-40
0.3903369 -0.18211529 2.5320005 5.3926869e-40
0.42032975 -0.17854309 2.5396605 5.3926869e-40
0.45173365 -0.16913603 2.5476475 5.3926869e-40
0.79520005 -0.17919545 2.5472 5.3926869e-40
0.80754739 -0.17892249 2.533462 5.3926869e-40
0.42226797 -0.14066669 2.5319991 5.3926869e-40
0.45672613 -0.14035925 2.5435495 5.3926869e-40
0.48930612 -0.12973659 2.5510004 5.3926869e-40
0.79293019 -0.14686461 2.5473459 5.3926869e-40
0.80797446 -0.14451095 2.5343752 5.3926869e-40
0.42682287 -0.11407913 2.5319998 5.3926869e-40
0.45294571 -0.11626972 2.5434003 5.3926869e-40
0.22885238 -0.52501428 2.5699999 5.3926869e-40
0.25794131 -0.53637701 2.5792973 5.3926869e-40
0.30054072 -0.53674299 2.5820909 5.3926869e-40
0.34188744 -0.53260118 2.5815148 5.3926869e-40
0.38102672 -0.53092092 2.580404 5.3926869e-40
0.41888437 -0.5235936 2.5771251 5.3926869e-40
0.45819232 -0.52290815 2.5777729 5.3926869e-40
0.50284982 -0.52243066 2.5699999 5.3926869e-40
0.54270959 -0.52332348 2.576 5.3926869e-40
0.5636431 -0.52361095 2.5731668 5.3926869e-40
0.75141907 -0.52134287 2.5700002 5.3926869e-40
0.23163383 -0.50932729 2.5699999 5.3926869e-40
0.25517964 -0.49678776 2.5816107 5.3926869e-40
0.29670763 -0.48300606 2.5890005 5.3926869e-40
0.40363073 -0.5143798 2.5842502 5.3926869e-40
0.46340251 -0.51549339 2.5862861 5.3926869e-40
0.50024241 -0.51380926 2.5790477 5.3926869e-40
0.53753483 -0.51200408 2.5846822 5.3926869e-40
0.58451033 -0.51107883 2.5777729 5.3926869e-40
0.62137288 -0.5014106 2.5781429 5.3926869e-40
0.66042084 -0.50025123 2.5805557 5.3926869e-40
0.69920504 -0.50194013 2.5807173 5.3926869e-40
0.73855698 -0.50383615 2.5769088 5.3926869e-40
0.77831519 -0.49998802 2.5769668 5.3926869e-40
0.82443297 -0.49504954 2.5768609 5.3926869e-40
0.86287087 -0.49485672 2.5794995 5.3926869e-40
0.88359058 -0.48870796 2.5700002 5.3926869e-40
0.2712554 -0.46551371 2.5710557 5.3926869e-40
0.29523423 -0.45731711 2.5809245 5.3926869e-40
0.86431366 -0.46061945 2.5794997 5.3926869e-40
0.30639285 -0.4245249 2.57532 5.3926869e-40
0.33699417 -0.41710442 2.5860436 5.3926869e-40
0.85261548 -0.419202 2.5785494 5.3926869e-40
0.31574288 -0.38672385 2.5700002 5.3926869e-40
0.34079909 -0.38268173 2.5802593 5.3926869e-40
0.37100399 -0.37390485 2.5878828 5.3926869e-40
0.83777076 -0.37103313 2.5763333 5.3926869e-40
0.84962106 -0.38906986 2.5743847 5.3926869e-40
0.35372993 -0.34628913 2.5699999 5.3926869e-40
0.37657133 -0.33787709 2.5842495 5.3926869e-40
0.40684292 -0.3230086 2.5890002 5.3926869e-40
0.82999802 -0.33905515 2.5821791 5.3926869e-40
0.38903943 -0.30088526 2.5712667 5.3926869e-40
0.41334569 -0.30076832 2.5879724 5.3926869e-40
0.79560393 -0.29342002 2.5890005 5.3926869e-40
0.8129524 -0.30013528 2.5779793 5.3926869e-40
0.39569852 -0.26760635 2.5699999 5.3926869e-40
0.4210915 -0.26143664 2.5781424 5.3926869e-40
0.45462662 -0.25447878 2.589 5.3926869e-40
0.79587787 -0.25944796 2.5890005 5.3926869e-40
0.80521381 -0.26022404 2.5777185 5.3926869e-40
0.42833334 -0.22534423 2.5700002 5.3926869e-40
0.45843887 -0.22009146 2.585897 5.3926869e-40
0.48328 -0.21205145 2.5890005 5.3926869e-40
0.79167485 -0.21463053 2.5867653 5.3926869e-40
0.80643672 -0.22402604 2.5799134 5.3926869e-40
0.46319857 -0.18660156 2.5748854 5.3926869e-40
0.4937785 -0.17516625 2.5884857 5.3926869e-40
0.52838802 -0.16810371 2.5890005 5.3926869e-40
0.78134215 -0.17849694 2.5780845 5.3926869e-40
0.47565398 -0.14196193 2.5700002 5.3926869e-40
0.49714234 -0.14310722 2.5758457 5.3926869e-40
0.53471607 -0.1403164 2.588999 5.3926869e-40
0.74957716 -0.13068287 2.5890002 5.3926869e-40
0.7730602 -0.14273386 2.5788364 5.3926869e-40
0.80135721 -0.13561431 2.5890002 5.3926869e-40
0.47483814 -0.11993334 2.5700002 5.3926869e-40
0.48707622 -0.11993334 2.5700002 5.3926869e-40
0.55314195 -0.11424478 2.5890002 5.3926869e-40
0.2708391 -0.52676958 2.6090002 5.3926869e-40
0.29469278 -0.52900583 2.6090009 5.3926869e-40
0.33892155 -0.52527875 2.6090004 5.3926869e-40
0.36724785 -0.52527875 2.6090002 5.3926869e-40
0.44477242 -0.52428478 2.6090002 5.3926869e-40
0.2708391 -0.51003879 2.6090007 5.3926869e-40
0.29873285 -0.50513673 2.6093779 5.3926869e-40
0.34038016 -0.50311965 2.6237814 5.3926869e-40
0.37836191 -0.50310504 2.621922 5.3926869e-40
0.41992912 -0.50574404 2.617928 5.3926869e-40
0.46263096 -0.50498277 2.6209145 5.3926869e-40
0.50035155 -0.49749056 2.6188409 5.3926869e-40
0.54089862 -0.49505818 2.6141851 5.3926869e-40
0.58068722 -0.49703315 2.6164567 5.3926869e-40
0.62145352 -0.49043685 2.6190009 5.3926869e-40
0.66173422 -0.4875991 2.6145179 5.3926869e-40
0.70161837 -0.48845187 2.6090007 5.3926869e-40
0.7404803 -0.49051267 2.6137068 5.3926869e-40
0.77922142 -0.48900118 2.6090009 5.3926869e-40
0.81578708 -0.48960823 2.6108189 5.3926869e-40
0.85624903 -0.48651639 2.6090002 5.3926869e-40
0.31059524 -0.46429554 2.6090007 5.3926869e-40
0.33840853 -0.46207947 2.6152065 5.3926869e-40
0.37915328 -0.46012694 2.6273992 5.3926869e-40
0.40711948 -0.44968423 2.6289999 5.3926869e-40
0.51828861 -0.47822765 2.6290002 5.3926869e-40
0.54416132 -0.47822767 2.6290002 5.3926869e-40
0.5683648 -0.47572383 2.6290002 5.3926869e-40
0.62783021 -0.47697574 2.6289999 5.3926869e-40
0.66424435 -0.47234192 2.6282597 5.3926869e-40
0.70018101 -0.46766019 2.6191885 5.3926869e-40
0.74042529 -0.46994489 2.6264999 5.3926869e-40
0.77871817 -0.47040075 2.6224883 5.3926869e-40
0.82298344 -0.46567407 2.6209993 5.3926869e-40
0.85044658 -0.46277016 2.613616 5.3926869e-40
0.31059527 -0.43980289 2.6090002 5.3926869e-40
0.34389108 -0.43135473 2.6090004 5.3926869e-40
0.3777954 -0.41975147 2.6133466 5.3926869e-40
0.4140535 -0.42105839 2.6284997 5.3926869e-40
0.82672495 -0.41752678 2.6250782 5.3926869e-40
0.84439409 -0.42332214 2.6121585 5.3926869e-40
0.38645452 -0.38148621 2.610291 5.3926869e-40
0.41862121 -0.37864587 2.6193221 5.3926869e-40
0.45175886 -0.37163693 2.6290007 5.3926869e-40
0.79689437 -0.37534386 2.6289999 5.3926869e-40
0.81990767 -0.37955678 2.6184273 5.3926869e-40
0.8433283 -0.38911375 2.6090002 5.3926869e-40
0.39176413 -0.34869495 2.6090004 5.3926869e-40
0.42090234 -0.33967918 2.6089995 5.3926869e-40
0.4609243 -0.33960402 2.6286147 5.3926869e-40
0.4849045 -0.3305029 2.6290002 5.3926869e-40
0.79440361 -0.33688998 2.6280007 5.3926869e-40
0.81163031 -0.34048375 2.6119792 5.3926869e-40
0.43533039 -0.30040771 2.6090009 5.3926869e-40
0.46148372 -0.2980617 2.6134064 5.3926869e-40
0.49550641 -0.29619396 2.6272857 5.3926869e-40
0.52580005 -0.28293049 2.6290002 5.3926869e-40
0.78678447 -0.29964808 2.6227028 5.3926869e-40
0.80423468 -0.31390828 2.6090002 5.3926869e-40
0.46721536 -0.26250312 2.6090009 5.3926869e-40
0.50151956 -0.25948259 2.619714 5.3926869e-40
0.53640127 -0.25767928 2.6289992 5.3926869e-40
0.78263783 -0.25909743 2.6220295 5.3926869e-40
0.80754763 -0.24102192 2.6090002 5.3926869e-40
0.47831669 -0.22984049 2.6090002 5.3926869e-40
