# .PCD v0.7 - Point Cloud Data file format
VERSION 0.7
FIELDS x y z rgb
SIZE 4 4 4 4
TYPE F F F F
COUNT 1 1 1 1
WIDTH 285
HEIGHT 1
VIEWPOINT 0 0 0 1 0 0 0
POINTS 285
DATA ascii
-0.069474965 -0.015541336 0.5133149 1.0988636e-38
-0.31436384 0.2301303 0.51824999 1.0138274e-38
-0.13162489 -0.040619168 0.53987503 1.1430537e-38
-0.096345745 -0.057022177 0.54609555 8.767647e-39
-0.077365749 -0.042236459 0.55119234 1.310767e-38
-0.12918963 -0.024929823 0.53584152 7.5615158e-39
-0.11034106 -0.017497377 0.54431379 5.908128e-39
-0.076259598 -0.036667589 0.5476774 1.2464857e-38
-0.094679192 0.003081019 0.5565694 5.075461e-39
-0.074487425 0.0054035094 0.55842102 5.4482092e-39
-0.30084473 0.14064485 0.54428464 1.317822e-38
-0.32275763 0.18375668 0.5362469 9.123766e-39
-0.29868087 0.18590906 0.54144996 9.9524505e-39
-0.27094686 0.19448601 0.55349249 1.05049e-38
-0.32349119 0.20478262 0.55274999 9.0301285e-39
-0.29580796 0.218917 0.53531373 9.9528092e-39
-0.2724387 0.20393342 0.54242307 8.5698804e-39
-0.29167092 0.24085322 0.53358352 1.0229395e-38
-0.12034572 -0.0005495238 0.57700002 1.7791229e-38
-0.11459916 -0.0011303643 0.57723534 9.2948449e-39
-0.054802518 -0.011986069 0.56528908 1.2261334e-38
-0.038081601 -0.0072686481 0.58335996 1.9432742e-38
-0.12058906 0.0033077779 0.57816666 1.7507781e-38
-0.097528942 0.019007919 0.57974064 8.1946014e-39
-0.063606001 0.022232333 0.57541543 9.6826921e-39
-0.036674391 0.00095037039 0.59855556 1.8881007e-38
-0.090565622 0.057605557 0.59312755 1.0866464e-38
-0.071244426 0.052656252 0.59150386 1.3720926e-38
-0.2551702 0.19455795 0.56408143 1.2164065e-38
-0.23615402 0.19877964 0.57596153 1.2071881e-38
-0.28196982 0.21231754 0.56510258 9.6762237e-39
-0.25337985 0.21813902 0.57186842 9.3078013e-39
-0.22810249 0.22210906 0.58394676 1.004465e-38
-0.24180059 0.24317627 0.58676922 7.2766262e-39
-0.22679596 0.2416922 0.58570105 7.0936727e-39
-0.12756836 0.033060018 0.63525057 1.2339082e-38
-0.11513462 0.034573685 0.63092119 9.9441478e-39
-0.045858756 0.022717677 0.61861336 1.5104939e-38
-0.037319519 0.012125979 0.61148953 1.8514028e-38
-0.12974072 0.058628395 0.62890965 1.3443985e-38
-0.10890531 0.062453315 0.61440969 1.1049416e-38
-0.060187727 0.06135698 0.6129508 1.6484631e-38
-0.12461539 0.087445833 0.63317299 1.0772834e-38
-0.09867657 0.096047193 0.62524253 9.7597593e-39
-0.073662609 0.088205487 0.62030947 1.4089714e-38
-0.21485716 0.236 0.60000002 1.0149074e-38
-0.1334483 0.025587449 0.64251381 1.5383342e-38
-0.13184948 0.10421923 0.6500147 1.1326366e-38
-0.10183731 0.11462276 0.64321369 9.7590405e-39
-0.075595275 0.10880566 0.64927107 1.2429115e-38
-0.13141482 0.13998641 0.66479117 9.3909796e-39
-0.099617884 0.14026666 0.65921825 9.9430702e-39
-0.075509176 0.13608097 0.6685971 1.2797173e-38
-0.1273604 0.17168462 0.67409027 8.8378072e-39
-0.10410194 0.17337699 0.67383683 1.0495528e-38
0.19458014 0.23787364 0.67516994 1.1692254e-38
0.22071043 0.23641331 0.67370027 1.3535806e-38
0.25084481 0.23667435 0.67538124 1.6761571e-38
0.15683545 0.27349126 0.67580277 9.7590321e-39
0.18194576 0.26108617 0.66209477 9.84979e-39
0.21968454 0.2585125 0.65134889 1.1877378e-38
0.25901577 0.25946227 0.65854394 1.7316554e-38
0.2912668 0.26695588 0.67062366 2.0544126e-38
0.15337954 0.2906664 0.67448705 8.5608504e-39
0.17756191 0.28726131 0.65710437 8.1917106e-39
0.22003764 0.28477603 0.64423835 9.2984169e-39
0.26143125 0.28613484 0.65014458 1.4366653e-38
0.30096683 0.29021171 0.66770184 1.7223635e-38
0.32231534 0.29890853 0.67860723 1.4642161e-38
-0.14517193 0.15769818 0.68221444 9.9394955e-39
-0.07579565 0.15640855 0.68290329 1.4547441e-38
-0.13724318 0.18375455 0.68598658 9.4838969e-39
-0.093928136 0.18879852 0.68416649 1.2246162e-38
-0.072669365 0.18072425 0.70118016 1.4640001e-38
-0.13420542 0.21809341 0.69912738 8.745976e-39
-0.099365249 0.21956676 0.69440824 1.0127468e-38
-0.073001005 0.21840793 0.70981008 1.3995716e-38
0.15494983 0.23732772 0.71689129 1.1692611e-38
0.18300518 0.22893168 0.70317018 1.1876645e-38
0.21979135 0.22130433 0.69951761 1.3442889e-38
0.25944149 0.22372577 0.69985259 1.6945963e-38
0.29222021 0.23145705 0.70785499 1.9804753e-38
-0.12688756 0.24675296 0.71117097 7.8254588e-39
-0.099252537 0.25208139 0.71105176 8.1009639e-39
-0.076313078 0.24805079 0.71664798 1.1140896e-38
0.11983334 0.27869812 0.71900004 1.0035971e-38
0.14466298 0.26202053 0.70081192 1.0863215e-38
0.16761716 0.24662021 0.68919021 1.1231636e-38
0.27690479 0.24209976 0.68233329 1.9252298e-38
0.30475017 0.25428915 0.6938495 2.0820708e-38
0.33402243 0.26749367 0.70808172 1.9806917e-38
0.11566087 0.30366334 0.71419704 8.8363583e-39
0.1329167 0.29446959 0.69538361 9.0207482e-39
0.31794143 0.28278038 0.68199998 2.054124e-38
0.33676094 0.29209116 0.69086772 1.7224716e-38
0.10925715 0.32026002 0.71700001 8.1924266e-39
-0.061860152 0.19485973 0.73019242 1.3256709e-38
0.14953585 0.19143637 0.75311613 1.2428744e-38
0.1810443 0.18720149 0.74766654 1.3441454e-38
0.2193325 0.18698205 0.74371469 1.4639275e-38
0.25734439 0.1916811 0.74580961 1.7404781e-38
0.288259 0.1967492 0.75420892 1.8326738e-38
-0.14520268 0.23916383 0.72120011 1.1870911e-38
-0.059209589 0.22268404 0.73454142 1.3534015e-38
0.012272381 0.23895049 0.75800002 1.0124946e-38
0.11804836 0.23440149 0.755 8.9303546e-39
0.14088024 0.22092648 0.74012786 1.1507867e-38
0.17660527 0.21091579 0.72866082 1.2520937e-38
0.21838473 0.20456283 0.72450453 1.3810952e-38
0.26193205 0.20585236 0.72747064 1.7221469e-38
0.30210885 0.21520492 0.73755789 1.9434527e-38
0.33723116 0.22674705 0.74620122 1.971184e-38
0.36844409 0.23393327 0.75352907 1.8145952e-38
-0.13152413 0.25999516 0.7258693 8.8392492e-39
-0.098517492 0.27236077 0.7245993 7.2719263e-39
-0.062895879 0.26175705 0.73674375 9.9427101e-39
-0.018565798 0.26395509 0.75643563 8.9285595e-39
0.0061035068 0.25513771 0.75776953 9.0203936e-39
0.11371582 0.26486275 0.74535865 9.1133039e-39
0.12874007 0.25401887 0.73038882 1.0311124e-38
0.31930003 0.24170573 0.72100008 2.1924535e-38
0.34565371 0.25275522 0.72874165 1.8423262e-38
0.36519447 0.25282937 0.73764801 1.6395674e-38
-0.12227058 0.28182024 0.73833334 8.0102158e-39
-0.096014515 0.29542807 0.74188364 6.9042228e-39
-0.061133709 0.29514673 0.75265473 7.1782859e-39
-0.026253426 0.28885779 0.75633913 7.5463468e-39
0.0014438096 0.28082094 0.75800002 7.27012e-39
0.1029264 0.30026707 0.73830706 8.5597714e-39
0.093412384 0.32635534 0.74327248 7.3626674e-39
0.3846581 -0.0055251694 0.79590482 5.0678884e-39
0.38520989 0.030151533 0.79648787 1.1692635e-38
0.35744771 0.073502287 0.79739511 9.6664847e-39
0.37781176 0.060207047 0.79125649 1.0681363e-38
0.35775524 0.093996681 0.79773623 6.9049402e-39
0.37619752 0.099417247 0.78921878 6.8152739e-39
0.10837477 0.15368734 0.79449058 1.3164873e-38
0.14155132 0.14737116 0.78698921 1.3902075e-38
0.17888077 0.14705469 0.78390652 1.556087e-38
0.21729629 0.15193333 0.7859295 1.6205519e-38
0.24949549 0.15676224 0.79349238 1.6298435e-38
0.38176316 0.12768501 0.79416871 4.9720816e-39
-0.010289196 0.19565138 0.79268789 1.2335112e-38
0.022106342 0.18940121 0.78643864 1.2888286e-38
0.060776778 0.18374966 0.78366029 1.3349261e-38
0.10010882 0.17980768 0.78416812 1.1783737e-38
0.13680886 0.17648345 0.76923925 1.2336551e-38
0.17894551 0.16722026 0.76499403 1.4177943e-38
0.22147895 0.16693784 0.76687503 1.5744547e-38
0.26131019 0.17269768 0.77618444 1.7219674e-38
0.29922742 0.18320169 0.77970409 1.7866481e-38
0.3349185 0.19329442 0.78886712 1.9526364e-38
0.36833692 0.19913743 0.79786676 1.8605488e-38
-0.046796173 0.22193304 0.77902454 9.4792124e-39
-0.019846169 0.2201272 0.77411586 1.0953618e-38
0.019987714 0.21975547 0.76643503 1.1139088e-38
0.059915677 0.21948472 0.76584917 1.1047613e-38
0.10087454 0.21960872 0.77246416 8.9292728e-39
0.1236929 0.20760703 0.76410121 1.0587348e-38
0.31401753 0.20150146 0.76188236 1.8512572e-38
0.34475949 0.20877145 0.77197391 1.9433454e-38
0.37637213 0.21556652 0.7801168 1.8882078e-38
0.40052003 0.21356 0.79800004 1.7959407e-38
-0.046975635 0.25732082 0.76447451 7.2694011e-39
-0.026133692 0.24655633 0.76105839 9.5728457e-39
0.023170736 0.26066029 0.76137114 8.1913532e-39
0.060206126 0.25934932 0.76666331 7.1779188e-39
0.096727408 0.25892365 0.77210069 6.257403e-39
-0.083207265 0.31814632 0.76137507 6.71587e-39
-0.053045988 0.31281862 0.76189405 5.9811847e-39
-0.01674212 0.30506822 0.7653262 5.3361754e-39
0.019659691 0.29774863 0.7739073 4.9673915e-39
0.059829868 0.29796457 0.78391695 4.1397916e-39
0.088033549 0.29683641 0.7733497 6.1652088e-39
-0.08270774 0.32418871 0.76600009 1.3452262e-38
-0.059800196 0.32591087 0.76870686 7.6450276e-39
-0.029565375 0.32405353 0.77540487 2.6686328e-39
0.016586501 0.3235057 0.79693115 1.1963824e-39
0.075567268 0.33569014 0.78542763 5.0613808e-39
0.082594812 0.32930705 0.7631864 6.3503161e-39
0.39579758 -0.080434479 0.83620006 4.1477285e-39
0.40260401 -0.080203623 0.83380002 4.423591e-39
0.38856307 -0.055429962 0.8311556 4.2366774e-39
0.40604383 -0.06047662 0.82392824 4.3281555e-39
0.35628727 -0.0065075019 0.83443779 5.7103641e-39
0.37915894 -0.020608261 0.81945711 7.0907762e-39
0.40260047 -0.027206579 0.8090626 1.0313293e-38
0.34811771 0.022140473 0.82633317 9.3913384e-39
0.37526208 0.015902817 0.80804449 1.0311135e-38
0.40087503 0.016796906 0.80175006 8.9386671e-39
0.3423959 0.060266655 0.81869817 9.4831725e-39
0.36301237 0.047926743 0.80235809 9.9441506e-39
0.11617392 0.11831895 0.83050007 1.4916222e-38
0.14310484 0.11297411 0.82608163 1.5100972e-38
0.17598522 0.11315934 0.82904208 1.5745979e-38
0.2027218 0.1186888 0.83766681 1.3720197e-38
0.34047493 0.10028273 0.81893957 7.8250916e-39
0.36190477 0.11678912 0.80000013 5.3401383e-39
0.038279049 0.15842572 0.83733338 1.4271935e-38
0.064364724 0.15052782 0.82296628 1.3902791e-38
0.099258363 0.13819787 0.81370836 1.3810595e-38
0.13746715 0.12760198 0.80650872 1.4824027e-38
0.18173853 0.12724948 0.80989581 1.6575016e-38
0.21928976 0.13724779 0.81457531 1.5745616e-38
0.26029456 0.14871414 0.81767136 1.4824021e-38
0.30336243 0.14905706 0.82879907 1.3166662e-38
0.34046328 0.13850194 0.82875329 1.0034539e-38
0.37487346 0.14216213 0.81109846 7.917653e-39
0.40168691 0.14434214 0.80384618 9.9553372e-39
-0.015991969 0.19144537 0.80706292 1.2980846e-38
0.021714076 0.1731869 0.81393492 1.3718044e-38
0.05554447 0.16463937 0.80658239 1.3902072e-38
0.080761902 0.16076191 0.80000001 1.3256348e-38
0.27553058 0.16116077 0.80200011 1.6207312e-38
0.30339575 0.16527864 0.80776542 1.639279e-38
0.34250867 0.17552942 0.81732452 1.8236704e-38
0.37679005 0.18517169 0.82271338 1.8697685e-38
0.40821746 0.19455388 0.82803905 1.8051957e-38
-0.045278851 0.20579648 0.80496967 1.1968134e-38
-0.036364898 0.20134941 0.80257154 1.261242e-38
0.39173469 0.20415913 0.80364913 1.8789882e-38
0.40453732 0.2052097 0.81095338 1.8143795e-38
0.071819298 0.31158978 0.8034718 2.851215e-39
0.019067619 0.32497621 0.801 9.2123323e-40
0.068701819 0.33517507 0.80616415 3.2210779e-39
-0.0173127 0.37395436 0.83900011 9.2123603e-40
0.38614014 -0.086712644 0.86300045 3.87042e-39
0.40077907 -0.0879381 0.85100007 4.7012667e-39
0.3496595 -0.052518617 0.8669073 3.0399377e-39
0.37240359 -0.063345417 0.85346448 3.2243289e-39
0.31873313 -0.0041795238 0.87725008 1.095434e-38
0.34115908 -0.019290904 0.86000168 6.1688199e-39
0.36236 -0.031498827 0.8435685 3.9597331e-39
0.3157829 0.021730356 0.86979306 1.1690826e-38
0.33067065 0.017651694 0.85766226 1.0770667e-38
0.31497139 0.064389549 0.86676782 1.1785175e-38
0.32393771 0.057029255 0.85033458 1.0404041e-38
0.10886342 0.11746708 0.84564281 1.4824761e-38
0.14515038 0.10563672 0.84100002 1.4823302e-38
0.17718464 0.10696128 0.84599996 1.4730769e-38
0.20103905 0.11613809 0.84100002 1.3811317e-38
0.30825979 0.1023201 0.85920465 1.1876646e-38
0.32175446 0.096504442 0.84356552 1.0311121e-38
0.036968518 0.15671371 0.8516472 1.5841426e-38
0.057877157 0.14446861 0.84682238 1.445597e-38
0.09415216 0.12605168 0.85112494 1.4363057e-38
0.23371421 0.1337906 0.86907971 1.362764e-38
0.26371118 0.13439462 0.86176473 1.3167025e-38
0.29729626 0.13172992 0.8521558 1.2061396e-38
0.37701976 0.15671316 0.84227288 1.3627283e-38
0.034522861 0.16056952 0.84300005 1.4180095e-38
0.38628981 0.17027487 0.84791011 1.9343053e-38
0.4154886 0.18541278 0.85828364 1.7499861e-38
0.44083336 0.19083335 0.87500006 1.6945621e-38
-0.043258101 0.35749239 0.85700005 4.2319942e-39
-0.013084214 0.3570278 0.85690963 1.1041882e-39
0.0083168531 0.35716522 0.86726099 8.2832013e-40
-0.042753059 0.37201592 0.85270596 2.3027398e-39
-0.019755727 0.36881807 0.85014355 1.1052686e-39
0.0184773 0.37111247 0.86154211 7.3684477e-40
0.046741091 0.38539508 0.87407905 1.1049098e-39
0.35858285 -0.081189528 0.88800007 3.8696885e-39
0.37105796 -0.08892557 0.88710988 3.6842239e-39
0.34273157 -0.057878546 0.89052397 3.5923926e-39
0.36325026 -0.078184761 0.88272738 3.5927499e-39
0.31539309 -0.0078674294 0.88269091 1.0308974e-38
0.32844228 -0.032040771 0.89157325 4.1437643e-39
0.31280312 0.022830155 0.90085018 8.1031261e-39
0.30887848 0.059490435 0.89198232 1.1050853e-38
0.22564127 0.11743677 0.90536529 1.4089012e-38
0.26451966 0.11631459 0.90404367 1.2890444e-38
0.29308024 0.10056792 0.89358574 1.2153955e-38
0.22816668 0.12554947 0.89088261 1.3259222e-38
0.2567254 0.12417184 0.88704926 1.3351775e-38
0.28194132 0.12107201 0.88160002 1.2981909e-38
0.43242735 0.18293718 0.88712513 1.6853411e-38
0.44477203 0.18555871 0.89018428 1.6116209e-38
0.031294741 0.35835141 0.88757145 1.380775e-39
0.035606474 0.36578637 0.88482797 1.2892997e-39
0.058142647 0.37931764 0.89742464 1.7502764e-39
0.30793226 0.033392597 0.91999996 1.1678239e-38
0.065774038 0.36985877 0.92084211 2.8562723e-39
-0.0201823 0.16047013 0.9545601 7.6479157e-39
-0.094679192 0.003081019 0.5565694 5.075461e-39
-0.11345889 0.098127253 0.5828501 9.6798377e-39
