# .PCD v0.7 - Point Cloud Data file format
VERSION 0.7
FIELDS x y z rgb
SIZE 4 4 4 4
TYPE F F F F
COUNT 1 1 1 1
WIDTH 293
HEIGHT 1
VIEWPOINT 0 0 0 1 0 0 0
POINTS 293
DATA ascii
-0.31545317 0.22954634 0.51900005 1.0136472e-38
-0.28319266 -0.084629327 0.55068505 1.6409405e-38
-0.27211666 -0.086484656 0.55306005 7.6613023e-39
-0.28423637 -0.060374368 0.55513906 1.6684545e-38
-0.27167693 -0.061389048 0.55503422 5.6315481e-39
-0.22668344 -0.040589761 0.53608346 4.5169132e-39
-0.25723147 -0.015386453 0.55289596 5.2631229e-39
-0.22745761 -0.023974985 0.53698492 6.270784e-39
-0.28513685 0.024690891 0.55553448 9.4821047e-39
-0.25628459 0.016854031 0.55497104 5.7168801e-39
-0.21797605 0.019928055 0.55068165 6.7270734e-39
-0.1982277 0.02397595 0.55499142 1.0217191e-38
-0.25896338 0.052846745 0.55243522 9.4824592e-39
-0.22644353 0.058055054 0.55806094 1.0126027e-38
-0.19791201 0.040663999 0.546 1.4636774e-38
-0.30211544 0.14028931 0.54602385 1.2624687e-38
-0.32254297 0.18596847 0.53732616 8.5698748e-39
-0.29902181 0.18556502 0.54194057 9.7673404e-39
-0.27275893 0.19404927 0.55450982 9.766976e-39
-0.32621959 0.2067026 0.5428164 8.2043237e-39
-0.29679173 0.22012395 0.53675181 9.3992739e-39
-0.27260244 0.20821054 0.54017121 7.5564487e-39
-0.29331523 0.24119349 0.53466672 9.3981893e-39
-0.26370567 -0.087322593 0.56145465 9.787229e-39
-0.28621584 -0.040954445 0.56583327 1.5486699e-38
-0.26004952 -0.056338731 0.56387657 7.5723717e-39
-0.22357321 -0.047862981 0.58118421 9.2206896e-39
-0.2927466 -0.020083139 0.57539088 1.309213e-38
-0.27193683 -0.027934905 0.56193066 7.4729145e-39
-0.2245675 -0.018436592 0.58100897 8.8573371e-39
-0.19546016 -0.0032040747 0.59368515 1.1059539e-38
-0.28848043 0.023076508 0.56379014 9.6719063e-39
-0.27317333 0.026074 0.56287533 4.9764256e-39
-0.21635331 0.0197294 0.57587314 7.0094491e-39
-0.19404529 0.014249964 0.59120917 8.7633226e-39
-0.2931456 0.054259963 0.57423383 1.1421807e-38
-0.2560657 0.067325123 0.56628281 7.4570406e-39
-0.21738288 0.056182697 0.56704313 8.5641182e-39
-0.18850791 0.062100045 0.5740996 7.2006843e-39
-0.25673237 0.094318233 0.57385653 1.2157929e-38
-0.22250916 0.0992487 0.57645333 1.0035993e-38
-0.18850432 0.098138042 0.57550979 9.2217672e-39
-0.21252419 0.12654169 0.58777583 1.1418922e-38
-0.19448544 0.12550277 0.59562141 1.2337643e-38
-0.25545406 0.19489448 0.56443423 1.1794204e-38
-0.23512217 0.19876698 0.57653856 1.2440303e-38
-0.28603691 0.22374338 0.56290442 6.6341365e-39
-0.25323215 0.21721184 0.57240498 9.0297767e-39
-0.22827812 0.22216962 0.5842548 9.4907591e-39
-0.24295641 0.24407478 0.58992857 6.8160068e-39
-0.22504796 0.24188331 0.5872221 6.8163669e-39
-0.22119923 -0.0063875816 0.60127246 1.2249822e-38
-0.20726703 0.035202347 0.62971711 1.4556482e-38
-0.19942857 0.029142857 0.60000002 1.3910756e-38
-0.2408424 0.077370316 0.61083341 9.3906279e-39
-0.22521161 0.068564542 0.61462426 8.8399765e-39
-0.189081 0.061276633 0.62615913 1.7230513e-38
-0.24493687 0.084032282 0.61411119 1.1139099e-38
-0.22581191 0.081929885 0.60546994 1.0221454e-38
-0.17856026 0.1038279 0.62160969 1.8971408e-38
-0.20281047 0.13973136 0.60328895 1.2434485e-38
-0.17757128 0.14020067 0.61797869 1.4364865e-38
-0.15755157 0.15285157 0.63606673 1.731368e-38
-0.17413205 0.17466126 0.62918198 9.4831795e-39
-0.15462469 0.17414969 0.63669068 1.2706784e-38
-0.21592955 0.23574987 0.60033333 1.0320523e-38
0.19889125 0.27228227 0.63843262 8.3757473e-39
0.22038025 0.26387104 0.63493854 9.5735688e-39
0.25257969 0.26800188 0.63591158 1.3813486e-38
0.1987946 0.2832984 0.63833344 7.5456251e-39
0.21827741 0.28236449 0.63382196 8.0991562e-39
0.25524855 0.28283021 0.63539374 1.1785542e-38
-0.16595979 0.11251984 0.64606369 1.823455e-38
-0.15867738 0.11765286 0.65274996 1.7496978e-38
-0.16266645 0.12662047 0.64433336 1.8233476e-38
-0.14766388 0.14428297 0.65609163 1.7588462e-38
-0.17220448 0.19671644 0.64140993 7.7332618e-39
-0.13599192 0.18039128 0.65321624 1.5285379e-38
-0.11471347 0.1898057 0.67203444 1.7220405e-38
-0.16640456 0.21580182 0.65309429 7.8243784e-39
-0.138492 0.21892972 0.65429217 9.2977092e-39
-0.10813289 0.22113571 0.66968602 1.454818e-38
0.1915295 0.23543309 0.67151886 1.1322752e-38
0.22070503 0.23092882 0.66312546 1.2336906e-38
0.25831959 0.23054388 0.66643149 1.602365e-38
0.2867797 0.23504612 0.67291349 1.9158666e-38
-0.16047429 0.24039428 0.66600001 8.8352835e-39
-0.13634621 0.25354564 0.66920966 7.3633988e-39
-0.10789406 0.25270793 0.67359495 9.4813816e-39
0.15570416 0.27197289 0.67442137 9.8501487e-39
0.18091889 0.26003879 0.65762651 1.0033821e-38
0.21635586 0.24548355 0.64442366 1.0493363e-38
0.26389375 0.25292903 0.64636725 1.68545e-38
0.29770339 0.26092851 0.66100234 1.9898039e-38
0.32432851 0.27129954 0.67612201 2.045085e-38
0.15305521 0.2903921 0.67192912 8.4672156e-39
0.17623846 0.28638476 0.65313357 8.0987961e-39
0.27498323 0.28447649 0.64219165 1.4458128e-38
0.30177441 0.28777426 0.65563041 1.6669744e-38
0.3295978 0.2924504 0.67337888 1.6854137e-38
-0.12978597 0.15597223 0.68152189 1.6112971e-38
-0.12217525 0.16472241 0.6815483 1.6298081e-38
-0.10581288 0.18618822 0.69422948 1.6482113e-38
0.19652669 0.19839424 0.71899998 1.2704256e-38
0.223436 0.19612473 0.71559602 1.3533291e-38
0.25415736 0.19641113 0.71529764 1.5468317e-38
-0.0895532 0.21728808 0.69264621 1.6022221e-38
-0.073036686 0.22959092 0.70720685 1.5192459e-38
0.15399578 0.23167254 0.71332783 1.1139802e-38
0.18002716 0.22070347 0.70233792 1.1875566e-38
0.21847291 0.21181284 0.69660562 1.2704966e-38
0.26024723 0.21128389 0.69711983 1.5745982e-38
0.29846048 0.22158389 0.70114505 1.9249783e-38
0.32662296 0.23253168 0.71257615 2.0633799e-38
-0.12767701 0.27543616 0.68185705 7.0864518e-39
-0.092994355 0.26383078 0.68578392 9.7579671e-39
-0.067091666 0.2607905 0.70492786 1.1968497e-38
0.14394011 0.26092353 0.70010865 1.0494436e-38
0.16582315 0.24556242 0.68543762 1.1230559e-38
0.31371799 0.24633592 0.68619043 2.0727797e-38
0.33879954 0.25936443 0.70222944 2.026682e-38
-0.1226307 0.28571305 0.68866676 7.1797264e-39
-0.096685231 0.29535171 0.70047474 6.4418069e-39
-0.066673115 0.2946173 0.71186578 7.8225791e-39
0.11561315 0.30380875 0.71398431 8.2831845e-39
0.13238661 0.29424015 0.69528532 8.835638e-39
0.3400256 0.28469339 0.68395829 1.9250509e-38
0.10925715 0.32026002 0.71700001 7.7303723e-39
0.15954095 0.15881905 0.75800002 1.3347823e-38
0.18275359 0.15532602 0.75569916 1.4176866e-38
0.21423726 0.15736619 0.75574958 1.5282491e-38
0.24259429 0.15874177 0.75714284 1.6020048e-38
-0.096029758 0.1918404 0.72236568 1.42705e-38
0.031609491 0.1967425 0.75540787 1.2335113e-38
0.060855802 0.19344892 0.75416535 1.261242e-38
0.097331934 0.19386102 0.75536251 1.2704255e-38
0.14718153 0.18276043 0.74804044 1.187557e-38
0.17961322 0.1803737 0.73621219 1.3072314e-38
0.21950236 0.17709051 0.73562813 1.4361614e-38
0.25907332 0.17995667 0.73838705 1.6850173e-38
0.29726994 0.19098377 0.74418426 1.8417497e-38
0.32639956 0.19632961 0.75411862 1.8971754e-38
-0.08372853 0.20465328 0.73292297 1.4086469e-38
-0.063821733 0.22461843 0.73560089 1.3625489e-38
-0.017172191 0.22780718 0.75005805 1.1045092e-38
0.020015558 0.22048415 0.74562037 1.1138009e-38
0.0597381 0.22007658 0.744192 1.113873e-38
0.099331602 0.21925998 0.7487703 1.0033464e-38
0.13834114 0.21893188 0.73724532 9.7572342e-39
0.16697344 0.20417671 0.72213966 1.2060319e-38
0.27986097 0.20009716 0.72200006 1.7590253e-38
0.30640456 0.20568323 0.72779858 1.9156503e-38
0.34057665 0.21879229 0.73739278 1.9802599e-38
0.36710811 0.22531067 0.74754184 1.8881365e-38
-0.04780338 0.25624707 0.73197067 1.1599349e-38
-0.020148182 0.25994915 0.73418045 9.8483536e-39
0.019709203 0.25994435 0.73486638 9.204422e-39
0.059514821 0.25953838 0.74128008 7.9136859e-39
0.10210288 0.26060379 0.74845868 6.6243877e-39
0.1273941 0.25465682 0.73136657 8.8363583e-39
0.35399932 0.24767065 0.72405207 1.9067558e-38
0.36285377 0.24734074 0.72896254 1.7869015e-38
-0.084734701 0.31846535 0.72000003 5.7013664e-39
-0.050847143 0.30397058 0.72311318 7.177567e-39
-0.020637322 0.29873785 0.72842097 7.1775656e-39
0.0192082 0.29873136 0.73937666 6.0719369e-39
0.056238044 0.29465169 0.75088233 5.1507023e-39
0.10270952 0.29886183 0.73819536 7.2697529e-39
-0.087208271 0.32144704 0.72253352 1.0314015e-38
-0.057212047 0.32474229 0.73153698 4.9673999e-39
-0.019506902 0.3255806 0.73919719 3.9546871e-39
0.014625067 0.32323164 0.75048006 2.2994859e-39
0.094337359 0.32654375 0.74356914 6.1648472e-39
0.39003512 -0.013829518 0.79666406 6.7212776e-39
0.35897335 0.038253337 0.79800004 9.573573e-39
0.3798779 0.021758692 0.79129589 1.049409e-38
0.35595003 0.064502157 0.79486018 8.929284e-39
0.37432581 0.059480816 0.78363699 9.2991483e-39
0.14991899 0.11828259 0.79670376 1.4638917e-38
0.17530526 0.11774934 0.79644799 1.5653064e-38
0.35626259 0.092673138 0.79445934 6.6276359e-39
0.37465322 0.10004074 0.78442198 5.3397823e-39
0.072018363 0.15521255 0.79310489 1.3808799e-38
0.10348158 0.1470518 0.78660285 1.3256347e-38
0.14057969 0.14062232 0.77822393 1.3716965e-38
0.17870194 0.13604003 0.77572858 1.5099533e-38
0.21912809 0.14183848 0.77693677 1.6112605e-38
0.25715587 0.15001222 0.78123206 1.6112606e-38
0.29373199 0.15599872 0.79355896 1.5745261e-38
0.38204405 0.1276207 0.79207814 5.8915128e-39
-0.0055410014 0.19614446 0.77901679 1.2611343e-38
0.021663995 0.18514243 0.7747615 1.2979404e-38
0.059699062 0.17356333 0.77370828 1.3716607e-38
0.10050054 0.17451367 0.76740402 1.2887924e-38
0.12935932 0.17600082 0.76339626 1.076959e-38
0.26913011 0.16456932 0.765634 1.7033848e-38
0.30218443 0.17183559 0.77459174 1.7220036e-38
0.33843654 0.18422428 0.77968538 1.9340898e-38
0.37447473 0.19411941 0.79090321 1.8511497e-38
0.40026906 0.19899477 0.79750001 1.878844e-38
-0.049825538 0.22786273 0.77163142 1.0493364e-38
-0.02116132 0.21148057 0.76910752 1.1966329e-38
0.0043782019 0.20203465 0.76259267 1.2057805e-38
0.12549511 0.20268418 0.76037049 7.545265e-39
0.35317093 0.20388252 0.76145279 1.943166e-38
0.37846863 0.20725313 0.77484936 1.8880641e-38
0.1029653 0.27680188 0.7605263 3.4018678e-39
0.039809525 0.31920004 0.76000005 2.4838856e-39
0.068590298 0.30617151 0.76471937 3.3103981e-39
0.090030476 0.30167931 0.76769549 3.5869779e-39
0.035080642 0.32267433 0.76000023 1.7484786e-39
0.075829774 0.33514389 0.7900697 3.3114743e-39
0.083087578 0.33089393 0.77085847 4.4156568e-39
0.39434347 -0.086709827 0.83043909 3.5005613e-39
0.40737861 -0.090494931 0.827434 4.238485e-39
0.3587724 -0.04155048 0.83900005 2.3030985e-39
0.38324398 -0.056804378 0.82516968 3.7760608e-39
0.40329552 -0.063457884 0.81444609 5.1564701e-39
0.35394973 -0.01361319 0.82984805 4.7880505e-39
0.37502688 -0.022610702 0.81343508 7.18189e-39
0.40109372 -0.037160002 0.8028 9.1154731e-39
0.34788406 0.021668181 0.81959349 9.3899006e-39
0.36550447 0.01270076 0.80377162 1.086287e-38
0.34096146 0.059716605 0.81675398 8.9296413e-39
0.11314636 0.11689042 0.82606673 1.399427e-38
0.14140475 0.11053641 0.81467772 1.4546364e-38
0.1796229 0.10744142 0.81352741 1.537648e-38
0.20984133 0.11399518 0.81747073 1.5008054e-38
0.31750855 0.11594407 0.83795232 1.0955406e-38
0.33935049 0.10111349 0.82013488 8.5601329e-39
0.36172736 0.11839837 0.80057156 7.0868091e-39
0.064671189 0.14907444 0.81309384 1.3901715e-38
0.097677767 0.13087818 0.81299961 1.3901713e-38
0.12549195 0.12170974 0.80200005 1.4270137e-38
0.19885714 0.12114286 0.80000001 1.685016e-38
0.22395068 0.12580174 0.80909854 1.5375756e-38
0.26232579 0.13629022 0.81642759 1.4086099e-38
0.30285165 0.14008088 0.82312208 1.2889718e-38
0.33946368 0.13929144 0.82172751 1.2336906e-38
0.37386647 0.14380972 0.82099926 1.2614216e-38
0.40032288 0.15022096 0.83900005 1.8246424e-38
0.031904552 0.16710438 0.80330443 1.3902076e-38
0.044388533 0.16142382 0.80299991 1.4177944e-38
0.34678441 0.16793056 0.80840999 1.8604048e-38
0.37992325 0.17691113 0.81538445 1.8696968e-38
0.40677944 0.18600731 0.82254803 1.8512215e-38
0.072380953 0.32838094 0.80000007 1.5662411e-39
-0.0052772625 0.37205461 0.83674997 1.2878606e-39
0.3805643 -0.087347724 0.8528561 3.3165259e-39
0.40588439 -0.098001562 0.84163165 5.1597239e-39
0.35088325 -0.055839702 0.85979855 2.9473805e-39
0.36946678 -0.069619134 0.84692419 2.947742e-39
0.31783202 -0.0020825001 0.87362504 9.7611929e-39
0.33885428 -0.019950334 0.85925066 8.0076878e-39
0.31705371 0.013170494 0.86441696 1.0680275e-38
0.33015144 0.018969778 0.85571885 1.1137652e-38
0.3160533 0.066275097 0.86745167 1.1600785e-38
0.3253856 0.057040233 0.8511194 1.1139447e-38
0.10344572 0.11868095 0.84200001 1.3621524e-38
0.2336046 0.11709838 0.87557149 1.2889721e-38
0.26444346 0.11749792 0.87154371 1.3074113e-38
0.30530649 0.10320856 0.8585065 1.1875926e-38
0.32227796 0.089978091 0.84453803 1.1415309e-38
0.097435713 0.12309001 0.84200001 1.3716239e-38
0.23804933 0.12309191 0.8683573 1.3073755e-38
0.26103666 0.12575592 0.85646719 1.2981558e-38
0.2925843 0.12476631 0.84716964 1.2153235e-38
0.39831001 0.15868333 0.84150004 1.961676e-38
0.40137812 0.15910825 0.84233344 1.8879194e-38
0.39789909 0.16473667 0.84275007 1.9986623e-38
0.42000321 0.17488497 0.85841161 1.7774288e-38
-0.00080095237 0.37484574 0.84100002 1.1041896e-39
0.022312868 0.3754096 0.85307896 9.2015703e-40
0.049150795 0.38341299 0.87105268 1.3807764e-39
0.35763571 -0.08143381 0.88150001 2.9484539e-39
0.34261978 -0.057404004 0.88440204 3.4994767e-39
0.31871378 -0.0033766669 0.89250004 5.1593511e-39
0.32845908 -0.023973174 0.88633341 5.4316206e-39
0.31670651 0.023478167 0.89999181 6.9989295e-39
0.32152939 0.019038569 0.89316893 7.8283427e-39
0.31226844 0.060279898 0.88790321 1.0130343e-38
0.23028657 0.11090072 0.88640511 1.3258516e-38
0.26220605 0.11081886 0.89111483 1.2797892e-38
0.29406109 0.096202478 0.8898896 1.2153595e-38
0.42843276 0.16796541 0.88033336 1.7496632e-38
0.44607523 0.17719671 0.89073682 1.6298802e-38
0.065538794 0.38462749 0.89382774 1.8421147e-39
0.11127122 0.25755078 0.66251659 9.9416297e-39
-0.12670134 0.13639854 0.61664981 1.39968e-38
-0.021347351 0.13255377 0.75601315 1.1146312e-38
-0.097258322 0.16963392 0.62629187 8.7524752e-39
0.16460559 0.17561029 0.88867736 1.1418204e-38
-0.23402971 0.023091804 0.56788152 8.7528479e-39
