# .PCD v0.7 - Point Cloud Data file format
VERSION 0.7
FIELDS x y z rgb
SIZE 4 4 4 4
TYPE F F F F
COUNT 1 1 1 1
WIDTH 344
HEIGHT 1
VIEWPOINT 0 0 0 1 0 0 0
POINTS 344
DATA ascii
-0.20952816 -0.12954776 0.51270753 1.181832e-38
-0.19802815 -0.12751706 0.51078737 1.181832e-38
-0.090170465 -0.13360998 0.50408334 1.181832e-38
-0.078284189 -0.12797557 0.5027501 1.181832e-38
-0.2826218 -0.097952276 0.51726925 1.181832e-38
-0.2691597 -0.099839926 0.50843352 1.181832e-38
-0.21733053 -0.11493025 0.5124644 1.181832e-38
-0.1986032 -0.11871492 0.50533342 1.181832e-38
-0.28200662 0.10784392 0.5112223 1.181832e-38
-0.26618454 0.099562161 0.50365192 1.181832e-38
-0.22596128 0.13792165 0.51584882 1.181832e-38
-0.21176827 -0.16088827 0.55266672 1.181832e-38
-0.24758705 -0.12961145 0.52991664 1.181832e-38
-0.22307281 -0.1322064 0.53774679 1.181832e-38
-0.28521138 -0.094694287 0.52166671 1.181832e-38
-0.24554788 -0.098397031 0.54427999 1.181832e-38
-0.22366785 -0.10406847 0.53745252 1.181832e-38
-0.24886073 -0.077349491 0.5482856 1.181832e-38
-0.23600063 -0.077149212 0.54036367 1.181832e-38
-0.24912068 0.13721715 0.53356957 1.181832e-38
-0.23731242 0.13608365 0.52976358 1.181832e-38
-0.20496146 0.16988896 0.5539785 1.181832e-38
-0.19375166 0.18166545 0.55638683 1.181832e-38
-0.32365391 -0.20587909 0.59633338 1.181832e-38
-0.29264379 -0.20365676 0.5911786 1.181832e-38
-0.33233532 -0.17783861 0.59412003 1.181832e-38
-0.2924175 -0.18607803 0.58438545 1.181832e-38
-0.27752906 -0.18153366 0.58048332 1.181832e-38
-0.21213649 -0.16495901 0.56170464 1.181832e-38
-0.32047734 -0.15768421 0.59600002 1.181832e-38
-0.31254181 -0.15484148 0.59350657 1.181832e-38
-0.26487878 -0.12554526 0.5975967 1.181832e-38
-0.20643537 -0.14707871 0.56622189 1.181832e-38
-0.19746654 -0.14185186 0.5663954 1.181832e-38
-0.25811669 -0.11775222 0.59610355 1.181832e-38
-0.34294948 0.19665344 0.59539998 1.181832e-38
-0.20263281 0.18642758 0.56361663 1.181832e-38
-0.1969166 0.1820717 0.56144595 1.181832e-38
-0.34550548 0.20724769 0.59750009 1.181832e-38
-0.36993098 -0.20503052 0.61660719 1.181832e-38
-0.34393233 -0.21861467 0.61289322 1.181832e-38
-0.30799773 -0.20337485 0.61658335 1.181832e-38
-0.36439657 -0.19818118 0.61725003 1.181832e-38
-0.32788661 -0.1780826 0.60983729 1.181832e-38
-0.31169799 -0.18548241 0.61316085 1.181832e-38
-0.28876278 -0.12955514 0.61059135 1.181832e-38
-0.27635306 -0.12914208 0.60530967 1.181832e-38
-0.2651282 -0.11619588 0.60300004 1.181832e-38
-0.29676989 -0.0011965239 0.62825006 1.181832e-38
-0.321989 0.0076339883 0.63506258 1.181832e-38
-0.29869825 0.01052969 0.620112 1.181832e-38
-0.26181594 0.13998094 0.62490565 1.181832e-38
-0.34171429 0.19942857 0.60000002 1.181832e-38
-0.37288913 0.2287824 0.6191476 1.181832e-38
-0.35126853 0.21680875 0.60418433 1.181832e-38
-0.37678573 0.24107145 0.625 1.181832e-38
-0.39260903 -0.20590594 0.64902169 1.181832e-38
-0.32232308 0.0016804761 0.64249998 1.181832e-38
-0.3187061 0.0014228573 0.64066672 1.181832e-38
-0.41183859 -0.24140316 0.7169615 1.181832e-38
-0.34179044 -0.2640292 0.71568751 1.181832e-38
-0.41408437 -0.23713546 0.71602851 1.181832e-38
-0.40613055 0.18563494 0.69090015 1.181832e-38
-0.39065707 0.18462518 0.68898064 1.181832e-38
-0.41537976 -0.25472984 0.74370003 1.181832e-38
-0.37981686 -0.26633477 0.74531531 1.181832e-38
-0.35358158 -0.26326242 0.72544324 1.181832e-38
-0.44259971 -0.23380153 0.74442875 1.181832e-38
-0.4278999 -0.23346801 0.73914576 1.181832e-38
-0.41728559 0.30296001 0.75753856 1.181832e-38
-0.36360061 -0.29302987 0.77314878 1.181832e-38
-0.34118548 -0.28220701 0.76766396 1.181832e-38
-0.36175153 -0.27117884 0.79126346 1.181832e-38
-0.35268939 -0.26736233 0.78265607 1.181832e-38
-0.44298923 -0.23075904 0.76172733 1.181832e-38
-0.43518549 -0.23154204 0.7607556 1.181832e-38
-0.30399621 0.22969969 0.796 1.181832e-38
-0.44404387 0.30224305 0.78080571 1.181832e-38
-0.42462343 0.29907155 0.768951 1.181832e-38
-0.43568259 0.32645679 0.7735939 1.181832e-38
-0.28457302 -0.24099186 0.82011116 1.181832e-38
-0.2778762 -0.24139525 0.81500006 1.181832e-38
-0.28765631 -0.23143655 0.82768029 1.181832e-38
-0.26963663 -0.23016158 0.8141976 1.181832e-38
-0.34180996 0.23882192 0.83547622 1.181832e-38
-0.30600289 0.23494764 0.81785727 1.181832e-38
-0.33702186 0.24479803 0.83609372 1.181832e-38
-0.30999741 0.24511707 0.82864088 1.181832e-38
-0.31032079 -0.2425355 0.85457152 1.181832e-38
-0.32245949 -0.2355821 0.850353 1.181832e-38
-0.3110742 -0.23411798 0.85095567 1.181832e-38
-0.33672485 0.25865126 0.84854096 1.181832e-38
-0.30042005 -0.16854768 0.93575591 1.181832e-38
-0.25851867 -0.16624914 0.93672019 1.181832e-38
-0.23848826 -0.16446583 0.9402222 1.181832e-38
-0.30549172 -0.15914127 0.93700016 1.181832e-38
-0.26032192 -0.15796663 0.9404375 1.181832e-38
-0.23902857 -0.15845715 0.94000006 1.181832e-38
-0.43200001 0.23850001 0.94500005 1.181832e-38
-0.45555115 0.25925994 0.9525528 1.181832e-38
-0.4268063 0.24831218 0.9391548 1.181832e-38
-0.44829497 0.22950526 0.97403443 1.181832e-38
-0.45366359 0.26277292 0.96700025 1.181832e-38
-0.46308994 0.30228436 0.99206668 1.181832e-38
-0.49161467 0.27757964 1.0270001 1.181832e-38
-0.49863327 0.29168761 1.0277228 1.181832e-38
-0.46510896 0.30278122 1.0107874 1.181832e-38
-0.45532021 0.34163365 1.0212224 1.181832e-38
-0.43746215 0.35700074 1.0117501 1.181832e-38
-0.45037398 0.36719668 1.0226334 1.181832e-38
-0.43940005 0.36407432 1.0140002 1.181832e-38
-0.50864631 0.43406352 1.0384704 1.181832e-38
-0.50787252 0.44221568 1.0360001 1.181832e-38
-0.53060466 0.27278599 1.063831 1.181832e-38
-0.51670885 0.27725574 1.0712501 1.181832e-38
-0.52420658 0.2832081 1.0668668 1.181832e-38
-0.51673281 0.28781268 1.0614614 1.181832e-38
-0.45935324 0.38863707 1.0500621 1.181832e-38
-0.52480215 0.4193126 1.0640556 1.181832e-38
-0.50332922 0.42846164 1.0549569 1.181832e-38
-0.45295659 0.42167136 1.0603358 1.181832e-38
-0.43411162 0.43133 1.0595555 1.181832e-38
-0.51163781 0.44522545 1.0534999 1.181832e-38
-0.43877333 0.44079998 1.064 1.181832e-38
-0.51922321 0.27831465 1.0810001 1.181832e-38
-0.51616365 0.28551519 1.0835836 1.181832e-38
-0.44834253 0.428083 1.0881852 1.181832e-38
-0.43801069 0.42707953 1.0893334 1.181832e-38
-0.49666631 0.45107353 1.0987436 1.181832e-38
-0.47690225 0.44308195 1.0870001 1.181832e-38
-0.20263281 0.18642758 0.56361663 1.181832e-38
-0.2802586 -0.055479087 0.66729736 1.181832e-38
-0.23159328 -0.10345183 0.97540426 1.181832e-38
-0.265809 -0.16642088 0.93756616 1.181832e-38
-0.20377815 -0.12853241 0.51174748 1.181832e-38
-0.32047734 -0.15768421 0.59600002 1.181832e-38
-0.19203484 -0.1159397 0.5454343 1.181832e-38
-0.18318713 -0.19397685 1.0793101 1.181832e-38
-0.21213649 -0.16495901 0.56170464 1.181832e-38
-0.088478051 0.08226195 0.58841097 1.181832e-38
-0.66176856 -0.57145786 1.5804169 1.9389346e-40
-0.65660781 -0.48345897 1.5855001 1.9389346e-40
-0.63992864 -0.48032287 1.5810001 1.9389346e-40
-0.64755011 -0.47055113 1.57288 1.9389346e-40
-0.63803977 -0.47090575 1.5763334 1.9389346e-40
-0.68005532 -0.58045912 1.6340002 1.9389346e-40
-0.67269719 -0.59249467 1.6300001 1.9389346e-40
-0.66916192 -0.5213238 1.6340001 1.9389346e-40
-0.66066265 -0.50395209 1.6211524 1.9389346e-40
-0.44040191 -0.46530098 1.6340002 1.9389346e-40
-0.43728957 -0.46530098 1.6340002 1.9389346e-40
-0.65964007 -0.60068667 1.6730001 1.9389346e-40
-0.68957496 -0.58558321 1.6543335 1.9389346e-40
-0.66716516 -0.5943861 1.6618001 1.9389346e-40
-0.48047146 -0.51535714 1.6650001 1.9389346e-40
-0.46410295 -0.50317854 1.6662 1.9389346e-40
-0.43624127 -0.48972607 1.6676668 1.9389346e-40
-0.44395238 -0.47700858 1.6530001 1.9389346e-40
-0.43239617 -0.47157273 1.6450001 1.9389346e-40
-0.68926668 -0.63209999 1.715 1.9389346e-40
-0.66468954 -0.60338283 1.694 1.9389346e-40
-0.68763334 -0.59028667 1.715 1.9389346e-40
-0.65979433 -0.59996003 1.6980001 1.9389346e-40
-0.68273336 -0.5308333 1.715 1.9389346e-40
-0.67760956 -0.52309525 1.6900001 1.9389346e-40
-0.49428496 -0.53367674 1.7025759 1.9389346e-40
-0.47034797 -0.52418071 1.6973636 1.9389346e-40
-0.43656671 -0.52336669 1.7150002 1.9389346e-40
-0.45876062 -0.50661367 1.6936842 1.9389346e-40
-0.43510461 -0.50113559 1.7042086 1.9389346e-40
-0.68383223 -0.64697701 1.7590001 1.9389346e-40
-0.65649956 -0.64692175 1.7560966 1.9389346e-40
-0.7344417 -0.62045622 1.7560003 1.9389346e-40
-0.6954788 -0.61844915 1.7380377 1.9389346e-40
-0.66439712 -0.62072194 1.7485194 1.9389346e-40
-0.63836575 -0.60207623 1.7320001 1.9389346e-40
-0.76223338 -0.5796324 1.7590001 1.9389346e-40
-0.74772 -0.58261216 1.7578753 1.9389346e-40
-0.69131911 -0.57966912 1.739105 1.9389346e-40
-0.65959764 -0.5875116 1.7445583 1.9389346e-40
-0.52099907 -0.57460672 1.7590001 1.9389346e-40
-0.50474554 -0.57234222 1.7546961 1.9389346e-40
-0.68736953 -0.54904854 1.733421 1.9389346e-40
-0.67706501 -0.55352646 1.7297502 1.9389346e-40
-0.52612406 -0.53912705 1.72795 1.9389346e-40
-0.49854973 -0.55117083 1.7336156 1.9389346e-40
-0.45665705 -0.53876674 1.729517 1.9389346e-40
-0.43329319 -0.52969515 1.728143 1.9389346e-40
-0.42717287 -0.50684381 1.7274997 1.9389346e-40
-0.68867809 -0.65752769 1.7680001 1.9389346e-40
-0.66740423 -0.65336204 1.7734002 1.9389346e-40
-0.63275433 -0.64466101 1.7860001 1.9389346e-40
-0.76441616 -0.61067247 1.785357 1.9389346e-40
-0.74535805 -0.61439389 1.7869723 1.9389346e-40
-0.69818681 -0.60964078 1.7848259 1.9389346e-40
-0.65847063 -0.62439942 1.7737689 1.9389346e-40
-0.63200647 -0.63347363 1.7758263 1.9389346e-40
-0.76464063 -0.59257066 1.7713749 1.9389346e-40
-0.75016427 -0.59208298 1.7770001 1.9389346e-40
-0.69795573 -0.58855063 1.7854003 1.9389346e-40
-0.6505819 -0.59080666 1.7679998 1.9389346e-40
-0.52029717 -0.58259809 1.7680001 1.9389346e-40
-0.51393616 -0.58652699 1.7679999 1.9389346e-40
-0.73421657 -0.61125892 1.8121246 1.9389346e-40
-0.71472764 -0.60958022 1.8040001 1.9389346e-40
-0.66178572 -0.63625622 1.8270001 1.9389346e-40
-0.7273277 -0.59602863 1.8140001 1.9389346e-40
-0.70819896 -0.59686631 1.8040001 1.9389346e-40
-0.76498193 -0.60490572 1.9543335 1.9389346e-40
-0.74401039 -0.60350895 1.9360002 1.9389346e-40
-0.77315855 -0.59119415 1.9561667 1.9389346e-40
-0.74274731 -0.59718269 1.9294001 1.9389346e-40
-0.7776475 -0.60892707 1.9816473 1.9389346e-40
-0.7572366 -0.60981721 1.9848002 1.9389346e-40
-0.78417915 -0.58640909 1.9707196 1.9389346e-40
-0.77029431 -0.6116457 2.0070002 1.9389346e-40
-0.75732476 -0.61616093 2.003 1.9389346e-40
-0.78487909 -0.592327 2.0150001 1.9389346e-40
-0.72303593 -0.59098637 2.039 1.9389346e-40
-0.60865164 -0.65999645 1.9892129 1.9389346e-40
-0.90281212 -0.61046928 1.9912498 1.9389346e-40
-0.80751717 -0.60318196 2.0630002 1.9389346e-40
-0.78197533 -0.62675911 2.0630002 1.9389346e-40
-0.73207039 -0.60475379 2.0630002 1.9389346e-40
-0.80282003 -0.57037342 2.0510001 1.9389346e-40
-0.7882871 -0.57305366 2.0548182 1.9389346e-40
-0.73705786 -0.59413892 2.0510006 1.9389346e-40
-0.8221004 -0.65969533 2.1082222 1.9389346e-40
-0.76305336 -0.64628005 2.1140001 1.9389346e-40
-0.75802004 -0.64527339 2.1140001 1.9389346e-40
-0.81316751 -0.63512325 2.0958002 1.9389346e-40
-0.76914012 -0.62154096 2.1120002 1.9389346e-40
-0.75039876 -0.62525773 2.1016841 1.9389346e-40
-0.78433621 -0.59226954 2.1010001 1.9389346e-40
-0.82052416 -0.68485445 2.1517 1.9389346e-40
-0.79010165 -0.68276191 2.1400001 1.9389346e-40
-0.84274578 -0.64179909 2.1530001 1.9389346e-40
-0.81551433 -0.66418666 2.1501892 1.9389346e-40
-0.78720975 -0.66023153 2.1437142 1.9389346e-40
-0.81567949 -0.63523757 2.1530001 1.9389346e-40
-0.7857976 -0.62809718 2.1399999 1.9389346e-40
-0.83790672 -0.69550389 2.1670001 1.9389346e-40
-0.81078237 -0.65894496 2.1670001 1.9389346e-40
-0.85666716 -0.68785286 2.2155001 1.9389346e-40
1.3333372 1.0676914 5.3640003 4.8331232e-39
1.3690972 1.0574743 5.3640003 4.8331232e-39
1.3542172 1.0740343 5.4480004 4.8331232e-39
1.3818897 1.0671163 5.4480009 4.8331232e-39
1.3905373 1.0844115 5.4480004 4.8331232e-39
1.4320457 1.1103543 5.4480004 4.8331232e-39
1.4216685 1.1414858 5.4480009 4.8331232e-39
1.4164801 1.1726172 5.4480009 4.8331232e-39
1.3863858 1.1017287 5.5350003 4.8331232e-39
1.4127429 1.1122714 5.5350003 4.8331232e-39
1.3948201 1.1375743 5.5350003 4.8331232e-39
1.4188931 1.1368715 5.5350008 4.8331232e-39
1.3927115 1.1776372 5.5350003 4.8331232e-39
1.4134961 1.1785409 5.5350008 4.8331232e-39
1.4198954 1.1198421 5.6260004 4.8331232e-39
1.3984629 1.1466324 5.6260004 4.8331232e-39
1.4145372 1.1359162 5.6260004 4.8331232e-39
1.4627601 1.1332371 5.6260004 4.8331232e-39
1.4091791 1.1734231 5.6260009 4.8331232e-39
1.4597068 1.1165667 5.7190003 4.8331232e-39
1.4252113 1.1456158 5.7190008 4.8331232e-39
1.4760468 1.1274601 5.7190003 4.8331232e-39
1.3997934 1.1710334 5.7190003 4.8331232e-39
1.4106867 1.1655867 5.7190003 4.8331232e-39
1.3562201 1.2200533 5.7190003 4.8331232e-39
1.3714708 1.2167853 5.7190003 4.8331232e-39
1.4269826 1.1500778 5.8150001 4.8331232e-39
1.4509809 1.1353095 5.8150001 4.8331232e-39
1.4177524 1.1740761 5.8150001 4.8331232e-39
1.3568333 1.2349952 5.8150001 4.8331232e-39
1.3767705 1.2217038 5.8150001 4.8331232e-39
1.4454428 1.2183809 5.8150001 4.8331232e-39
1.3568333 1.2460715 5.8150001 4.8331232e-39
1.3679096 1.2516096 5.8150001 4.8331232e-39
1.4657935 1.1345534 5.9150004 4.8331232e-39
1.4815668 1.1323001 5.9150004 4.8331232e-39
1.4196001 1.1999002 5.9150004 4.8331232e-39
1.3914335 1.2337002 5.9150004 4.8331232e-39
1.4238253 1.221025 5.9150004 4.8331232e-39
1.4534001 1.2280667 5.9150004 4.8331232e-39
1.3576335 1.2618668 5.9150004 4.8331232e-39
1.3726556 1.2562335 5.9150004 4.8331232e-39
1.4327445 1.2487223 5.9150004 4.8331232e-39
1.4534001 1.2506 5.9150004 4.8331232e-39
1.4213943 1.2322571 6.0180001 4.8331232e-39
1.3927372 1.2609143 6.0180001 4.8331232e-39
1.408021 1.247541 6.0180006 4.8331232e-39
1.4500515 1.2437199 6.0180001 4.8331232e-39
1.3468857 1.3583486 6.0180001 4.8331232e-39
1.4118419 1.3507068 6.0180006 4.8331232e-39
1.3423007 1.383567 6.0180001 4.8331232e-39
1.393939 1.2772914 6.1240001 4.8331232e-39
1.4149356 1.2632937 6.1240001 4.8331232e-39
1.4464304 1.2422972 6.1240001 4.8331232e-39
1.393939 1.2889563 6.1240001 4.8331232e-39
1.4056039 1.2889563 6.1240001 4.8331232e-39
1.3793581 1.3560287 6.1240001 4.8331232e-39
1.4242674 1.3332824 6.1240001 4.8331232e-39
1.4444864 1.3550566 6.1240001 4.8331232e-39
1.3589448 1.3881066 6.1240001 4.8331232e-39
1.3856071 1.3806078 6.1240001 4.8331232e-39
1.4156022 1.3856072 6.1240001 4.8331232e-39
1.4522629 1.3706095 6.1240001 4.8331232e-39
1.3881066 1.4056039 6.1240001 4.8331232e-39
1.4172686 1.4114361 6.1240001 4.8331232e-39
1.4251429 1.2766905 6.2350001 4.8331232e-39
1.4488952 1.2648144 6.2350001 4.8331232e-39
1.4192048 1.2885666 6.2350001 4.8331232e-39
1.3895142 1.3538857 6.2350001 4.8331232e-39
1.4168295 1.3550733 6.2350001 4.8331232e-39
1.3835762 1.3717 6.2350001 4.8331232e-39
1.4221737 1.3746691 6.2350001 4.8331232e-39
1.4459262 1.3835762 6.2350001 4.8331232e-39
1.3967801 1.3060801 6.3490005 4.8331232e-39
1.4572468 1.28794 6.3490005 4.8331232e-39
1.3967801 1.3786402 6.3490005 4.8331232e-39
1.4149201 1.3786402 6.3490005 4.8331232e-39
1.4572468 1.3725934 6.3490005 4.8331232e-39
1.4229602 1.31208 6.4680004 4.8331232e-39
1.4722401 1.31208 6.4680004 4.8331232e-39
1.4352801 1.33056 6.4680004 4.8331232e-39
1.4599202 1.3244001 6.4680004 4.8331232e-39
1.4660802 1.386 6.4680004 4.8331232e-39
1.4326614 1.2970546 6.5920005 4.8331232e-39
1.4711671 1.3414199 6.5920005 4.8331232e-39
1.5004648 1.3288636 6.5920005 4.8331232e-39
1.4722135 1.3780421 6.5920005 4.8331232e-39
1.4879087 1.374903 6.5920005 4.8331232e-39
1.4690745 1.4062934 6.5920005 4.8331232e-39
1.4941868 1.4000154 6.5920005 4.8331232e-39
1.4591999 1.312 6.7200003 4.8331232e-39
1.5040001 1.312 6.7200003 4.8331232e-39
1.4656 1.3290668 6.7200003 4.8331232e-39
1.5039999 1.3376001 6.7200007 4.8331232e-39
1.536 1.3376001 6.7200003 4.8331232e-39
1.4784 1.4272001 6.7200003 4.8331232e-39
1.4784 1.4399999 6.7200003 4.8331232e-39
1.4946067 1.3249134 6.8530002 4.8331232e-39
1.5207133 1.3249134 6.8530002 4.8331232e-39
1.5315809 1.3384686 6.9920001 4.8331232e-39
