# .PCD v0.7 - Point Cloud Data file format
VERSION 0.7
FIELDS x y z rgb
SIZE 4 4 4 4
TYPE F F F F
COUNT 1 1 1 1
WIDTH 281
HEIGHT 1
VIEWPOINT 0 0 0 1 0 0 0
POINTS 281
DATA ascii
-0.052159257 -0.083581388 0.59379393 1.8533505e-38
-0.038903095 -0.080325477 0.58775002 2.1848925e-38
-0.049765386 -0.069023594 0.58810622 8.0293505e-39
-0.02037305 -0.058337711 0.58405215 8.3081038e-39
0.022391211 -0.055191375 0.59100074 7.9277914e-39
0.047123142 -0.053390909 0.59195095 6.9165304e-39
-0.0033531568 -0.023691896 0.59357917 7.0050966e-39
0.013618826 -0.017993022 0.58698362 5.4424681e-39
0.041651428 -0.039962858 0.59100002 5.7302373e-39
0.015399244 0.0012207006 0.58867651 9.7597706e-39
-0.064959854 -0.085224397 0.60470915 1.8439867e-38
-0.066256359 -0.07639958 0.6031667 1.0053331e-38
0.013378197 -0.060609743 0.60342175 1.0239165e-38
0.06635794 -0.044423837 0.61112201 4.6148808e-39
0.089634664 -0.046695266 0.6054306 6.1778807e-39
-0.0067161904 -0.031130249 0.60316008 6.4566088e-39
0.031650789 -0.023432344 0.60856432 9.1317478e-39
0.05976354 -0.020637922 0.61500984 7.1081313e-39
0.087691672 -0.029021785 0.61017907 1.410704e-38
0.038468573 0.00058285717 0.61200005 1.9345594e-38
0.06123095 0.01068123 0.60465479 1.2994912e-38
0.081068538 0.011759478 0.60845 1.2998893e-38
-0.0072597489 -0.082291901 0.66795921 1.427088e-38
0.005517778 -0.082469068 0.65796977 1.7598944e-38
-0.046300959 -0.047889378 0.66797787 1.1692277e-38
-0.026507093 -0.053009346 0.66736418 8.5619434e-39
0.0065706708 -0.075553775 0.65546143 1.5290072e-38
-0.049147252 -0.018769823 0.66326004 1.2891174e-38
-0.026605811 -0.01688426 0.66683173 9.0218356e-39
0.010069117 -0.0011782314 0.66571438 9.7597635e-39
0.099721938 -0.0097843325 0.64652163 8.1255328e-39
0.12589754 -0.0044403495 0.65192658 1.3475393e-38
-0.050826106 0.020359783 0.66110623 1.2153966e-38
-0.02015819 0.019877857 0.65899038 1.2982288e-38
0.017049761 0.018450256 0.667068 1.4553217e-38
0.041665275 0.0036224914 0.67623073 1.8147783e-38
0.10469566 0.011955701 0.64632583 1.336839e-38
0.12616299 0.011152224 0.64835888 1.6597762e-38
-0.054498866 0.06022824 0.67167181 1.123237e-38
-0.024093842 0.055524327 0.67180353 1.3812407e-38
0.0060992753 0.043731656 0.67599994 1.8522307e-38
-0.056670401 0.096259095 0.67727751 1.0679915e-38
-0.037265565 0.083345659 0.67894733 1.5470484e-38
0.18954639 0.2678996 0.67327327 9.7575971e-39
0.21953198 0.26321766 0.66878742 1.1968853e-38
0.25560072 0.26717141 0.67198896 1.7315838e-38
0.28246117 0.27629003 0.67868185 1.9805124e-38
0.18478961 0.29047403 0.67131203 8.46758e-39
0.21968691 0.28854367 0.66150832 9.7586775e-39
0.26032481 0.28970414 0.66701406 1.5010943e-38
0.28614622 0.29371938 0.67724198 1.7222558e-38
-0.015033655 -0.023151619 0.68376344 6.9035011e-39
0.038541626 0.014599438 0.68047065 1.9720863e-38
0.043009628 0.011006085 0.68194425 2.0647861e-38
-0.080711432 0.079399049 0.68900001 2.0101876e-38
-0.073110715 0.07043577 0.68321121 1.1413177e-38
-0.01309661 0.069036171 0.68556082 1.6210215e-38
0.0038419052 0.049096119 0.68169236 2.0648941e-38
-0.085262358 0.10728999 0.69268793 1.0678487e-38
-0.063679524 0.10488111 0.68230551 1.1232368e-38
-0.026905397 0.099060878 0.69171005 1.6576834e-38
-0.092284061 0.14162095 0.69637406 9.9423527e-39
-0.059483923 0.14002113 0.6849013 1.1508238e-38
-0.030567182 0.13888009 0.70100486 1.7128207e-38
-0.096881658 0.17996936 0.6996541 9.5739303e-39
-0.060055096 0.17964433 0.69141269 1.1600078e-38
-0.032633372 0.17860526 0.70805663 1.7311519e-38
-0.095857717 0.21859844 0.70626611 8.6530573e-39
-0.059866991 0.21963537 0.70173848 1.0679202e-38
-0.035195455 0.21707068 0.71372366 1.5745998e-38
0.19156697 0.23673257 0.71136254 1.1691536e-38
0.22062099 0.2336957 0.70682859 1.3350695e-38
0.25600758 0.23436016 0.70930058 1.6852688e-38
0.28337568 0.23835504 0.71766669 1.9803312e-38
-0.089305975 0.24994045 0.71405977 7.7318226e-39
-0.062641054 0.25346178 0.71374291 8.9289253e-39
-0.036566287 0.2413101 0.71899998 1.3442548e-38
0.15191846 0.26963842 0.70751733 1.058627e-38
0.17664048 0.25619242 0.69538552 1.0862856e-38
0.21959108 0.24436365 0.68800259 1.3258862e-38
0.26396894 0.24990201 0.69091159 1.84211e-38
0.29661438 0.2625899 0.70165539 2.0911466e-38
0.32254344 0.27715629 0.71475005 2.0083152e-38
0.1427507 0.29746169 0.70300382 9.1122263e-39
0.16531746 0.29239669 0.68343985 8.8363583e-39
0.30623409 0.29340416 0.68892223 1.842146e-38
0.3367995 0.30125681 0.70579755 1.7316194e-38
0.36086956 0.30471906 0.71900004 1.8330709e-38
0.12445144 0.32070667 0.71800005 8.5590553e-39
-0.12108333 0.1937319 0.72650003 1.5011341e-38
-0.11774462 0.1946768 0.72255003 9.3859714e-39
-0.023603966 0.18661639 0.72459573 1.6205159e-38
0.18958595 0.19969262 0.75800014 1.3257783e-38
0.21724103 0.19829455 0.75665742 1.4454524e-38
0.24525394 0.19920939 0.75723088 1.6483184e-38
-0.12351143 0.22047809 0.73397708 1.3904968e-38
-0.11521313 0.22448197 0.72476482 9.0232831e-39
-0.018250905 0.22537097 0.73987329 1.3072318e-38
0.019748341 0.2316277 0.75516319 1.1875937e-38
0.043423284 0.23557372 0.75703233 1.14164e-38
0.14982972 0.22744614 0.75079972 1.1415309e-38
0.18000327 0.22076322 0.74153423 1.2152514e-38
0.21920793 0.21418504 0.73809159 1.3810235e-38
0.25912625 0.21686229 0.73877662 1.7036359e-38
0.29624975 0.22916904 0.74264407 1.9894788e-38
0.32341653 0.23694047 0.75515395 2.0632716e-38
-0.12310831 0.2626265 0.74793768 8.6516265e-39
-0.10311017 0.2638486 0.73038059 7.9165754e-39
-0.054667957 0.2703433 0.72374606 9.112955e-39
-0.01932263 0.26038206 0.74011284 1.0033467e-38
0.019341251 0.25928697 0.75088513 1.0494443e-38
0.044506565 0.25346461 0.7569809 9.7568825e-39
0.11730666 0.27491957 0.75418603 9.0200321e-39
0.13823886 0.25876424 0.73845178 1.0493716e-38
0.16616938 0.24427631 0.72512645 1.1414946e-38
0.31006649 0.2483021 0.73081565 2.1002939e-38
0.33892563 0.26277336 0.74191284 1.971328e-38
0.36795709 0.27046883 0.75116837 1.593398e-38
-0.12192475 0.28590548 0.75594127 8.2842761e-39
-0.097228631 0.29650322 0.74646568 7.0878937e-39
-0.058841363 0.29902244 0.73687965 6.9020648e-39
-0.020822721 0.29671881 0.74294776 7.0860931e-39
0.012499286 0.28898647 0.75273973 7.176844e-39
0.11022364 0.30280936 0.74372536 8.650888e-39
0.12495396 0.29479584 0.72741008 9.3880915e-39
0.34934098 0.28868699 0.726439 1.8515095e-38
0.3653897 0.28964454 0.73522109 1.6394958e-38
-0.081160471 0.32139665 0.75750005 1.64983e-38
-0.057664286 0.32236108 0.75150007 1.2350239e-38
-0.037062857 0.32067427 0.75199997 3.3147295e-39
0.10297373 0.32638395 0.74307609 7.7307324e-39
0.1208524 0.32136005 0.72100002 8.3753759e-39
0.15502203 0.1578815 0.7964232 1.3993912e-38
0.1746278 0.15793811 0.79729044 1.5191017e-38
0.20216 0.15884002 0.79800004 1.6757255e-38
-0.010550828 0.19306242 0.78563458 1.1412074e-38
0.021444609 0.18716225 0.78347975 1.2611339e-38
0.059326414 0.18536185 0.78411984 1.4362335e-38
0.099051021 0.1867689 0.79048419 1.4086106e-38
0.14195529 0.18255578 0.78596777 1.2059245e-38
0.18006104 0.18029682 0.77795035 1.4177583e-38
0.2192321 0.18079235 0.77811205 1.5743828e-38
0.25754291 0.18840459 0.78101236 1.7863603e-38
0.29056665 0.19447266 0.79146016 1.8509332e-38
-0.01016413 0.21106434 0.76852453 1.0858903e-38
0.019866923 0.21198602 0.76486742 1.1875214e-38
0.060601342 0.21899612 0.7664392 1.2889369e-38
0.099970974 0.21992676 0.77788115 1.0679192e-38
0.13448508 0.21637018 0.77254784 1.0217851e-38
0.16579932 0.20297237 0.76102388 1.2520582e-38
0.27058727 0.20342168 0.76406193 1.8510048e-38
0.30260274 0.21126461 0.77500701 1.9248334e-38
0.33864939 0.2252984 0.77963001 1.989407e-38
0.37566188 0.23381729 0.79030418 1.8881356e-38
0.4000181 0.23606382 0.79700005 1.8328181e-38
-0.12796891 0.27891558 0.76200002 7.9937253e-39
0.038756713 0.27629787 0.76000017 7.5456223e-39
0.062693693 0.26017612 0.76512325 8.1906316e-39
0.10194993 0.26021525 0.77587241 6.6254667e-39
0.12391417 0.24856916 0.76485705 8.7438039e-39
0.35086751 0.24640964 0.76455647 1.9342699e-38
0.3765386 0.25110382 0.77149647 1.7500222e-38
-0.12502627 0.28993276 0.76134288 1.0397947e-38
-0.10625424 0.3097845 0.76050007 1.3725961e-38
-0.0050678574 0.31353644 0.76075011 2.9430589e-39
0.024076572 0.30224735 0.76769459 4.4149408e-39
0.058796711 0.29406756 0.77917373 4.5986089e-39
0.093230136 0.29854396 0.77738643 6.16485e-39
0.077281877 0.33834609 0.79369986 5.6127595e-39
0.085557833 0.33155122 0.77263671 6.6251065e-39
0.39320034 -0.0047602956 0.83658659 8.1982056e-39
0.41059828 -0.0087558366 0.8352645 1.1143058e-38
0.3587724 0.036756195 0.83900005 1.1415678e-38
0.38546216 0.022106623 0.83071488 9.4835396e-39
0.40732715 0.022586392 0.82516932 9.3031112e-39
0.35344195 0.065575868 0.83227879 1.0402972e-38
0.37846503 0.059310429 0.82024956 1.1509323e-38
0.40595877 0.059136227 0.81948173 1.1416767e-38
0.35148767 0.098868743 0.82854372 7.8254546e-39
0.37939399 0.10074949 0.81376588 7.6435913e-39
0.40438125 0.09570279 0.81367379 1.0496615e-38
0.037003096 0.1594681 0.83100003 1.4362338e-38
0.063571088 0.15543297 0.82875675 1.4362331e-38
0.10235609 0.14807516 0.82378066 1.38088e-38
0.14031963 0.14307296 0.81938583 1.4362333e-38
0.17919518 0.14247066 0.81726986 1.6297355e-38
0.21671796 0.15088135 0.81990594 1.6665777e-38
0.2497128 0.15740062 0.83086884 1.5929288e-38
0.3553687 0.12710778 0.8320654 6.5350759e-39
0.3799327 0.13706623 0.81888777 6.2606526e-39
0.40365854 0.13857853 0.81310391 7.0000309e-39
-0.0095969383 0.18384345 0.80350745 1.2336554e-38
0.02225838 0.17044924 0.81026322 1.3716967e-38
0.060226157 0.16574273 0.80900377 1.482223e-38
0.099925168 0.16706406 0.80552405 1.3900996e-38
0.12914801 0.16493636 0.80180818 1.2612419e-38
0.22948758 0.16284139 0.80482864 1.6665062e-38
0.26306924 0.16990268 0.81550002 1.685053e-38
0.30004123 0.18152478 0.81872803 1.7220393e-38
0.33453861 0.19241206 0.82876408 1.9433808e-38
0.36250132 0.19843018 0.83900011 1.814487e-38
0.31739184 0.20110561 0.80028576 1.9340535e-38
0.34538144 0.20759092 0.81408119 1.9524925e-38
0.38021457 0.21638615 0.8184213 1.8696246e-38
0.40860513 0.22185004 0.82576787 1.7590619e-38
0.075681873 0.31309217 0.80733335 2.9434106e-39
0.080845565 0.3058424 0.8008334 3.2189171e-39
0.071388341 0.33897546 0.81267786 4.4170973e-39
0.068901204 0.36215964 0.81594753 4.6936884e-39
0.38918862 -0.052621331 0.87159538 3.5920324e-39
0.41423693 -0.056838203 0.85916626 3.7767894e-39
0.3559494 -0.0047567198 0.87268889 4.0555329e-39
0.37914214 -0.019805789 0.86001289 5.9862321e-39
0.41091636 -0.028664833 0.84698653 9.2991427e-39
0.34935811 0.023668632 0.86117315 8.746692e-39
0.36953008 0.012640385 0.84722537 1.0218579e-38
0.33859706 0.058803223 0.85713375 9.9430716e-39
0.11984 0.11984 0.85600007 1.4270137e-38
0.14513879 0.11712086 0.85878193 1.500734e-38
0.17445375 0.11694086 0.85651219 1.5469406e-38
0.31653103 0.11245155 0.87647992 1.1600061e-38
0.33268195 0.10052072 0.85890728 9.1140242e-39
0.037274972 0.1586211 0.84300005 1.4728615e-38
0.065704562 0.14812995 0.84855759 1.4269777e-38
0.099444054 0.13378789 0.85015821 1.4270856e-38
0.13738237 0.12369092 0.84785837 1.5008058e-38
0.18191352 0.12462635 0.84827805 1.6297714e-38
0.21714213 0.13834637 0.84622216 1.5376473e-38
0.26302686 0.15298307 0.85565573 1.3902069e-38
0.30486983 0.14537628 0.8688727 1.1876645e-38
0.33856729 0.14019065 0.85730124 9.7575901e-39
0.36644152 0.15352058 0.85136855 9.2951742e-39
0.27647012 0.16133894 0.84387505 1.4547433e-38
0.30411363 0.16540223 0.84948623 1.4363765e-38
0.34208471 0.17461951 0.85279346 1.6668658e-38
0.37577099 0.18197849 0.86029607 1.814379e-38
0.4078835 0.19801217 0.87517881 1.7222192e-38
0.38931534 0.20273837 0.84677768 1.8788796e-38
0.41785017 0.2074437 0.85824502 1.7406227e-38
0.44083336 0.20583335 0.87500006 1.7220761e-38
-0.046282686 0.38430166 0.87350714 3.0403006e-39
-0.018357992 0.3760913 0.86851978 1.5651663e-39
0.012577521 0.38092172 0.87331897 9.208759e-40
0.35139331 -0.044682723 0.90298945 3.3150882e-39
0.37388554 -0.054914128 0.8871507 3.4080027e-39
0.42084002 -0.071400002 0.88200009 4.6076333e-39
0.31933749 -0.001444762 0.9103334 1.021391e-38
0.3432503 -0.018555878 0.89711535 4.6958563e-39
0.36254776 -0.03085872 0.88289648 3.2232527e-39
0.31477138 0.023335636 0.90605128 1.1230209e-38
0.33352172 0.01736505 0.89431155 1.0217498e-38
0.3155185 0.061801612 0.90397304 1.1692624e-38
0.32459983 0.058778558 0.88756406 1.1322399e-38
0.30793741 0.10166432 0.89727527 1.2060679e-38
0.32137758 0.086093411 0.88321418 1.16919e-38
0.10764097 0.13118953 0.88300008 1.4363772e-38
0.23469162 0.14191319 0.91262889 1.3258144e-38
0.26070246 0.14172283 0.89780504 1.3350696e-38
0.29330608 0.13217923 0.89251626 1.2245066e-38
0.39635843 0.1874254 0.88454169 1.961676e-38
0.41832852 0.19295083 0.89722508 1.7221113e-38
0.4509688 0.1982168 0.91042387 1.5379361e-38
0.43358964 0.20281658 0.88712823 1.657647e-38
0.44596574 0.20295627 0.89129734 1.6484271e-38
-0.052578155 0.38572246 0.88843763 3.5913178e-39
-0.0033523808 0.36457145 0.88000005 1.8395952e-39
0.024890218 0.37670311 0.88939095 1.1045497e-39
0.050650474 0.39189488 0.90161705 1.4729721e-39
0.061501123 0.40111959 0.90464699 1.2889396e-39
0.33135667 -0.025557313 0.92618144 3.9604534e-39
0.31084746 0.028810514 0.93764132 6.7237944e-39
0.31052235 0.057152297 0.93266851 8.4733435e-39
0.29822168 0.10139547 0.92864943 1.1601867e-38
0.22814962 0.13353905 0.92973816 1.3997165e-38
0.25983548 0.13072209 0.92608076 1.3073755e-38
0.28418154 0.12312104 0.9248001 1.2428385e-38
0.42975327 0.19065328 0.92125928 1.6851613e-38
0.45017973 0.19463666 0.922059 1.5194616e-38
0.059497397 0.38136238 0.9307434 2.3027327e-39
0.16468628 0.15845016 0.69676989 1.3449039e-38
-0.080793723 0.1001552 0.64352405 1.2623959e-38
