# .PCD v0.7 - Point Cloud Data file format
VERSION 0.7
FIELDS x y z rgb
SIZE 4 4 4 4
TYPE F F F F
COUNT 1 1 1 1
WIDTH 1019
HEIGHT 1
VIEWPOINT 0 0 0 1 0 0 0
POINTS 1019
DATA ascii
0.855748 -0.56072664 2.4430001 5.6255729e-39
-0.044206668 -0.55607337 2.4430001 5.6255729e-39
-0.017708886 -0.54597265 2.4448483 5.6255729e-39
0.01995917 -0.54218411 2.4654191 5.6255729e-39
0.048844844 -0.53700733 2.4779997 5.6255729e-39
0.14195094 -0.55630261 2.4769416 5.6255729e-39
0.17110002 -0.55932003 2.4780002 5.6255729e-39
0.23185086 -0.55727828 2.4690003 5.6255729e-39
0.25996193 -0.55788505 2.4740002 5.6255729e-39
0.29684621 -0.55957949 2.4705 5.6255729e-39
0.35845715 -0.55994284 2.46 5.6255729e-39
0.38323799 -0.55381292 2.4640934 5.6255729e-39
0.41819096 -0.55425811 2.4685287 5.6255729e-39
0.45843318 -0.55533391 2.4684231 5.6255729e-39
0.50283295 -0.55601597 2.4690385 5.6255729e-39
0.54382199 -0.54811895 2.4634795 5.6255729e-39
0.58006757 -0.55064011 2.4644516 5.6255729e-39
0.62084347 -0.54869527 2.4696162 5.6255729e-39
0.6611762 -0.54967541 2.4689209 5.6255729e-39
0.69910413 -0.54816884 2.4646101 5.6255729e-39
0.74119335 -0.54926378 2.4724801 5.6255729e-39
0.77983248 -0.54720414 2.4701602 5.6255729e-39
0.8216874 -0.54929018 2.4658232 5.6255729e-39
0.86050206 -0.54136348 2.4667032 5.6255729e-39
0.90043229 -0.54011256 2.4681151 5.6255729e-39
0.93248141 -0.53647435 2.449667 5.6255729e-39
-0.006980001 -0.51884669 2.4430003 5.6255729e-39
0.021079572 -0.49950868 2.4547567 5.6255729e-39
0.059141498 -0.49812397 2.4727623 5.6255729e-39
0.089920908 -0.49200153 2.4742107 5.6255729e-39
0.84724003 -0.51683998 2.4780002 5.6255729e-39
0.90260929 -0.49975941 2.4777033 5.6255729e-39
0.93326026 -0.50058168 2.4597709 5.6255729e-39
0.022956433 -0.46091264 2.4429998 5.6255729e-39
0.061383065 -0.45897281 2.4544587 5.6255729e-39
0.093756147 -0.45814511 2.4658687 5.6255729e-39
0.90483207 -0.45990226 2.4715497 5.6255729e-39
0.92832023 -0.46428087 2.4496973 5.6255729e-39
0.037485186 -0.43043336 2.4430001 5.6255729e-39
0.060709331 -0.42089412 2.4453907 5.6255729e-39
0.097950369 -0.41913807 2.4607339 5.6255729e-39
0.12508002 -0.40592003 2.4780004 5.6255729e-39
0.90443259 -0.41998807 2.4588466 5.6255729e-39
0.92484999 -0.43043333 2.4430001 5.6255729e-39
0.07004068 -0.38422087 2.4430006 5.6255729e-39
0.098944202 -0.37920934 2.4554935 5.6255729e-39
0.13689218 -0.37638882 2.469599 5.6255729e-39
0.86887223 -0.37159711 2.4736969 5.6255729e-39
0.89710397 -0.38403699 2.4615965 5.6255729e-39
0.075849332 -0.35039601 2.4430001 5.6255729e-39
0.10201664 -0.3419801 2.4507275 5.6255729e-39
0.14044236 -0.33977309 2.4643722 5.6255729e-39
0.16579001 -0.32863003 2.4780004 5.6255729e-39
0.86587822 -0.33774662 2.4638093 5.6255729e-39
0.88979423 -0.33678508 2.4480541 5.6255729e-39
0.11524755 -0.30541378 2.4430003 5.6255729e-39
0.14026316 -0.29921609 2.4542341 5.6255729e-39
0.17572382 -0.29992616 2.4685276 5.6255729e-39
0.86213946 -0.29925439 2.4667313 5.6255729e-39
0.88776326 -0.30398133 2.4506207 5.6255729e-39
0.11866 -0.27222002 2.4430001 5.6255729e-39
0.1415185 -0.26136222 2.4430001 5.6255729e-39
0.17699942 -0.25980613 2.4590976 5.6255729e-39
0.22042401 -0.24402402 2.4780004 5.6255729e-39
0.86210185 -0.26328936 2.4675233 5.6255729e-39
0.88028008 -0.25016001 2.4780002 5.6255729e-39
0.14857429 -0.23466095 2.4430003 5.6255729e-39
0.1794735 -0.22152089 2.4500163 5.6255729e-39
0.21999268 -0.21839997 2.4711721 5.6255729e-39
0.24724764 -0.21267317 2.4756005 5.6255729e-39
0.82731551 -0.2150612 2.4733334 5.6255729e-39
0.8511734 -0.23521337 2.4780004 5.6255729e-39
0.18597402 -0.18241368 2.4450006 5.6255729e-39
0.21978597 -0.17947383 2.4544144 5.6255729e-39
0.25369874 -0.17820618 2.4671991 5.6255729e-39
0.28084001 -0.16284001 2.4780002 5.6255729e-39
0.79178005 -0.16402 2.4780002 5.6255729e-39
0.80206293 -0.17093143 2.4780004 5.6255729e-39
0.19776668 -0.15588666 2.4430001 5.6255729e-39
0.22086497 -0.1462605 2.4439194 5.6255729e-39
0.26167077 -0.14096059 2.460346 5.6255729e-39
0.294705 -0.131275 2.4780004 5.6255729e-39
0.78520793 -0.14887787 2.4712501 5.6255729e-39
0.80004007 -0.15812001 2.4780002 5.6255729e-39
0.22103333 -0.11866 2.4430001 5.6255729e-39
0.26587281 -0.10209616 2.446691 5.6255729e-39
0.29917142 -0.098162346 2.46805 5.6255729e-39
0.32489336 -0.088106677 2.4780004 5.6255729e-39
0.27222005 -0.070434548 2.4430003 5.6255729e-39
0.30052862 -0.061951201 2.4530687 5.6255729e-39
0.33197334 -0.05650888 2.4779994 5.6255729e-39
0.30584824 -0.022081735 2.4447005 5.6255729e-39
0.33889809 -0.019167442 2.4611828 5.6255729e-39
0.36994398 -0.011349661 2.4771433 5.6255729e-39
0.34164423 0.019945452 2.4458766 5.6255729e-39
0.37569538 0.019731933 2.4739993 5.6255729e-39
0.34943086 0.057304926 2.4430006 5.6255729e-39
0.37930351 0.059022091 2.4582713 5.6255729e-39
0.40728638 0.06372001 2.4780004 5.6255729e-39
0.35598001 0.083760008 2.4430001 5.6255729e-39
0.38153377 0.096891895 2.4429998 5.6255729e-39
0.41356647 0.10169998 2.4591191 5.6255729e-39
0.39692935 0.12889734 2.4430001 5.6255729e-39
0.42036417 0.13975628 2.4526842 5.6255729e-39
0.45292994 0.15063098 2.4694738 5.6255729e-39
0.71388417 0.1501518 2.472616 5.6255729e-39
0.42793095 0.1764001 2.4442444 5.6255729e-39
0.45968533 0.18008515 2.4580464 5.6255729e-39
0.48964757 0.1886896 2.4739094 5.6255729e-39
0.54044002 0.19116001 2.4780002 5.6255729e-39
0.70930403 0.17990953 2.4752102 5.6255729e-39
0.43043333 0.205212 2.4430001 5.6255729e-39
0.46228451 0.21944565 2.4452889 5.6255729e-39
0.49386084 0.22407953 2.4634674 5.6255729e-39
0.54138905 0.23120129 2.4754288 5.6255729e-39
0.56404006 0.23836002 2.4780002 5.6255729e-39
0.70210016 0.2169234 2.4779987 5.6255729e-39
0.47045204 0.24755733 2.4430003 5.6255729e-39
0.50036204 0.25919348 2.4507022 5.6255729e-39
0.53966796 0.26007056 2.4627409 5.6255729e-39
0.57430601 0.26560116 2.4768002 5.6255729e-39
0.69148004 0.24544001 2.4780002 5.6255729e-39
0.51768333 0.29257834 2.4430001 5.6255729e-39
0.54058248 0.29912782 2.4451935 5.6255729e-39
0.58228385 0.29975557 2.471812 5.6255729e-39
0.61420691 0.30578864 2.4779994 5.6255729e-39
0.66079998 0.30208004 2.4780002 5.6255729e-39
0.68204004 0.28792 2.4780002 5.6255729e-39
0.51884669 0.32340667 2.4430001 5.6255729e-39
0.54334867 0.32552671 2.4515004 5.6255729e-39
0.57600647 0.32587117 2.4543748 5.6255729e-39
0.62071091 0.32568002 2.4744005 5.6255729e-39
0.64428002 0.32332003 2.4780002 5.6255729e-39
0.072283812 -0.56419742 2.5020001 5.6255729e-39
0.096063815 -0.564502 2.5009997 5.6255729e-39
0.12123429 -0.56338286 2.4960001 5.6255729e-39
0.19120096 -0.56405431 2.4990003 5.6255729e-39
0.21124987 -0.56398344 2.5025456 5.6255729e-39
0.31378287 -0.56338286 2.4960001 5.6255729e-39
0.34230858 -0.56338286 2.4960001 5.6255729e-39
0.066367358 -0.54470491 2.501143 5.6255729e-39
0.099863783 -0.54157853 2.5085726 5.6255729e-39
0.13838926 -0.54767555 2.5043414 5.6255729e-39
0.1812031 -0.55534124 2.5084615 5.6255729e-39
0.22321992 -0.54955429 2.5099354 5.6255729e-39
0.26003 -0.54412997 2.5057902 5.6255729e-39
0.29933947 -0.54513443 2.504401 5.6255729e-39
0.34072322 -0.54503888 2.5029244 5.6255729e-39
0.37677675 -0.54276985 2.5055749 5.6255729e-39
0.42373821 -0.5407902 2.5062861 5.6255729e-39
0.45937645 -0.54002213 2.5085096 5.6255729e-39
0.50004238 -0.54049319 2.5050008 5.6255729e-39
0.53734469 -0.53714001 2.5032001 5.6255729e-39
0.58230305 -0.53449631 2.5028107 5.6255729e-39
0.61893737 -0.52987796 2.5000498 5.6255729e-39
0.65987813 -0.53055692 2.4994059 5.6255729e-39
0.69991893 -0.53059018 2.5023003 5.6255729e-39
0.73809755 -0.52895445 2.4969234 5.6255729e-39
0.77787602 -0.52864927 2.4999998 5.6255729e-39
0.82162648 -0.53208947 2.5032003 5.6255729e-39
0.85353863 -0.52642614 2.5011423 5.6255729e-39
0.88191998 -0.5205943 2.4960001 5.6255729e-39
0.071908571 -0.51049149 2.4960001 5.6255729e-39
0.10504662 -0.50266194 2.5020003 5.6255729e-39
0.12977026 -0.4929356 2.5139999 5.6255729e-39
0.45970291 -0.51956004 2.5140002 5.6255729e-39
0.55034375 -0.51819193 2.5140004 5.6255729e-39
0.63288963 -0.51956004 2.5140004 5.6255729e-39
0.66082287 -0.51956004 2.5140002 5.6255729e-39
0.69314575 -0.51956004 2.5140002 5.6255729e-39
0.74090028 -0.51780045 2.5126157 5.6255729e-39
0.77335429 -0.51836294 2.5140002 5.6255729e-39
0.83273268 -0.51668692 2.5140002 5.6255729e-39
0.86393416 -0.51104957 2.5089595 5.6255729e-39
0.88752389 -0.50111425 2.5055997 5.6255729e-39
0.11248268 -0.46517244 2.5002351 5.6255729e-39
0.13807924 -0.45918977 2.5131159 5.6255729e-39
0.8701089 -0.45872313 2.5086002 5.6255729e-39
0.88767236 -0.46203214 2.4973328 5.6255729e-39
0.11648 -0.43739429 2.4960001 5.6255729e-39
0.13947959 -0.42119738 2.5068002 5.6255729e-39
0.16483739 -0.41273805 2.5140004 5.6255729e-39
0.87049389 -0.42118219 2.5077212 5.6255729e-39
0.88645482 -0.42079851 2.497241 5.6255729e-39
0.1508249 -0.39010555 2.5002351 5.6255729e-39
0.17649119 -0.37804654 2.5122862 5.6255729e-39
0.23464002 -0.36153716 2.5140002 5.6255729e-39
0.86238664 -0.38449091 2.5006661 5.6255729e-39
0.88667428 -0.39460573 2.4960003 5.6255729e-39
0.18287832 -0.34146878 2.5020006 5.6255729e-39
0.22096598 -0.33578527 2.5140002 5.6255729e-39
0.24501526 -0.33535966 2.5140004 5.6255729e-39
0.852651 -0.34073433 2.5019996 5.6255729e-39
0.19635199 -0.29666743 2.4960001 5.6255729e-39
0.21947569 -0.29931107 2.5096304 5.6255729e-39
0.25177363 -0.29667613 2.5131431 5.6255729e-39
0.83369291 -0.29461622 2.5064998 5.6255729e-39
0.84472477 -0.30154261 2.5024796 5.6255729e-39
0.19730285 -0.27099431 2.4960001 5.6255729e-39
0.21994871 -0.2601712 2.5037594 5.6255729e-39
0.25739497 -0.2579276 2.504858 5.6255729e-39
0.28300458 -0.25044233 2.5140002 5.6255729e-39
0.82877421 -0.25611365 2.5045912 5.6255729e-39
0.84978569 -0.25935426 2.5012255 5.6255729e-39
0.21869713 -0.23295999 2.4960001 5.6255729e-39
0.26425543 -0.22104172 2.4996004 5.6255729e-39
0.29436409 -0.21388951 2.5140002 5.6255729e-39
0.32322857 -0.20830289 2.5140004 5.6255729e-39
0.82435882 -0.22358939 2.5049999 5.6255729e-39
0.8491683 -0.22846982 2.4960001 5.6255729e-39
0.27485716 -0.1845257 2.4959998 5.6255729e-39
0.30143806 -0.18022418 2.5069106 5.6255729e-39
0.32442573 -0.17179002 2.5140002 5.6255729e-39
0.79191583 -0.17533712 2.5073683 5.6255729e-39
0.80701846 -0.18888472 2.5065882 5.6255729e-39
0.3006103 -0.14070423 2.4976673 5.6255729e-39
0.33817837 -0.13718973 2.5090001 5.6255729e-39
0.36153716 -0.12929143 2.5140002 5.6255729e-39
0.78299361 -0.15194787 2.5027502 5.6255729e-39
0.30950403 -0.11077485 2.4960001 5.6255729e-39
0.34187046 -0.10165726 2.5046544 5.6255729e-39
0.37578315 -0.094454557 2.5140002 5.6255729e-39
0.40623054 -0.086992383 2.5140004 5.6255729e-39
0.34928155 -0.061488762 2.4959998 5.6255729e-39
0.38116261 -0.060414266 2.5104959 5.6255729e-39
0.40583146 -0.056664776 2.5140002 5.6255729e-39
0.75260389 -0.043895241 2.5140004 5.6255729e-39
0.35894856 -0.035657145 2.4960001 5.6255729e-39
0.38487118 -0.023231164 2.4981432 5.6255729e-39
0.41683546 -0.015118964 2.5107274 5.6255729e-39
0.44294289 -0.004788572 2.5140002 5.6255729e-39
0.39539811 0.01743238 2.4960003 5.6255729e-39
0.42024541 0.019090803 2.5069699 5.6255729e-39
0.44864357 0.023828847 2.5140002 5.6255729e-39
0.42554092 0.057620928 2.4967663 5.6255729e-39
0.4582693 0.060272101 2.5125732 5.6255729e-39
0.4900305 0.076617151 2.5140002 5.6255729e-39
0.72786295 0.059857149 2.5140002 5.6255729e-39
0.43430406 0.095561132 2.4959996 5.6255729e-39
0.46127307 0.10017247 2.4980011 5.6255729e-39
0.49899057 0.10185104 2.5119233 5.6255729e-39
0.53033435 0.11372858 2.5140002 5.6255729e-39
0.71050429 0.11193286 2.5140002 5.6255729e-39
0.72606725 0.11313 2.5140002 5.6255729e-39
0.43977147 0.12598857 2.4960001 5.6255729e-39
0.4642362 0.13450666 2.4960008 5.6255729e-39
0.49848914 0.14108443 2.5066791 5.6255729e-39
0.54539287 0.14386185 2.5103076 5.6255729e-39
0.56409377 0.144136 2.5140002 5.6255729e-39
0.70488501 0.14299083 2.5061252 5.6255729e-39
0.72359049 0.12788001 2.5020001 5.6255729e-39
0.47780573 0.16402285 2.4960001 5.6255729e-39
0.50613111 0.17500301 2.5011432 5.6255729e-39
0.53942108 0.17946585 2.5011094 5.6255729e-39
0.57108247 0.17843822 2.5128751 5.6255729e-39
0.67758292 0.16520572 2.5140004 5.6255729e-39
0.69264722 0.17914613 2.504308 5.6255729e-39
0.51078862 0.21097143 2.4959998 5.6255729e-39
0.53846258 0.21448666 2.4970393 5.6255729e-39
0.57698137 0.22127871 2.5033638 5.6255729e-39
0.60967219 0.23398702 2.5140002 5.6255729e-39
0.6714009 0.22742538 2.5062857 5.6255729e-39
0.6863445 0.21715876 2.4998569 5.6255729e-39
0.58758479 0.25203124 2.4965622 5.6255729e-39
0.61890179 0.26071239 2.5044386 5.6255729e-39
0.66624409 0.26188684 2.5035276 5.6255729e-39
0.69290364 0.25953975 2.4971745 5.6255729e-39
0.62842035 0.29594108 2.4985714 5.6255729e-39
0.65788418 0.29661563 2.4978628 5.6255729e-39
0.68767351 0.28695512 2.4960001 5.6255729e-39
0.6537143 0.3209143 2.4960001 5.6255729e-39
0.11816 -0.53292572 2.5320001 5.6255729e-39
0.14081667 -0.53157097 2.5336764 5.6255729e-39
0.17909153 -0.53818613 2.5442369 5.6255729e-39
0.21809654 -0.53528571 2.5360975 5.6255729e-39
0.25947928 -0.52667928 2.5415003 5.6255729e-39
0.3010217 -0.52714854 2.5363853 5.6255729e-39
0.33846888 -0.52713287 2.5421329 5.6255729e-39
0.38195786 -0.52787316 2.5399673 5.6255729e-39
0.41832432 -0.52681035 2.5381474 5.6255729e-39
0.46444115 -0.52472693 2.5319998 5.6255729e-39
0.49789494 -0.52593464 2.5331876 5.6255729e-39
0.53059512 -0.5246805 2.5362222 5.6255729e-39
0.58209294 -0.52546859 2.5332668 5.6255729e-39
0.61240768 -0.52300036 2.5376999 5.6255729e-39
0.70654863 -0.52328002 2.5320001 5.6255729e-39
0.72101712 -0.52328002 2.5320001 5.6255729e-39
0.7981829 -0.52328002 2.5320001 5.6255729e-39
0.81609637 -0.52396905 2.5320001 5.6255729e-39
0.11816 -0.51845711 2.5320001 5.6255729e-39
0.14576609 -0.50495315 2.5324867 5.6255729e-39
0.17191537 -0.50170279 2.5441387 5.6255729e-39
0.23566382 -0.5174886 2.5510001 5.6255729e-39
0.24538192 -0.5174886 2.5510001 5.6255729e-39
0.29890543 -0.51781136 2.5446668 5.6255729e-39
0.34134811 -0.5174886 2.5510001 5.6255729e-39
0.38108817 -0.51540613 2.5510004 5.6255729e-39
0.42030767 -0.5174886 2.5510004 5.6255729e-39
0.46285427 -0.51679456 2.5419524 5.6255729e-39
0.49974802 -0.51363742 2.5440333 5.6255729e-39
0.53972918 -0.51487249 2.5443912 5.6255729e-39
0.57956386 -0.51042378 2.5479198 5.6255729e-39
0.6195637 -0.51101172 2.5467782 5.6255729e-39
0.66248119 -0.50683069 2.5427549 5.6255729e-39
0.69852155 -0.50604439 2.5442142 5.6255729e-39
0.73739088 -0.50770241 2.5425103 5.6255729e-39
0.78099054 -0.50816566 2.5455117 5.6255729e-39
0.82191044 -0.50889957 2.5457845 5.6255729e-39
0.86173558 -0.50252819 2.5410876 5.6255729e-39
0.88077432 -0.49856287 2.5319998 5.6255729e-39
0.15513524 -0.47022861 2.5320001 5.6255729e-39
0.17374243 -0.45833099 2.5400848 5.6255729e-39
0.20408002 -0.44460285 2.5510001 5.6255729e-39
0.86434311 -0.4602485 2.5466154 5.6255729e-39
0.15674286 -0.43405718 2.5320001 5.6255729e-39
0.18296501 -0.42301548 2.5348911 5.6255729e-39
0.21550587 -0.41915184 2.5491381 5.6255729e-39
0.24441011 -0.40718824 2.5510004 5.6255729e-39
0.8606838 -0.42119688 2.5484328 5.6255729e-39
0.18921676 -0.39016917 2.5320001 5.6255729e-39
0.21771109 -0.37987027 2.5361168 5.6255729e-39
0.25068736 -0.37832835 2.5481851 5.6255729e-39
0.83602619 -0.37063736 2.5510004 5.6255729e-39
0.85451192 -0.37955716 2.5457754 5.6255729e-39
0.21919887 -0.35279197 2.5320003 5.6255729e-39
0.26390475 -0.33916709 2.5419755 5.6255729e-39
0.28546906 -0.32677096 2.5510001 5.6255729e-39
0.83488524 -0.33745596 2.5490997 5.6255729e-39
0.84695208 -0.3442916 2.5353532 5.6255729e-39
0.27174678 -0.30292612 2.5343757 5.6255729e-39
0.28750032 -0.29977012 2.5479999 5.6255729e-39
0.79769367 -0.28992319 2.5510004 5.6255729e-39
0.8210333 -0.29862529 2.5436931 5.6255729e-39
0.27731428 -0.27731428 2.5320001 5.6255729e-39
0.30028793 -0.25937125 2.5430465 5.6255729e-39
0.32555622 -0.24295238 2.5510001 5.6255729e-39
0.79314613 -0.25771642 2.5509996 5.6255729e-39
0.81400484 -0.26077068 2.5444238 5.6255729e-39
0.30364719 -0.22847882 2.5334623 5.6255729e-39
0.33779138 -0.2176722 2.542556 5.6255729e-39
0.36977354 -0.20553772 2.5510004 5.6255729e-39
0.79182541 -0.21489815 2.5490346 5.6255729e-39
0.81567276 -0.21990889 2.544271 5.6255729e-39
0.34223911 -0.17976893 2.5369394 5.6255729e-39
0.36798444 -0.17585148 2.5491903 5.6255729e-39
0.78313076 -0.17982215 2.5458548 5.6255729e-39
0.35448 -0.15312572 2.5319998 5.6255729e-39
0.38042581 -0.14046451 2.5420821 5.6255729e-39
0.75363827 -0.12779295 2.5510004 5.6255729e-39
0.77778417 -0.13911445 2.5474372 5.6255729e-39
0.38631615 -0.10902454 2.538609 5.6255729e-39
0.4197154 -0.098309942 2.5445123 5.6255729e-39
0.44654647 -0.084061526 2.5510004 5.6255729e-39
0.75272518 -0.1027809 2.5491903 5.6255729e-39
0.77282488 -0.10260524 2.5456226 5.6255729e-39
0.42580351 -0.06079676 2.5373197 5.6255729e-39
0.44721931 -0.060738098 2.5510006 5.6255729e-39
0.71670955 -0.041301906 2.5510001 5.6255729e-39
0.74540454 -0.054070827 2.5452559 5.6255729e-39
0.76720732 -0.067050636 2.5479999 5.6255729e-39
0.4299233 -0.029970618 2.5320001 5.6255729e-39
0.45730546 -0.016480928 2.544667 5.6255729e-39
0.71670955 -0.017006669 2.5510001 5.6255729e-39
0.73647135 -0.026417593 2.5466156 5.6255729e-39
0.46521616 0.01824663 2.5372417 5.6255729e-39
0.48711953 0.0352281 2.5510001 5.6255729e-39
0.71145236 0.02059122 2.5495925 5.6255729e-39
0.73009855 0.023997182 2.5502396 5.6255729e-39
0.47849637 0.052706942 2.5320001 5.6255729e-39
0.50128889 0.060247902 2.5387857 5.6255729e-39
0.53216529 0.067422435 2.5488889 5.6255729e-39
0.56121999 0.070456192 2.5510001 5.6255729e-39
0.71022767 0.060997237 2.5457225 5.6255729e-39
0.72798955 0.059182554 2.539057 5.6255729e-39
0.51432329 0.091289796 2.5320001 5.6255729e-39
0.53995836 0.10053363 2.5408933 5.6255729e-39
0.57308537 0.10764977 2.5497334 5.6255729e-39
0.70089042 0.10014169 2.5492458 5.6255729e-39
0.72533476 0.096228436 2.5330555 5.6255729e-39
0.51845711 0.13142286 2.5320001 5.6255729e-39
0.5351038 0.13402876 2.5320001 5.6255729e-39
0.58428919 0.13884318 2.5461285 5.6255729e-39
0.60738093 0.12876476 2.5510004 5.6255729e-39
0.67290485 0.1500852 2.5442944 5.6255729e-39
0.69479227 0.13728282 2.5444863 5.6255729e-39
0.59016395 0.17965901 2.5353532 5.6255729e-39
0.61724925 0.18468249 2.5474377 5.6255729e-39
0.66471374 0.1818532 2.5469816 5.6255729e-39
0.68253255 0.18802464 2.539125 5.6255729e-39
0.59294349 0.20711492 2.5319998 5.6255729e-39
0.62126297 0.21691285 2.539283 5.6255729e-39
0.65916604 0.2177196 2.5429389 5.6255729e-39
0.68370551 0.20172977 2.5367501 5.6255729e-39
0.63661718 0.24355429 2.5320001 5.6255729e-39
0.65383005 0.2552574 2.5326555 5.6255729e-39
0.19254605 -0.52297467 2.5700002 5.6255729e-39
0.21814458 -0.52328253 2.5735626 5.6255729e-39
0.26679048 -0.52134287 2.5700002 5.6255729e-39
0.2814762 -0.52134287 2.5700002 5.6255729e-39
0.34144288 -0.52134287 2.5700002 5.6255729e-39
0.42343813 -0.52134287 2.5700002 5.6255729e-39
0.19285031 -0.49688753 2.5747502 5.6255729e-39
0.221302 -0.49924538 2.5853682 5.6255729e-39
0.26074025 -0.50110465 2.582278 5.6255729e-39
0.29976672 -0.50465024 2.579134 5.6255729e-39
0.34059483 -0.50694215 2.5825391 5.6255729e-39
0.3793841 -0.50387311 2.5769088 5.6255729e-39
0.42101532 -0.5013966 2.5777874 5.6255729e-39
0.4575038 -0.50104249 2.5808108 5.6255729e-39
0.50048524 -0.49678522 2.5809612 5.6255729e-39
0.53897309 -0.49701157 2.5798171 5.6255729e-39
0.57954431 -0.4909693 2.5750186 5.6255729e-39
0.62226403 -0.48976034 2.5741298 5.6255729e-39
0.65839297 -0.48890588 2.5752251 5.6255729e-39
0.70238942 -0.48593208 2.5765517 5.6255729e-39
0.7413224 -0.48968267 2.578685 5.6255729e-39
0.7784912 -0.48927897 2.5775108 5.6255729e-39
0.81997997 -0.48909548 2.5760453 5.6255729e-39
0.85826647 -0.49134511 2.5718999 5.6255729e-39
0.19182044 -0.46799424 2.5727143 5.6255729e-39
0.22195648 -0.46058092 2.5734198 5.6255729e-39
0.25712919 -0.45844272 2.5794995 5.6255729e-39
0.44629431 -0.47588289 2.5890002 5.6255729e-39
0.51286864 -0.47588289 2.5890002 5.6255729e-39
0.58930582 -0.47588289 2.5890002 5.6255729e-39
0.6230039 -0.47259533 2.5890005 5.6255729e-39
0.65834582 -0.47341728 2.5890005 5.6255729e-39
0.69533151 -0.47588295 2.5890005 5.6255729e-39
0.78471363 -0.47403365 2.5890005 5.6255729e-39
0.82109511 -0.46726605 2.5831544 5.6255729e-39
0.85152197 -0.46262106 2.5770695 5.6255729e-39
0.23038216 -0.42496786 2.5699999 5.6255729e-39
0.26162842 -0.42228034 2.5730398 5.6255729e-39
0.2933802 -0.41568282 2.5872724 5.6255729e-39
0.83210218 -0.41714516 2.5802698 5.6255729e-39
0.85026538 -0.42080221 2.5700002 5.6255729e-39
0.26911622 -0.38471636 2.5719001 5.6255729e-39
0.29847139 -0.37946531 2.5875654 5.6255729e-39
0.32973328 -0.36694321 2.5890007 5.6255729e-39
0.79642576 -0.37232289 2.5890005 5.6255729e-39
0.82099825 -0.37963167 2.5778933 5.6255729e-39
0.84792525 -0.39476603 2.5700002 5.6255729e-39
0.27494925 -0.3581683 2.5700002 5.6255729e-39
0.30081144 -0.34139398 2.5743339 5.6255729e-39
0.33694935 -0.3387512 2.588999 5.6255729e-39
0.79532993 -0.34437814 2.5890005 5.6255729e-39
0.81716788 -0.34134412 2.5758891 5.6255729e-39
0.30754361 -0.30012351 2.5727141 5.6255729e-39
0.3401182 -0.30068651 2.5878127 5.6255729e-39
0.37274569 -0.2965197 2.5889995 5.6255729e-39
0.79004675 -0.29595488 2.5795 5.6255729e-39
0.8074699 -0.31038168 2.5711875 5.6255729e-39
0.31476384 -0.27070671 2.5700002 5.6255729e-39
0.34129557 -0.26109555 2.5721462 5.6255729e-39
0.37777904 -0.26026395 2.5889988 5.6255729e-39
0.40684289 -0.24410574 2.5890002 5.6255729e-39
0.78236192 -0.26189238 2.5773075 5.6255729e-39
0.80526668 -0.24476191 2.5700002 5.6255729e-39
0.3557207 -0.22762857 2.5699999 5.6255729e-39
0.38169083 -0.22117652 2.5738704 5.6255729e-39
0.41525543 -0.21669276 2.5889995 5.6255729e-39
0.44300669 -0.20629811 2.5890002 5.6255729e-39
0.7774598 -0.21985067 2.5748599 5.6255729e-39
0.80526674 -0.23252383 2.5700002 5.6255729e-39
0.35980004 -0.19825715 2.5700002 5.6255729e-39
0.38765636 -0.18345484 2.5699999 5.6255729e-39
0.42157593 -0.18109933 2.5854578 5.6255729e-39
0.44288024 -0.18075584 2.5890005 5.6255729e-39
0.75027329 -0.16965818 2.5853813 5.6255729e-39
0.76796621 -0.18468916 2.5747497 5.6255729e-39
0.39896196 -0.15420002 2.5700002 5.6255729e-39
0.41927052 -0.14093158 2.5759814 5.6255729e-39
0.44899866 -0.13561432 2.5889997 5.6255729e-39
0.74562514 -0.14142793 2.5821269 5.6255729e-39
0.76260823 -0.15140274 2.5700002 5.6255729e-39
0.42268503 -0.11541467 2.5700002 5.6255729e-39
0.46057266 -0.10041399 2.5791035 5.6255729e-39
0.49038696 -0.094857492 2.5889995 5.6255729e-39
0.71572977 -0.09436962 2.5890007 5.6255729e-39
0.73687357 -0.0986057 2.5786376 5.6255729e-39
0.76120961 -0.085666671 2.5700002 5.6255729e-39
0.46488181 -0.057211746 2.5704999 5.6255729e-39
0.4967252 -0.058758441 2.588999 5.6255729e-39
0.52273142 -0.041917145 2.5890002 5.6255729e-39
0.71030515 -0.058372606 2.5825117 5.6255729e-39
0.73294103 -0.064225279 2.5723031 5.6255729e-39
0.76120961 -0.075876199 2.5700002 5.6255729e-39
0.46959329 -0.03146939 2.5700002 5.6255729e-39
0.49916092 -0.019135701 2.575242 5.6255729e-39
0.53117549 -0.0171123 2.5884409 5.6255729e-39
0.56464863 -0.0024657145 2.5890002 5.6255729e-39
0.70750058 -0.019358313 2.579895 5.6255729e-39
0.73897707 -0.012442064 2.5699999 5.6255729e-39
0.47728574 0.0048952382 2.5700002 5.6255729e-39
0.50028419 0.017595153 2.5700004 5.6255729e-39
0.53794008 0.021368505 2.5862854 5.6255729e-39
0.57767791 0.022498375 2.5819206 5.6255729e-39
0.7010712 0.020903807 2.5774844 5.6255729e-39
0.7425465 0.0082607139 2.5699999 5.6255729e-39
0.51400006 0.041609526 2.5700002 5.6255729e-39
0.54521185 0.055471811 2.5758808 5.6255729e-39
0.57990086 0.058007829 2.576441 5.6255729e-39
0.61486018 0.064440809 2.5883214 5.6255729e-39
0.67807144 0.051780008 2.5890002 5.6255729e-39
0.69334406 0.057876073 2.5771246 5.6255729e-39
0.55293947 0.09145195 2.5699999 5.6255729e-39
0.58706146 0.093376666 2.5699999 5.6255729e-39
0.62079 0.1005761 2.5763347 5.6255729e-39
0.66518146 0.10469282 2.581244 5.6255729e-39
0.68643433 0.093893759 2.5721111 5.6255729e-39
0.62321931 0.14450194 2.5700004 5.6255729e-39
0.66048753 0.13906577 2.5791726 5.6255729e-39
0.68778104 0.12727621 2.5700002 5.6255729e-39
0.62577456 0.16806985 2.5699999 5.6255729e-39
0.65444672 0.171683 2.5699999 5.6255729e-39
0.27332383 -0.48949811 2.6090002 5.6255729e-39
0.30094209 -0.48759541 2.6150877 5.6255729e-39
0.3390592 -0.49100265 2.6218576 5.6255729e-39
0.37899062 -0.48905569 2.6186559 5.6255729e-39
0.41285393 -0.48734501 2.6167784 5.6255729e-39
0.47007179 -0.48769102 2.6090004 5.6255729e-39
0.49260405 -0.48701334 2.6090002 5.6255729e-39
0.55534428 -0.48577094 2.6090002 5.6255729e-39
0.564951 -0.48512429 2.6190002 5.6255729e-39
0.74128741 -0.48452863 2.6090002 5.6255729e-39
0.76779151 -0.4845286 2.6090002 5.6255729e-39
0.27498034 -0.47044832 2.6090002 5.6255729e-39
0.29862735 -0.46190706 2.6222072 5.6255729e-39
0.32585296 -0.45175877 2.6290002 5.6255729e-39
0.42938507 -0.47837761 2.619909 5.6255729e-39
0.4619073 -0.47045192 2.622333 5.6255729e-39
0.49858579 -0.47138456 2.621105 5.6255729e-39
0.53960675 -0.47469538 2.6208525 5.6255729e-39
0.58299422 -0.47194004 2.6202505 5.6255729e-39
0.61986321 -0.46091971 2.6198697 5.6255729e-39
0.66349441 -0.46093625 2.6223335 5.6255729e-39
0.70111424 -0.46271199 2.6242719 5.6255729e-39
0.73906839 -0.46988949 2.624814 5.6255729e-39
0.78133595 -0.46394667 2.6247137 5.6255729e-39
0.82056707 -0.45929787 2.6179545 5.6255729e-39
0.84304434 -0.4582611 2.6090002 5.6255729e-39
0.30940184 -0.42463595 2.6121585 5.6255729e-39
0.33626163 -0.42181289 2.6260207 5.6255729e-39
0.79470932 -0.41888735 2.6290004 5.6255729e-39
0.81654239 -0.42246675 2.6202719 5.6255729e-39
0.84233433 -0.43980289 2.6090002 5.6255729e-39
0.31556481 -0.39010769 2.6090002 5.6255729e-39
0.34239268 -0.38397783 2.6206281 5.6255729e-39
0.36553276 -0.37281656 2.627182 5.6255729e-39
0.79194367 -0.37777343 2.6210003 5.6255729e-39
0.80831164 -0.39273039 2.6144552 5.6255729e-39
0.35366449 -0.35200796 2.6090002 5.6255729e-39
0.37492004 -0.3375414 2.6202824 5.6255729e-39
0.40311337 -0.32549524 2.6290002 5.6255729e-39
0.78738707 -0.33889291 2.6216531 5.6255729e-39
0.80589116 -0.32881686 2.6090002 5.6255729e-39
0.38964424 -0.30619267 2.6137064 5.6255729e-39
0.41000587 -0.29658869 2.6267781 5.6255729e-39
0.75722355 -0.29079962 2.6290002 5.6255729e-39
0.77876413 -0.30091611 2.6245098 5.6255729e-39
0.3950772 -0.26586953 2.6090002 5.6255729e-39
0.41755345 -0.26008394 2.622478 5.6255729e-39
0.4431743 -0.24286954 2.6290002 5.6255729e-39
0.75041586 -0.25724623 2.6289999 5.6255729e-39
0.77128804 -0.25961599 2.6218207 5.6255729e-39
0.42968675 -0.2289395 2.6142638 5.6255729e-39
0.45863405 -0.21735968 2.6213531 5.6255729e-39
0.48323527 -0.2053124 2.6290002 5.6255729e-39
0.74451315 -0.21950902 2.6263759 5.6255729e-39
0.76805878 -0.22449346 2.6150877 5.6255729e-39
0.46412075 -0.17938812 2.6152227 5.6255729e-39
0.4832353 -0.18277811 2.6290002 5.6255729e-39
0.71688282 -0.1739116 2.6273334 5.6255729e-39
0.73825806 -0.18178514 2.6157794 5.6255729e-39
0.76282197 -0.19629622 2.6090002 5.6255729e-39
0.47018725 -0.14069104 2.6111438 5.6255729e-39
0.49651268 -0.13555691 2.6253161 5.6255729e-39
0.7124716 -0.13675578 2.6244285 5.6255729e-39
0.72942466 -0.13858564 2.6096904 5.6255729e-39
0.46962005 -0.11678382 2.6090002 5.6255729e-39
0.51028329 -0.10302433 2.6136162 5.6255729e-39
0.53178024 -0.094452806 2.6279478 5.6255729e-39
0.57838005 -0.11767906 2.6290002 5.6255729e-39
0.70566636 -0.10047469 2.6214526 5.6255729e-39
0.5174517 -0.06584619 2.6090002 5.6255729e-39
0.53979564 -0.058719825 2.6179361 5.6255729e-39
0.58150083 -0.054403313 2.624238 5.6255729e-39
0.60627967 -0.049003135 2.6290002 5.6255729e-39
0.67853248 -0.047572386 2.6290002 5.6255729e-39
0.69546825 -0.058996569 2.6228094 5.6255729e-39
0.5507651 -0.023694867 2.6116097 5.6255729e-39
0.58004385 -0.020617526 2.617666 5.6255729e-39
0.61123002 -0.01592423 2.6290004 5.6255729e-39
0.67470312 -0.016642971 2.6290002 5.6255729e-39
0.69101858 -0.020328907 2.6190002 5.6255729e-39
0.55824322 0.010767302 2.6090002 5.6255729e-39
0.58162552 0.0086010993 2.6090007 5.6255729e-39
0.6222012 0.020102018 2.6182587 5.6255729e-39
0.66304141 0.02232906 2.6275177 5.6255729e-39
0.69088215 0.017445188 2.6178892 5.6255729e-39
0.62633753 0.055019729 2.6090009 5.6255729e-39
0.66347927 0.059451144 2.6214993 5.6255729e-39
0.68458074 0.067778811 2.6115003 5.6255729e-39
0.66045129 0.091563776 2.6098006 5.6255729e-39
0.6671586 0.13790429 2.6090002 5.6255729e-39
0.34517276 -0.48461798 2.6490002 5.6255729e-39
0.38145602 -0.48287496 2.6490002 5.6255729e-39
0.40870285 -0.48186576 2.6490002 5.6255729e-39
0.3113206 -0.46874687 2.6490002 5.6255729e-39
0.34080511 -0.46343791 2.6490016 5.6255729e-39
0.37947169 -0.46037826 2.6561887 5.6255729e-39
0.41981474 -0.46027485 2.6572552 5.6255729e-39
0.45780355 -0.45462051 2.6580005 5.6255729e-39
0.50115454 -0.45401248 2.660892 5.6255729e-39
0.53861254 -0.45694515 2.6611741 5.6255729e-39
0.58121014 -0.45977151 2.6595263 5.6255729e-39
0.61738557 -0.44668242 2.652334 5.6255729e-39
0.65984195 -0.44631639 2.6490011 5.6255729e-39
0.70293111 -0.4443382 2.6490006 5.6255729e-39
0.74617213 -0.45159143 2.6490014 5.6255729e-39
0.77691996 -0.44726658 2.6490011 5.6255729e-39
0.35021845 -0.41627145 2.6490002 5.6255729e-39
0.38046092 -0.42030963 2.6590009 5.6255729e-39
0.41404814 -0.42125025 2.6689994 5.6255729e-39
0.47025239 -0.43974957 2.6690001 5.6255729e-39
0.48550385 -0.43974957 2.6690001 5.6255729e-39
0.53634197 -0.43974954 2.6690001 5.6255729e-39
0.59734762 -0.43720764 2.6690001 5.6255729e-39
0.62039655 -0.43656522 2.6678233 5.6255729e-39
0.66045201 -0.43325981 2.661593 5.6255729e-39
0.70192665 -0.43203354 2.6554008 5.6255729e-39
0.73622698 -0.43301657 2.6607649 5.6255729e-39
0.78165585 -0.42291307 2.6576962 5.6255729e-39
0.38559431 -0.38138682 2.6529033 5.6255729e-39
0.41911533 -0.37874383 2.6689999 5.6255729e-39
0.44652793 -0.37027082 2.6690004 5.6255729e-39
0.74859089 -0.38361579 2.6689997 5.6255729e-39
0.77466083 -0.37932175 2.6580918 5.6255729e-39
0.39188385 -0.34773383 2.6490002 5.6255729e-39
0.42113918 -0.34000745 2.6538286 5.6255729e-39
0.45289737 -0.33667096 2.6689994 5.6255729e-39
0.75048465 -0.33482188 2.6615005 5.6255729e-39
0.76842779 -0.34130302 2.6555009 5.6255729e-39
0.43019766 -0.30062369 2.6490011 5.6255729e-39
0.45876807 -0.29855061 2.6591761 5.6255729e-39
0.49199009 -0.29319552 2.6689994 5.6255729e-39
0.74586332 -0.29808643 2.6524794 5.6255729e-39
0.76846236 -0.31333891 2.6490002 5.6255729e-39
0.43477243 -0.26826385 2.6490002 5.6255729e-39
0.45972073 -0.2604149 2.6490016 5.6255729e-39
0.49949816 -0.25907525 2.6638 5.6255729e-39
0.52363241 -0.24995397 2.6690004 5.6255729e-39
0.71540493 -0.25560269 2.6690004 5.6255729e-39
0.73550367 -0.26070684 2.656369 5.6255729e-39
0.47022179 -0.23346134 2.6490004 5.6255729e-39
0.4994877 -0.22270679 2.6598334 5.6255729e-39
0.53622377 -0.21440673 2.6689992 5.6255729e-39
0.71502882 -0.21307871 2.6634445 5.6255729e-39
0.72624505 -0.22348015 2.6521583 5.6255729e-39
0.50365889 -0.18062583 2.6490016 5.6255729e-39
0.54083598 -0.17976409 2.6655385 5.6255729e-39
0.57602447 -0.1686313 2.6681993 5.6255729e-39
0.60243148 -0.16014001 2.6690001 5.6255729e-39
0.70786923 -0.1802493 2.6565008 5.6255729e-39
0.72658288 -0.19930573 2.6490002 5.6255729e-39
0.50946873 -0.15181665 2.6490006 5.6255729e-39
0.53882545 -0.14097013 2.6519642 5.6255729e-39
0.57964736 -0.13910744 2.6571367 5.6255729e-39
0.61031961 -0.13779105 2.6581666 5.6255729e-39
0.67868859 -0.13980478 2.6690001 5.6255729e-39
0.70088923 -0.14331087 2.6568794 5.6255729e-39
0.54791868 -0.10542487 2.6490014 5.6255729e-39
0.58137554 -0.10084594 2.6543984 5.6255729e-39
0.61894858 -0.10078124 2.6537282 5.6255729e-39
0.6647687 -0.091804683 2.6658421 5.6255729e-39
0.68857932 -0.1023526 2.6532869 5.6255729e-39
0.55586958 -0.076526672 2.6490002 5.6255729e-39
0.57494932 -0.071354903 2.64991 5.6255729e-39
0.62324101 -0.062785812 2.6490016 5.6255729e-39
0.66230619 -0.060689341 2.654314 5.6255729e-39
0.68722641 -0.071144573 2.6490002 5.6255729e-39
0.62970513 -0.024219435 2.6490014 5.6255729e-39
0.65846568 -0.021237869 2.6490014 5.6255729e-39
0.65938318 0.0071098707 2.6490002 5.6255729e-39
0.42271429 -0.44320953 2.6900001 5.6255729e-39
0.45345718 -0.44320956 2.6900003 5.6255729e-39
0.51006079 -0.44247931 2.6990004 5.6255729e-39
0.53673953 -0.44249961 2.6987503 5.6255729e-39
0.57699156 -0.44929704 2.7001374 5.6255729e-39
0.76600951 -0.44320953 2.6900001 5.6255729e-39
0.43320584 -0.42344621 2.6899996 5.6255729e-39
0.4610036 -0.4216952 2.7025261 5.6255729e-39
0.49525252 -0.42952394 2.7078884 5.6255729e-39
0.54048663 -0.43173349 2.7071812 5.6255729e-39
0.58659101 -0.43219888 2.7021575 5.6255729e-39
0.62105089 -0.42249912 2.7004998 5.6255729e-39
0.65903395 -0.41989812 2.7041748 5.6255729e-39
0.70225894 -0.41928107 2.7010529 5.6255729e-39
0.73859948 -0.41503972 2.6991878 5.6255729e-39
0.76997286 -0.41871724 2.6940646 5.6255729e-39
0.43296194 -0.39197144 2.6900003 5.6255729e-39
0.46210384 -0.38082409 2.6951218 5.6255729e-39
0.48436531 -0.37644178 2.7110002 5.6255729e-39
0.74085027 -0.37845865 2.7013514 5.6255729e-39
0.76857138 -0.39709523 2.6900001 5.6255729e-39
0.47285649 -0.34317803 2.6910496 5.6255729e-39
0.49814746 -0.33735394 2.7071309 5.6255729e-39
0.71518767 -0.32273811 2.7110002 5.6255729e-39
0.73787248 -0.33827519 2.7021332 5.6255729e-39
0.50730675 -0.30778831 2.6966312 5.6255729e-39
0.53686589 -0.29519391 2.7065451 5.6255729e-39
0.57989585 -0.29382077 2.7110002 5.6255729e-39
0.70977712 -0.29512373 2.7079995 5.6255729e-39
0.72990102 -0.30303943 2.6983998 5.6255729e-39
0.53954285 -0.26207769 2.6931963 5.6255729e-39
0.57834673 -0.25847736 2.7109993 5.6255729e-39
0.61087871 -0.24321544 2.7110002 5.6255729e-39
0.70626211 -0.25859791 2.699059 5.6255729e-39
0.72950244 -0.2747643 2.6900003 5.6255729e-39
0.5423919 -0.2320354 2.6900001 5.6255729e-39
0.57968622 -0.21773222 2.7016168 5.6255729e-39
0.61875731 -0.21893273 2.7081168 5.6255729e-39
0.67800826 -0.21636362 2.7110002 5.6255729e-39
0.70086128 -0.22124548 2.7012243 5.6255729e-39
0.58331037 -0.18595272 2.6942 5.6255729e-39
0.62137061 -0.18194935 2.7071812 5.6255729e-39
0.66181874 -0.17836775 2.7088993 5.6255729e-39
0.69245368 -0.18128428 2.6956344 5.6255729e-39
0.57642859 -0.15627618 2.6900001 5.6255729e-39
0.63179529 -0.14304745 2.6939373 5.6255729e-39
0.66254914 -0.13958181 2.7020438 5.6255729e-39
0.68915242 -0.13904154 2.6899996 5.6255729e-39
0.66510999 -0.10227912 2.6900008 5.6255729e-39
0.68402863 -0.11528572 2.6900001 5.6255729e-39
0.58564281 -0.4450886 2.733 5.6255729e-39
0.47111714 -0.41905999 2.733 5.6255729e-39
0.5031715 -0.41626132 2.734201 5.6255729e-39
0.54031998 -0.41427532 2.7476993 5.6255729e-39
0.57937008 -0.41894844 2.7447603 5.6255729e-39
0.6157102 -0.40828001 2.7366216 5.6255729e-39
0.66511685 -0.40691331 2.7330005 5.6255729e-39
0.69756573 -0.40767249 2.7330005 5.6255729e-39
0.72359431 -0.40344286 2.733 5.6255729e-39
0.5048551 -0.3796275 2.7335398 5.6255729e-39
0.54132968 -0.38064456 2.7519805 5.6255729e-39
0.56998831 -0.37562081 2.7540007 5.6255729e-39
0.61689544 -0.38638654 2.7473183 5.6255729e-39
0.66321766 -0.38990226 2.7468164 5.6255729e-39
0.70124573 -0.38118297 2.7451932 5.6255729e-39
0.72787035 -0.37834391 2.733001 5.6255729e-39
0.5127629 -0.35051811 2.7330003 5.6255729e-39
0.54119563 -0.3390319 2.7400005 5.6255729e-39
0.58035314 -0.33977714 2.7502496 5.6255729e-39
0.61235106 -0.33467421 2.7489314 5.6255729e-39
0.70222318 -0.34029743 2.7429478 5.6255729e-39
0.72619718 -0.34650534 2.7330005 5.6255729e-39
0.55204237 -0.31021324 2.733 5.6255729e-39
0.58113712 -0.30015978 2.7362678 5.6255729e-39
0.6191079 -0.30013725 2.741313 5.6255729e-39
0.65728521 -0.29181111 2.7478759 5.6255729e-39
0.69483787 -0.30153751 2.7408004 5.6255729e-39
0.58611614 -0.26170546 2.733001 5.6255729e-39
0.62296891 -0.26388532 2.733001 5.6255729e-39
0.66112572 -0.26028565 2.7330012 5.6255729e-39
0.69017351 -0.26101452 2.7330008 5.6255729e-39
0.58694422 -0.23555857 2.733 5.6255729e-39
0.63770002 -0.23686001 2.733 5.6255729e-39
0.66221416 -0.22010711 2.733001 5.6255729e-39
0.68455142 -0.22124287 2.7330003 5.6255729e-39
0.66893429 -0.19521429 2.733 5.6255729e-39
0.58801877 -0.40464863 2.7770002 5.6255729e-39
0.60036099 -0.40729338 2.7770002 5.6255729e-39
0.58791709 -0.38752863 2.7779567 5.6255729e-39
0.61713856 -0.37329519 2.7829232 5.6255729e-39
0.66017646 -0.3729116 2.7833693 5.6255729e-39
0.68631577 -0.36629954 2.7770002 5.6255729e-39
0.62743193 -0.34847036 2.7797501 5.6255729e-39
0.66253304 -0.34225401 2.7930338 5.6255729e-39
0.68781084 -0.33599967 2.7864287 5.6255729e-39
0.66816604 -0.30701914 2.7790005 5.6255729e-39
0.68605131 -0.30837926 2.7770002 5.6255729e-39
-0.29529688 0.15611419 0.53861696 1.0151087e-38
-0.32154649 0.18235439 0.53299993 1.0151087e-38
-0.29882336 0.18545026 0.53842586 1.0151087e-38
-0.2686716 0.19337389 0.55261868 1.0151087e-38
-0.32549864 0.21691917 0.54694194 1.0151087e-38
-0.30193689 0.21244323 0.54217964 1.0151087e-38
-0.27012762 0.20928539 0.55303842 1.0151087e-38
-0.062306959 -0.12718746 0.59685695 1.0151087e-38
-0.12326588 -0.083453275 0.58339995 1.0151087e-38
-0.1124066 -0.085347176 0.58535486 1.0151087e-38
-0.062278319 -0.11387175 0.59650004 1.0151087e-38
-0.12699622 -0.061154995 0.58858895 1.0151087e-38
-0.10541054 -0.066459857 0.58618224 1.0151087e-38
-0.0683873 -0.056180555 0.58206916 1.0151087e-38
-0.13275084 -0.026091451 0.59472108 1.0151087e-38
-0.093859516 -0.010336849 0.59085441 1.0151087e-38
-0.07806506 -0.0078912163 0.5931111 1.0151087e-38
-0.092482492 0.0050625037 0.59302723 1.0151087e-38
-0.079158098 0.0018402382 0.59475005 1.0151087e-38
-0.24979067 0.19554722 0.56495422 1.0151087e-38
-0.23526157 0.19825707 0.57334685 1.0151087e-38
-0.28387791 0.23059542 0.56019574 1.0151087e-38
-0.2563917 0.22140306 0.56908423 1.0151087e-38
-0.22482783 0.22229722 0.58378178 1.0151087e-38
-0.24606284 0.24055809 0.57800001 1.0151087e-38
-0.23084113 0.24136887 0.58366668 1.0151087e-38
-0.063809521 -0.13250792 0.59999996 1.0151087e-38
-0.088635989 -0.091920957 0.60831803 1.0151087e-38
-0.068235248 -0.097045183 0.60772437 1.0151087e-38
-0.1243168 -0.048805185 0.61785126 1.0151087e-38
-0.099159695 -0.058118373 0.60527384 1.0151087e-38
-0.072737895 -0.077299692 0.61267346 1.0151087e-38
-0.16818929 -0.005213446 0.63094115 1.0151087e-38
-0.13978904 -0.010120711 0.60925615 1.0151087e-38
-0.10156466 -0.025556693 0.61013097 1.0151087e-38
-0.074010678 -0.023138616 0.63061953 1.0151087e-38
-0.16727725 0.0018807882 0.62979317 1.0151087e-38
-0.13578753 0.019266447 0.61264169 1.0151087e-38
-0.11478617 0.0087785609 0.61509788 1.0151087e-38
-0.14557104 0.0506269 0.62209934 1.0151087e-38
-0.08154802 -0.0046150875 0.65415788 1.0151087e-38
-0.067348011 -0.0093032233 0.64775091 1.0151087e-38
-0.16945384 0.018511575 0.6575914 1.0151087e-38
-0.13082206 0.027445583 0.66358477 1.0151087e-38
-0.098183915 0.024449499 0.65868664 1.0151087e-38
-0.070338994 0.017147489 0.6612823 1.0151087e-38
-0.1331957 0.062494382 0.66103762 1.0151087e-38
-0.10323132 0.057406403 0.66520375 1.0151087e-38
-0.077556945 0.045697503 0.66685307 1.0151087e-38
-0.13471363 0.089530446 0.6755144 1.0151087e-38
-0.11337094 0.086095177 0.67640948 1.0151087e-38
0.19777036 0.23913418 0.67862499 1.0151087e-38
0.21784064 0.23910126 0.67796582 1.0151087e-38
0.15946801 0.27716133 0.67900002 1.0151087e-38
0.18378997 0.26332211 0.66891468 1.0151087e-38
0.21947888 0.25898612 0.66200304 1.0151087e-38
0.25752521 0.26275173 0.66780919 1.0151087e-38
0.28626946 0.27403075 0.67534018 1.0151087e-38
0.15904616 0.29342347 0.67893958 1.0151087e-38
0.17875116 0.28950742 0.66683334 1.0151087e-38
0.21951456 0.28705192 0.6547612 1.0151087e-38
0.26047444 0.28841925 0.66103417 1.0151087e-38
0.29428005 0.29191214 0.6737352 1.0151087e-38
-0.089273199 0.071892172 0.6861276 1.0151087e-38
-0.13743876 0.10815908 0.6843881 1.0151087e-38
-0.10036086 0.1020032 0.69279355 1.0151087e-38
-0.13756986 0.13988523 0.69509304 1.0151087e-38
-0.10334514 0.13962221 0.70222622 1.0151087e-38
-0.13697143 0.1794529 0.70662522 1.0151087e-38
-0.10445088 0.17961599 0.70750529 1.0151087e-38
-0.13074893 0.21315445 0.71380687 1.0151087e-38
-0.10712276 0.21488327 0.71400136 1.0151087e-38
0.15818 0.23898192 0.71900004 1.0151087e-38
0.18525529 0.23255742 0.70464879 1.0151087e-38
0.2203092 0.22809893 0.69864678 1.0151087e-38
0.2575568 0.22983731 0.70230591 1.0151087e-38
0.28720006 0.23463751 0.71303982 1.0151087e-38
0.14759368 0.26420176 0.70195013 1.0151087e-38
0.17121735 0.2492132 0.68997926 1.0151087e-38
0.23702857 0.24026667 0.68000001 1.0151087e-38
0.26661441 0.24546139 0.68546677 1.0151087e-38
0.29947844 0.25942135 0.69670552 1.0151087e-38
0.33051315 0.27303159 0.71100986 1.0151087e-38
0.11811253 0.31283146 0.71732426 1.0151087e-38
0.13794701 0.29593769 0.69812196 1.0151087e-38
0.31358373 0.29180264 0.68433976 1.0151087e-38
0.33792439 0.29459411 0.69851363 1.0151087e-38
0.11687588 0.3205578 0.71766675 1.0151087e-38
-0.084218234 0.14488664 0.727171 1.0151087e-38
-0.078238398 0.15530489 0.73726094 1.0151087e-38
-0.15522528 0.19107379 0.72145462 1.0151087e-38
-0.084703267 0.18077755 0.72576743 1.0151087e-38
-0.074313775 0.18409145 0.74382353 1.0151087e-38
0.15521954 0.19866124 0.75770015 1.0151087e-38
0.1843244 0.1950015 0.75330937 1.0151087e-38
0.2198599 0.19361275 0.75047857 1.0151087e-38
0.25292954 0.19587192 0.75223619 1.0151087e-38
-0.14369765 0.22555688 0.72681206 1.0151087e-38
-0.091306657 0.22433223 0.72534972 1.0151087e-38
-0.071524702 0.22061695 0.74318165 1.0151087e-38
0.14542221 0.2245165 0.74526721 1.0151087e-38
0.17758842 0.2152369 0.73528433 1.0151087e-38
0.21868579 0.20912375 0.73048371 1.0151087e-38
0.26120171 0.2105366 0.73373419 1.0151087e-38
0.29943329 0.22222891 0.74015039 1.0151087e-38
0.33472604 0.23259167 0.75167376 1.0151087e-38
0.36023048 0.23895048 0.75800002 1.0151087e-38
-0.13394693 0.25764805 0.73811412 1.0151087e-38
-0.099275276 0.25942147 0.73387557 1.0151087e-38
-0.070389226 0.25801849 0.74854249 1.0151087e-38
0.11479121 0.26796696 0.74865359 1.0151087e-38
0.13209458 0.25523233 0.73433208 1.0151087e-38
0.31388 0.24497724 0.72480601 1.0151087e-38
0.34306243 0.25694942 0.7342391 1.0151087e-38
0.36743525 0.25750586 0.74461848 1.0151087e-38
-0.12679814 0.28483179 0.75253499 1.0151087e-38
-0.097609088 0.29176593 0.75078499 1.0151087e-38
-0.074965 0.29038984 0.75559068 1.0151087e-38
0.10676333 0.30093914 0.73844045 1.0151087e-38
0.12180603 0.28693199 0.72222215 1.0151087e-38
0.3578319 0.28252599 0.72208345 1.0151087e-38
0.36244568 0.28233761 0.72506255 1.0151087e-38
0.097050451 0.32627928 0.74343663 1.0151087e-38
0.14845945 0.15601529 0.79477996 1.0151087e-38
0.17793986 0.15492582 0.79341418 1.0151087e-38
0.20999216 0.1575072 0.79545605 1.0151087e-38
-0.0056210794 0.19762011 0.79726696 1.0151087e-38
0.022313504 0.19390222 0.79343486 1.0151087e-38
0.060674034 0.19104035 0.79251444 1.0151087e-38
0.10334173 0.18686381 0.79447049 1.0151087e-38
0.1401837 0.18015923 0.78004926 1.0151087e-38
0.17927043 0.17585526 0.77337635 1.0151087e-38
0.21990281 0.17409058 0.77621579 1.0151087e-38
0.26012316 0.18205878 0.77912271 1.0151087e-38
0.29714623 0.19104359 0.78526241 1.0151087e-38
0.32662839 0.19733976 0.79287505 1.0151087e-38
-0.054049511 0.22426148 0.78011841 1.0151087e-38
-0.018845474 0.22177477 0.78485274 1.0151087e-38
0.019985544 0.21961036 0.77930707 1.0151087e-38
0.059987087 0.21989319 0.77887481 1.0151087e-38
0.10158992 0.22024241 0.78409618 1.0151087e-38
0.12989058 0.21260673 0.76640612 1.0151087e-38
0.27903333 0.20075905 0.76100004 1.0151087e-38
0.30489904 0.20534402 0.76786011 1.0151087e-38
0.3419652 0.21568994 0.77547896 1.0151087e-38
0.37539089 0.22489978 0.77943099 1.0151087e-38
0.40018544 0.22097462 0.79733342 1.0151087e-38
-0.050781302 0.26108158 0.77133995 1.0151087e-38
-0.020094601 0.2597515 0.76849198 1.0151087e-38
0.019563558 0.25935742 0.77107853 1.0151087e-38
0.059687868 0.25941333 0.77693927 1.0151087e-38
0.099264987 0.258903 0.77824283 1.0151087e-38
0.12087619 0.2417524 0.76000005 1.0151087e-38
0.37549961 0.2424738 0.76051432 1.0151087e-38
-0.1247219 0.29800901 0.76310354 1.0151087e-38
-0.099872202 0.31123918 0.76548839 1.0151087e-38
-0.056734379 0.30041668 0.76470602 1.0151087e-38
-0.020173725 0.29870391 0.76903898 1.0151087e-38
0.019978961 0.29860914 0.78081369 1.0151087e-38
0.059734896 0.29686606 0.78937805 1.0151087e-38
0.089212447 0.29729316 0.77577943 1.0151087e-38
-0.0958362 0.32690346 0.77858323 1.0151087e-38
-0.060983278 0.32695106 0.77409959 1.0151087e-38
-0.022819517 0.32592443 0.78448802 1.0151087e-38
0.01405184 0.32246616 0.79427475 1.0151087e-38
0.075280271 0.3362256 0.78740096 1.0151087e-38
0.083294176 0.33049211 0.76535428 1.0151087e-38
0.39667007 -0.041436329 0.83900011 1.0151087e-38
0.41163552 -0.051677857 0.83635211 1.0151087e-38
0.38522437 -0.015510017 0.82642925 1.0151087e-38
0.40695381 -0.02387777 0.82667106 1.0151087e-38
0.35294756 0.028055806 0.83493614 1.0151087e-38
0.37946165 0.019775523 0.82317752 1.0151087e-38
0.40516812 0.021561131 0.81829232 1.0151087e-38
0.34785226 0.061302878 0.82896501 1.0151087e-38
0.37880859 0.06028172 0.81335771 1.0151087e-38
0.40356779 0.058751136 0.8122474 1.0151087e-38
0.13983335 0.1190581 0.83900005 1.0151087e-38
0.34677693 0.099150233 0.82697457 1.0151087e-38
0.37890419 0.10072108 0.80975807 1.0151087e-38
0.40299469 0.096790694 0.80969429 1.0151087e-38
0.068895526 0.15410659 0.82929283 1.0151087e-38
0.10198795 0.14492212 0.82155734 1.0151087e-38
0.13907148 0.13811342 0.81741703 1.0151087e-38
0.17909247 0.13751614 0.81758779 1.0151087e-38
0.21940558 0.1487392 0.81769866 1.0151087e-38
0.25731853 0.15463792 0.82690853 1.0151087e-38
0.28962058 0.15796381 0.83460885 1.0151087e-38
0.35115796 0.12914951 0.83179814 1.0151087e-38
0.37850741 0.13436121 0.8184607 1.0151087e-38
0.40434024 0.13353208 0.81488609 1.0151087e-38
-0.013434988 0.1919494 0.81308955 1.0151087e-38
0.020911332 0.17885859 0.81503129 1.0151087e-38
0.058794949 0.17138168 0.81351215 1.0151087e-38
0.095759273 0.1693752 0.80447227 1.0151087e-38
0.12266667 0.16076192 0.80000007 1.0151087e-38
0.23679297 0.16157201 0.80100006 1.0151087e-38
0.26330662 0.16538103 0.80819827 1.0151087e-38
0.30123222 0.17181751 0.81632704 1.0151087e-38
0.33863315 0.18527213 0.8224588 1.0151087e-38
0.37522346 0.19319312 0.82832891 1.0151087e-38
0.40429014 0.19825703 0.83687496 1.0151087e-38
-0.049394254 0.21209922 0.8110072 1.0151087e-38
-0.031181691 0.20413034 0.80703259 1.0151087e-38
0.3527596 0.20247735 0.80451071 1.0151087e-38
0.38341364 0.20711535 0.8103506 1.0151087e-38
0.408564 0.20801201 0.82411319 1.0151087e-38
0.066127762 0.31172031 0.80309755 1.0151087e-38
0.079999998 0.30095237 0.80000001 1.0151087e-38
-0.016780952 0.33642 0.801 1.0151087e-38
0.021491999 0.32510951 0.8002001 1.0151087e-38
0.067792699 0.33806977 0.80983317 1.0151087e-38
0.066602387 0.3607443 0.80850005 1.0151087e-38
0.38692707 -0.08290422 0.86885715 1.0151087e-38
0.41561303 -0.085744143 0.86133337 1.0151087e-38
0.35445827 -0.050410818 0.87313282 1.0151087e-38
0.38138568 -0.058556683 0.85821539 1.0151087e-38
0.40930751 -0.0688245 0.84669584 1.0151087e-38
0.34897846 -0.017477849 0.86476254 1.0151087e-38
0.37068996 -0.025853785 0.84875947 1.0151087e-38
0.3175011 0.035598852 0.87573695 1.0151087e-38
0.33755159 0.019236939 0.85659319 1.0151087e-38
0.3620517 0.002651795 0.84176928 1.0151087e-38
0.31674141 0.064373896 0.87233835 1.0151087e-38
0.32845265 0.058458507 0.85337764 1.0151087e-38
0.1172749 0.11928798 0.84487504 1.0151087e-38
0.14335488 0.11529121 0.85093659 1.0151087e-38
0.17259982 0.1167663 0.85054636 1.0151087e-38
0.31120998 0.10213942 0.86749572 1.0151087e-38
0.32758754 0.10035077 0.84955221 1.0151087e-38
0.039573334 0.15910096 0.84800005 1.0151087e-38
0.060847182 0.14932036 0.8501597 1.0151087e-38
0.10006081 0.12864631 0.84993315 1.0151087e-38
0.1280634 0.12112179 0.84100002 1.0151087e-38
0.18419361 0.12310751 0.84682965 1.0151087e-38
0.22017001 0.13813858 0.84849113 1.0151087e-38
0.26375952 0.14551547 0.86052328 1.0151087e-38
0.30175829 0.13988078 0.85909325 1.0151087e-38
