# .PCD v0.7 - Point Cloud Data file format
VERSION 0.7
FIELDS x y z rgb
SIZE 4 4 4 4
TYPE F F F F
COUNT 1 1 1 1
WIDTH 1021
HEIGHT 1
VIEWPOINT 0 0 0 1 0 0 0
POINTS 1021
DATA ascii
-0.29927215 -0.50160021 2.2588565 1.5988032e-38
-0.26069793 -0.48298174 2.2660003 1.5988032e-38
-0.23810983 -0.482694 2.2660003 1.5988032e-38
0.99109852 -0.49861372 2.2597363 1.5988032e-38
1.0028294 -0.49605283 2.2520001 1.5988032e-38
-0.28382352 -0.47256258 2.2520001 1.5988032e-38
-0.26169568 -0.45920449 2.2625606 1.5988032e-38
-0.23055649 -0.45068225 2.2659998 1.5988032e-38
0.98401469 -0.4605101 2.2591996 1.5988032e-38
-0.25007388 -0.42286801 2.2544701 1.5988032e-38
-0.22084108 -0.42009872 2.2642105 1.5988032e-38
0.95870858 -0.40536001 2.2520001 1.5988032e-38
0.97544974 -0.41926959 2.2542901 1.5988032e-38
-0.24664763 -0.39678097 2.2520001 1.5988032e-38
-0.21628603 -0.38766605 2.2596598 1.5988032e-38
-0.18800564 -0.37436777 2.2622662 1.5988032e-38
0.95165151 -0.36790451 2.2607503 1.5988032e-38
0.97019511 -0.37750101 2.256355 1.5988032e-38
-0.1806387 -0.33979285 2.2626567 1.5988032e-38
-0.15394412 -0.32839015 2.2660003 1.5988032e-38
0.95331925 -0.340599 2.2577035 1.5988032e-38
0.96617961 -0.35067067 2.2530005 1.5988032e-38
-0.1665182 -0.30568653 2.2645264 1.5988032e-38
-0.14415115 -0.30739462 2.2643845 1.5988032e-38
-0.10459569 -0.29594681 2.2660005 1.5988032e-38
0.94479859 -0.2991032 2.2542393 1.5988032e-38
0.93093693 -0.25981516 2.2546921 1.5988032e-38
0.93402612 -0.22300081 2.2578328 1.5988032e-38
0.96299815 -0.2144762 2.2520001 1.5988032e-38
-0.060053334 -0.16085716 2.2520001 1.5988032e-38
-0.059338417 -0.14584383 2.2520001 1.5988032e-38
-0.013256872 -0.12362804 2.266 1.5988032e-38
0.0043161907 -0.12516953 2.266 1.5988032e-38
-0.10938286 -0.083645716 2.2520001 1.5988032e-38
-0.040750477 -0.11581714 2.2520001 1.5988032e-38
-0.015033999 -0.10331088 2.256433 1.5988032e-38
0.015106666 -0.094367623 2.2659993 1.5988032e-38
0.042730287 -0.087618671 2.266 1.5988032e-38
-0.10938286 -0.079356194 2.2520001 1.5988032e-38
-0.0073875138 -0.076019898 2.2520001 1.5988032e-38
0.02189303 -0.0628765 2.2550268 1.5988032e-38
0.049618527 -0.055538874 2.2650225 1.5988032e-38
0.031781472 -0.03139152 2.2520003 1.5988032e-38
0.060955241 -0.019940719 2.2586219 1.5988032e-38
0.092798099 -0.0021580956 2.2660003 1.5988032e-38
0.069044128 0.018981354 2.2544224 1.5988032e-38
0.09649726 0.020283062 2.264703 1.5988032e-38
0.077926353 0.045754921 2.2520001 1.5988032e-38
0.10175602 0.057356402 2.2524054 1.5988032e-38
0.12879971 0.064932905 2.2585621 1.5988032e-38
0.10631892 0.086709663 2.2520001 1.5988032e-38
0.14211367 0.099227324 2.2574186 1.5988032e-38
0.16281119 0.10835262 2.26425 1.5988032e-38
0.1479886 0.13190284 2.2519999 1.5988032e-38
0.17372039 0.14382458 2.2612333 1.5988032e-38
0.18731752 0.1766925 2.2538483 1.5988032e-38
0.20825233 0.18783109 2.261579 1.5988032e-38
0.19562487 0.21526636 2.2520001 1.5988032e-38
0.21882547 0.22272708 2.2608531 1.5988032e-38
0.2453035 0.22803873 2.2660003 1.5988032e-38
0.22532006 0.25826415 2.2538059 1.5988032e-38
0.24971516 0.26433933 2.2644997 1.5988032e-38
0.23109809 0.2876662 2.2520003 1.5988032e-38
0.25777486 0.29373509 2.2538915 1.5988032e-38
0.29824877 0.29824877 2.266 1.5988032e-38
-0.40723792 -0.70335025 2.2810001 1.5988032e-38
-0.37983876 -0.69831806 2.2809989 1.5988032e-38
-0.33966112 -0.6913836 2.2899995 1.5988032e-38
-0.29889247 -0.69244379 2.2904305 1.5988032e-38
-0.265569 -0.68975371 2.2923391 1.5988032e-38
-0.21593468 -0.68516892 2.2810001 1.5988032e-38
-0.17392087 -0.68444967 2.2881818 1.5988032e-38
-0.14979438 -0.68401259 2.2853639 1.5988032e-38
-0.093577176 -0.6844573 2.2891374 1.5988032e-38
-0.076346673 -0.6853345 2.2904003 1.5988032e-38
-0.03281429 -0.68034959 2.2970004 1.5988032e-38
-0.37412816 -0.65845203 2.2809992 1.5988032e-38
-0.34080014 -0.65872443 2.2926462 1.5988032e-38
-0.31132653 -0.66328377 2.3081424 1.5988032e-38
-0.24910615 -0.67493141 2.2974739 1.5988032e-38
-0.22015899 -0.67355531 2.2925296 1.5988032e-38
-0.18385878 -0.67530805 2.2902067 1.5988032e-38
-0.13852869 -0.67524934 2.2942741 1.5988032e-38
-0.10832329 -0.67646956 2.2901254 1.5988032e-38
-0.05689723 -0.6648466 2.3005264 1.5988032e-38
-0.019516764 -0.66077489 2.3025532 1.5988032e-38
0.018806394 -0.65480971 2.297189 1.5988032e-38
0.058948386 -0.65458113 2.3034048 1.5988032e-38
0.098490439 -0.65045774 2.2963252 1.5988032e-38
0.14207239 -0.64559162 2.2951212 1.5988032e-38
0.18075874 -0.64537954 2.2925668 1.5988032e-38
0.22001211 -0.6459896 2.2970626 1.5988032e-38
0.25882214 -0.64903378 2.2938612 1.5988032e-38
0.29781279 -0.64368999 2.2825997 1.5988032e-38
0.34107792 -0.64490563 2.2821028 1.5988032e-38
0.37647364 -0.64411092 2.2809999 1.5988032e-38
0.42423502 -0.6430248 2.2810001 1.5988032e-38
0.44958365 -0.64339685 2.2823334 1.5988032e-38
0.60392189 -0.64085239 2.2810001 1.5988032e-38
-0.37299785 -0.62933892 2.2809999 1.5988032e-38
-0.33934087 -0.61954135 2.2863333 1.5988032e-38
-0.30568394 -0.61530888 2.3048251 1.5988032e-38
-0.27399448 -0.60297662 2.309 1.5988032e-38
0.024220953 -0.63635051 2.312 1.5988032e-38
0.11229715 -0.63635051 2.312 1.5988032e-38
0.14159207 -0.6323297 2.312 1.5988032e-38
0.17827763 -0.63268101 2.3091872 1.5988032e-38
0.21986087 -0.63440698 2.3111668 1.5988032e-38
0.26276854 -0.63266569 2.3101246 1.5988032e-38
0.30151287 -0.6265558 2.2980866 1.5988032e-38
0.34106657 -0.62531549 2.2985401 1.5988032e-38
0.37899524 -0.62564176 2.2974093 1.5988032e-38
0.41916725 -0.62856591 2.2948093 1.5988032e-38
0.46262261 -0.62531692 2.2964153 1.5988032e-38
0.49946308 -0.61786807 2.2935488 1.5988032e-38
0.5400247 -0.61875004 2.2949386 1.5988032e-38
0.57977879 -0.61972946 2.2939994 1.5988032e-38
0.61874658 -0.62099034 2.2949624 1.5988032e-38
0.6598745 -0.6109454 2.2888834 1.5988032e-38
0.69869083 -0.60724747 2.2857995 1.5988032e-38
0.74061471 -0.60966235 2.2951324 1.5988032e-38
0.7798841 -0.60439748 2.2949142 1.5988032e-38
0.81700224 -0.60419589 2.2925663 1.5988032e-38
0.86169142 -0.60160524 2.2906928 1.5988032e-38
0.88952994 -0.60157442 2.2948751 1.5988032e-38
-0.33411217 -0.59097451 2.2809994 1.5988032e-38
-0.30061749 -0.57985789 2.2907548 1.5988032e-38
-0.26293221 -0.57421029 2.3047986 1.5988032e-38
-0.23384228 -0.56500882 2.312 1.5988032e-38
0.66217989 -0.59377569 2.3006961 1.5988032e-38
0.69540721 -0.59405702 2.2994139 1.5988032e-38
0.74305224 -0.59519142 2.3111176 1.5988032e-38
0.78608006 -0.59671617 2.312 1.5988032e-38
0.82377124 -0.59375834 2.3025558 1.5988032e-38
0.86018109 -0.58929646 2.3066475 1.5988032e-38
0.89839464 -0.58344442 2.3021762 1.5988032e-38
0.93993741 -0.57913816 2.3003633 1.5988032e-38
0.97525042 -0.57242125 2.2948604 1.5988032e-38
1.0038862 -0.56895721 2.289 1.5988032e-38
-0.29108599 -0.54291916 2.2820656 1.5988032e-38
-0.25994223 -0.5402236 2.2935131 1.5988032e-38
-0.22155066 -0.53580153 2.3020599 1.5988032e-38
-0.19596952 -0.52625525 2.312 1.5988032e-38
0.9472267 -0.54941607 2.312 1.5988032e-38
0.98456943 -0.54203635 2.3020785 1.5988032e-38
1.0018462 -0.54520214 2.2832859 1.5988032e-38
-0.28458196 -0.5097428 2.2810001 1.5988032e-38
-0.25908515 -0.50284207 2.2823334 1.5988032e-38
-0.21958564 -0.49926156 2.2932804 1.5988032e-38
-0.17862955 -0.48689622 2.312 1.5988032e-38
0.9537636 -0.49237984 2.3120003 1.5988032e-38
0.97850668 -0.4984403 2.2964523 1.5988032e-38
-0.25462589 -0.46523255 2.2809999 1.5988032e-38
-0.21601249 -0.46313572 2.2818713 1.5988032e-38
-0.17997301 -0.4596456 2.3000498 1.5988032e-38
-0.14972952 -0.44258285 2.312 1.5988032e-38
0.95269078 -0.45481566 2.312 1.5988032e-38
0.97211206 -0.46117413 2.2967458 1.5988032e-38
-0.20203143 -0.42940733 2.2810001 1.5988032e-38
-0.18009041 -0.41948682 2.2810009 1.5988032e-38
-0.15159188 -0.41784558 2.3010225 1.5988032e-38
0.94456631 -0.41905826 2.3080399 1.5988032e-38
0.96721202 -0.42161551 2.2931905 1.5988032e-38
-0.17150672 -0.38406587 2.2809989 1.5988032e-38
-0.14091457 -0.37889245 2.3014867 1.5988032e-38
-0.11523301 -0.3721219 2.312 1.5988032e-38
0.91268957 -0.36881906 2.312 1.5988032e-38
0.94189823 -0.37914455 2.3031082 1.5988032e-38
0.96459085 -0.3911916 2.2855718 1.5988032e-38
-0.17161812 -0.33951214 2.2810001 1.5988032e-38
-0.13758995 -0.34297365 2.2949274 1.5988032e-38
-0.10822167 -0.33832577 2.3069992 1.5988032e-38
-0.061653338 -0.32368001 2.312 1.5988032e-38
0.91178066 -0.33811894 2.3103325 1.5988032e-38
0.9398787 -0.34150317 2.2992642 1.5988032e-38
-0.18117659 -0.31847104 2.2810001 1.5988032e-38
-0.13135664 -0.31470561 2.2810004 1.5988032e-38
-0.10092314 -0.31182539 2.2934115 1.5988032e-38
-0.063540682 -0.31235594 2.312 1.5988032e-38
0.90623599 -0.30078837 2.3099527 1.5988032e-38
0.933164 -0.29964429 2.2941017 1.5988032e-38
0.87856001 -0.24220952 2.312 1.5988032e-38
0.90201676 -0.25987339 2.3048947 1.5988032e-38
0.92639953 -0.26305592 2.292083 1.5988032e-38
0.90448725 -0.22497436 2.2970302 1.5988032e-38
0.93083769 -0.21794719 2.2901433 1.5988032e-38
0.96692765 -0.20563619 2.2970002 1.5988032e-38
0.021121975 -0.16905734 2.312 1.5988032e-38
0.044038095 -0.16073905 2.312 1.5988032e-38
-0.014124286 -0.12731668 2.2850001 1.5988032e-38
0.021143371 -0.1385487 2.2989175 1.5988032e-38
0.048654985 -0.13417412 2.3119996 1.5988032e-38
0.024500564 -0.10901064 2.2846122 1.5988032e-38
0.060011413 -0.099247575 2.3010271 1.5988032e-38
0.10807683 -0.094865397 2.3120003 1.5988032e-38
0.12198553 -0.101728 2.312 1.5988032e-38
0.067566723 -0.06299039 2.2916493 1.5988032e-38
0.099108078 -0.057561338 2.3053954 1.5988032e-38
0.12110478 -0.055047624 2.312 1.5988032e-38
0.076033339 -0.032585718 2.2810001 1.5988032e-38
0.10045645 -0.020319937 2.2867334 1.5988032e-38
0.13826741 -0.018709105 2.3030968 1.5988032e-38
0.11191782 0.01778134 2.2809994 1.5988032e-38
0.14104715 0.020080114 2.2927911 1.5988032e-38
0.17197129 0.024831701 2.3107135 1.5988032e-38
0.14733566 0.056194384 2.2843196 1.5988032e-38
0.17928755 0.059884597 2.3023896 1.5988032e-38
0.20591778 0.065635376 2.3113184 1.5988032e-38
0.15260978 0.082550488 2.2810001 1.5988032e-38
0.18156773 0.099393606 2.2935805 1.5988032e-38
0.21340263 0.10051093 2.3099792 1.5988032e-38
0.24881525 0.11229715 2.312 1.5988032e-38
0.18890129 0.13323256 2.2828281 1.5988032e-38
0.21848798 0.14016545 2.295784 1.5988032e-38
0.24623367 0.14099786 2.3119998 1.5988032e-38
0.22446696 0.17861401 2.2912846 1.5988032e-38
0.25693929 0.18141551 2.3093116 1.5988032e-38
0.23318411 0.21299455 2.2821431 1.5988032e-38
0.26172158 0.21816981 2.296874 1.5988032e-38
0.30102855 0.23034649 2.3071346 1.5988032e-38
0.26671219 0.25652221 2.2909992 1.5988032e-38
0.2998924 0.25944299 2.2985039 1.5988032e-38
0.33302331 0.26724243 2.3054609 1.5988032e-38
0.27067867 0.2877681 2.2810004 1.5988032e-38
0.2994808 0.29312873 2.283982 1.5988032e-38
0.3407222 0.29553908 2.3019989 1.5988032e-38
0.36798257 0.30206811 2.3068335 1.5988032e-38
-0.28810477 -0.68037051 2.3270001 1.5988032e-38
-0.27259144 -0.68037051 2.3270001 1.5988032e-38
-0.089090869 -0.68125701 2.3270001 1.5988032e-38
-0.077566676 -0.68037051 2.3270001 1.5988032e-38
-0.29588753 -0.65796977 2.335001 1.5988032e-38
-0.26128426 -0.65870214 2.3400238 1.5988032e-38
-0.21944068 -0.65490794 2.3354113 1.5988032e-38
-0.18049851 -0.65730047 2.3397684 1.5988032e-38
-0.14057069 -0.65555531 2.3387799 1.5988032e-38
-0.10020412 -0.65714163 2.3392062 1.5988032e-38
-0.065113187 -0.64888191 2.331924 1.5988032e-38
-0.018679319 -0.64206213 2.3270001 1.5988032e-38
0.01639981 -0.64136559 2.3269999 1.5988032e-38
0.066131353 -0.64205444 2.3350003 1.5988032e-38
0.093557291 -0.64375365 2.339 1.5988032e-38
-0.29190996 -0.62697232 2.3284545 1.5988032e-38
-0.25865379 -0.61924183 2.3352432 1.5988032e-38
-0.22112592 -0.61875075 2.3454313 1.5988032e-38
-0.19178532 -0.62076312 2.3572862 1.5988032e-38
-0.14378667 -0.63580668 2.3590002 1.5988032e-38
-0.11233334 -0.63580668 2.3590002 1.5988032e-38
-0.057113562 -0.63198978 2.3430007 1.5988032e-38
-0.018161135 -0.63167775 2.3426197 1.5988032e-38
0.017883912 -0.62912786 2.3397357 1.5988032e-38
0.058023203 -0.63429004 2.3487144 1.5988032e-38
0.10942151 -0.62596446 2.3501585 1.5988032e-38
0.13877586 -0.61869687 2.3432319 1.5988032e-38
0.18076412 -0.61903173 2.3442705 1.5988032e-38
0.21976776 -0.61896241 2.3361111 1.5988032e-38
0.25936577 -0.61788738 2.3405392 1.5988032e-38
0.29764497 -0.61049974 2.3403828 1.5988032e-38
0.33910108 -0.60843873 2.3382733 1.5988032e-38
0.38141289 -0.60705388 2.3364553 1.5988032e-38
0.42185676 -0.61178493 2.3394752 1.5988032e-38
0.45891759 -0.61196613 2.3378482 1.5988032e-38
0.49767938 -0.6042493 2.3269999 1.5988032e-38
0.5424093 -0.60482949 2.3276398 1.5988032e-38
0.57655358 -0.60408282 2.3276665 1.5988032e-38
0.61791646 -0.60251683 2.3332856 1.5988032e-38
0.64712769 -0.60723627 2.3269999 1.5988032e-38
0.78231525 -0.60280389 2.3269999 1.5988032e-38
0.83639032 -0.60236061 2.3270001 1.5988032e-38
-0.25625107 -0.58727831 2.3275335 1.5988032e-38
-0.21847852 -0.579593 2.3341393 1.5988032e-38
-0.18350486 -0.57900971 2.3504205 1.5988032e-38
0.12356667 -0.59986001 2.3590002 1.5988032e-38
0.30474743 -0.59095317 2.3560379 1.5988032e-38
0.33924672 -0.59312016 2.3590009 1.5988032e-38
0.38041538 -0.59269506 2.3590009 1.5988032e-38
0.41946086 -0.59108233 2.3586454 1.5988032e-38
0.46283209 -0.59262025 2.3562582 1.5988032e-38
0.50095654 -0.58707857 2.3462005 1.5988032e-38
0.53916413 -0.59061074 2.3449056 1.5988032e-38
0.57945269 -0.58835363 2.3463111 1.5988032e-38
0.61887813 -0.59111345 2.3503151 1.5988032e-38
0.65656626 -0.58780915 2.3443346 1.5988032e-38
0.69823867 -0.58401471 2.3384731 1.5988032e-38
0.73908865 -0.58216977 2.3467257 1.5988032e-38
0.78069788 -0.58492976 2.3405762 1.5988032e-38
0.81956571 -0.58329546 2.3359861 1.5988032e-38
0.86026084 -0.57169062 2.3388531 1.5988032e-38
0.89951909 -0.56607461 2.3357627 1.5988032e-38
0.93171281 -0.56488198 2.3335881 1.5988032e-38
-0.20650868 -0.55102557 2.3269999 1.5988032e-38
-0.1796452 -0.53896999 2.335942 1.5988032e-38
-0.15077631 -0.53046304 2.3590007 1.5988032e-38
0.73466003 -0.55942005 2.3590002 1.5988032e-38
0.86840278 -0.55492675 2.3590007 1.5988032e-38
0.9018985 -0.55149925 2.3568387 1.5988032e-38
0.94532448 -0.54209983 2.3548853 1.5988032e-38
0.96942633 -0.53385484 2.3320003 1.5988032e-38
-0.20255983 -0.51016712 2.3270001 1.5988032e-38
-0.17952004 -0.50416625 2.3302553 1.5988032e-38
-0.14215831 -0.49967104 2.3458238 1.5988032e-38
-0.11547869 -0.48483071 2.3590002 1.5988032e-38
0.91439342 -0.49202004 2.3590002 1.5988032e-38
0.94632453 -0.49973416 2.3457007 1.5988032e-38
0.97052026 -0.51145875 2.3294616 1.5988032e-38
-0.13908534 -0.46016079 2.3302002 1.5988032e-38
-0.10419933 -0.45791721 2.349457 1.5988032e-38
0.91439342 -0.44409117 2.3590002 1.5988032e-38
0.94219941 -0.46145076 2.3479867 1.5988032e-38
0.96251148 -0.46679467 2.337667 1.5988032e-38
-0.13114454 -0.42096174 2.328779 1.5988032e-38
-0.10088046 -0.42049661 2.3411303 1.5988032e-38
-0.064943895 -0.40896565 2.3583341 1.5988032e-38
-0.036695559 -0.40514895 2.3590002 1.5988032e-38
0.91332543 -0.41959965 2.3495195 1.5988032e-38
0.92750412 -0.42074293 2.3320003 1.5988032e-38
-0.12189049 -0.39669812 2.3270001 1.5988032e-38
-0.097222276 -0.38115814 2.3321021 1.5988032e-38
-0.060175866 -0.37913695 2.3382437 1.5988032e-38
-0.033690412 -0.37959132 2.3584082 1.5988032e-38
0.91225266 -0.37899595 2.3465569 1.5988032e-38
0.9301191 -0.38680276 2.3320525 1.5988032e-38
-0.089851364 -0.34329525 2.3296673 1.5988032e-38
-0.059702199 -0.34139913 2.3311646 1.5988032e-38
-0.019750921 -0.33943465 2.3538234 1.5988032e-38
0.0034721217 -0.33802122 2.3590004 1.5988032e-38
0.87732345 -0.33138335 2.3590002 1.5988032e-38
0.90172046 -0.33950591 2.35062 1.5988032e-38
-0.090863816 -0.31026667 2.3270001 1.5988032e-38
-0.057618447 -0.3099106 2.3311479 1.5988032e-38
-0.018761417 -0.30407488 2.3483343 1.5988032e-38
0.0076379064 -0.29444128 2.3582008 1.5988032e-38
0.87545121 -0.29431334 2.3590007 1.5988032e-38
0.89095211 -0.30090028 2.347707 1.5988032e-38
-0.0022314286 -0.27669716 2.3430002 1.5988032e-38
0.013976755 -0.25905734 2.3524556 1.5988032e-38
0.048303336 -0.2432017 2.3590002 1.5988032e-38
0.86718553 -0.25641879 2.3442507 1.5988032e-38
0.8854658 -0.26657069 2.3332605 1.5988032e-38
0.026879959 -0.21876125 2.3426676 1.5988032e-38
0.053990491 -0.21749268 2.3530879 1.5988032e-38
0.86765301 -0.2267964 2.3489141 1.5988032e-38
0.89025086 -0.22187412 2.3350003 1.5988032e-38
0.97290766 -0.20832191 2.3270001 1.5988032e-38
0.026670238 -0.1841858 2.328372 1.5988032e-38
0.060643245 -0.18109545 2.3413806 1.5988032e-38
0.09591683 -0.17472309 2.3548102 1.5988032e-38
0.12656224 -0.16550447 2.3590002 1.5988032e-38
0.066703878 -0.14272703 2.3311613 1.5988032e-38
0.10042953 -0.14058809 2.342803 1.5988032e-38
0.13433599 -0.14112185 2.3577464 1.5988032e-38
0.077566676 -0.11302572 2.3270001 1.5988032e-38
0.095955431 -0.10155902 2.3278434 1.5988032e-38
0.13919136 -0.098240688 2.3479037 1.5988032e-38
0.16700225 -0.089117788 2.3590004 1.5988032e-38
0.096958339 -0.075904533 2.3269999 1.5988032e-38
0.14177549 -0.060480256 2.3345685 1.5988032e-38
0.17614879 -0.055055402 2.3562775 1.5988032e-38
0.14658518 -0.036408842 2.3270001 1.5988032e-38
0.18129148 -0.020153027 2.3495178 1.5988032e-38
0.20759204 -0.017973335 2.3590009 1.5988032e-38
0.18752268 0.014766992 2.3324642 1.5988032e-38
0.2184936 0.022050863 2.3534999 1.5988032e-38
0.24219067 0.028757337 2.3590004 1.5988032e-38
0.19428603 0.043585084 2.3270001 1.5988032e-38
0.22403263 0.058406316 2.3380556 1.5988032e-38
0.25031215 0.063069627 2.3580866 1.5988032e-38
0.2988067 0.078633346 2.3590002 1.5988032e-38
0.23184662 0.094906926 2.3308396 1.5988032e-38
0.25820222 0.10194561 2.3482509 1.5988032e-38
0.29395384 0.1068515 2.3590007 1.5988032e-38
0.23713239 0.12189049 2.3270001 1.5988032e-38
0.26608065 0.13931341 2.3343613 1.5988032e-38
0.29789048 0.14366736 2.3559663 1.5988032e-38
0.32651559 0.15801558 2.3590002 1.5988032e-38
0.27088666 0.16689621 2.3269999 1.5988032e-38
0.30082998 0.18016711 2.337872 1.5988032e-38
0.33833978 0.18570721 2.3537703 1.5988032e-38
0.36665606 0.19231467 2.3590004 1.5988032e-38
0.30178389 0.2122014 2.3318381 1.5988032e-38
0.34067866 0.22079939 2.3412478 1.5988032e-38
0.3732765 0.22376278 2.3567686 1.5988032e-38
0.34715471 0.2543439 2.3332446 1.5988032e-38
0.38129678 0.26101014 2.3503854 1.5988032e-38
0.40898317 0.26286009 2.3590007 1.5988032e-38
0.38234845 0.29293194 2.3355589 1.5988032e-38
0.41678882 0.29418507 2.3590009 1.5988032e-38
-0.18630859 -0.64038861 2.3760002 1.5988032e-38
-0.14418203 -0.64086431 2.3777781 1.5988032e-38
-0.097302862 -0.64095426 2.3760002 1.5988032e-38
-0.0792 -0.64038861 2.3760002 1.5988032e-38
-0.17426901 -0.6229983 2.3859613 1.5988032e-38
-0.14125039 -0.62926471 2.388799 1.5988032e-38
-0.10082413 -0.63148052 2.3879993 1.5988032e-38
-0.059561662 -0.61823761 2.3837333 1.5988032e-38
-0.021972984 -0.6164977 2.3838775 1.5988032e-38
0.022736052 -0.61720026 2.3824673 1.5988032e-38
0.061362635 -0.61760181 2.3816338 1.5988032e-38
0.09714406 -0.6169585 2.3818941 1.5988032e-38
0.14444572 -0.60606861 2.3759999 1.5988032e-38
0.17774694 -0.60696137 2.3767617 1.5988032e-38
0.22200017 -0.60637838 2.3815649 1.5988032e-38
0.2585592 -0.60616714 2.3768888 1.5988032e-38
0.2873829 -0.6041829 2.3760002 1.5988032e-38
-0.16299334 -0.58152199 2.3769999 1.5988032e-38
-0.14348863 -0.57734585 2.3902535 1.5988032e-38
-0.11466414 -0.56420827 2.3920002 1.5988032e-38
-0.059230484 -0.59762043 2.3920002 1.5988032e-38
-0.034171432 -0.59913909 2.3920002 1.5988032e-38
0.0068342863 -0.596861 2.3920002 1.5988032e-38
0.052396197 -0.59913909 2.3920002 1.5988032e-38
0.10736763 -0.59787589 2.3888001 1.5988032e-38
0.13842338 -0.59307623 2.3864179 1.5988032e-38
0.17793339 -0.59651077 2.3859305 1.5988032e-38
0.21569864 -0.59729022 2.3866665 1.5988032e-38
0.260093 -0.5954383 2.3845327 1.5988032e-38
0.29809767 -0.58954889 2.3849597 1.5988032e-38
0.33984026 -0.58357477 2.3842957 1.5988032e-38
0.38119921 -0.58398175 2.3843477 1.5988032e-38
0.41768306 -0.58111489 2.3869472 1.5988032e-38
0.4627977 -0.58370024 2.3837709 1.5988032e-38
0.49818522 -0.56990242 2.3822432 1.5988032e-38
0.54025388 -0.57528079 2.386153 1.5988032e-38
0.57968116 -0.57209468 2.3850973 1.5988032e-38
0.62012219 -0.57636565 2.3866658 1.5988032e-38
0.658337 -0.57659477 2.3838358 1.5988032e-38
0.69749302 -0.57071984 2.3819602 1.5988032e-38
0.73960721 -0.56791097 2.3773911 1.5988032e-38
0.78052384 -0.56891972 2.3799999 1.5988032e-38
0.82163 -0.56821066 2.381777 1.5988032e-38
0.85083431 -0.56797731 2.3759999 1.5988032e-38
-0.16066287 -0.55666292 2.3760002 1.5988032e-38
-0.13578221 -0.54436791 2.3832448 1.5988032e-38
-0.10509047 -0.53611857 2.3903322 1.5988032e-38
-0.067488581 -0.53108096 2.3920002 1.5988032e-38
0.50507176 -0.55668062 2.390667 1.5988032e-38
0.52877122 -0.55509591 2.3920002 1.5988032e-38
0.5718019 -0.55813336 2.3920002 1.5988032e-38
0.67659438 -0.55585527 2.3920002 1.5988032e-38
0.70114672 -0.55412197 2.3908567 1.5988032e-38
0.7363373 -0.55141801 2.3895993 1.5988032e-38
0.78352875 -0.55469972 2.391238 1.5988032e-38
0.82444739 -0.55233365 2.3866661 1.5988032e-38
0.86063212 -0.54791081 2.3843803 1.5988032e-38
0.89661497 -0.54208618 2.3810282 1.5988032e-38
0.93069923 -0.53340477 2.3823152 1.5988032e-38
-0.12558858 -0.51253718 2.3760002 1.5988032e-38
-0.10112689 -0.50185108 2.3849998 1.5988032e-38
-0.063298531 -0.49556726 2.391999 1.5988032e-38
-0.035993908 -0.48523432 2.3920002 1.5988032e-38
0.91063845 -0.48813069 2.3760002 1.5988032e-38
0.93101239 -0.50038028 2.3818941 1.5988032e-38
-0.087281629 -0.46711838 2.3760002 1.5988032e-38
-0.061418194 -0.45890704 2.3838906 1.5988032e-38
-0.031808965 -0.45604092 2.3919995 1.5988032e-38
0.90611213 -0.45823249 2.3843191 1.5988032e-38
0.9266637 -0.46639696 2.3784001 1.5988032e-38
-0.058749165 -0.42633215 2.3766952 1.5988032e-38
-0.022641871 -0.41920501 2.3835931 1.5988032e-38
0.0056952387 -0.40436193 2.3920002 1.5988032e-38
0.87706673 -0.43967241 2.3920002 1.5988032e-38
0.89819539 -0.42015174 2.3800781 1.5988032e-38
-0.013587936 -0.38081273 2.3799994 1.5988032e-38
0.017461117 -0.37819162 2.3908761 1.5988032e-38
0.8742553 -0.37032995 2.3856001 1.5988032e-38
0.89546925 -0.38145882 2.3790183 1.5988032e-38
-0.019611429 -0.35225141 2.3760004 1.5988032e-38
0.022763964 -0.34013548 2.3836305 1.5988032e-38
0.049263816 -0.32918474 2.3920002 1.5988032e-38
0.87179238 -0.34065869 2.3833137 1.5988032e-38
0.8881349 -0.34650916 2.3759997 1.5988032e-38
-0.042994291 -0.30322289 2.3760002 1.5988032e-38
-0.015840001 -0.29417145 2.3760002 1.5988032e-38
0.024978427 -0.30256197 2.3762906 1.5988032e-38
0.053988095 -0.30017772 2.3889351 1.5988032e-38
0.86450934 -0.29701582 2.3815503 1.5988032e-38
0.88025153 -0.31453717 2.3760002 1.5988032e-38
0.030972866 -0.26404715 2.3759997 1.5988032e-38
0.061542749 -0.26027498 2.3837421 1.5988032e-38
0.09480381 -0.25374484 2.3919995 1.5988032e-38
0.8536703 -0.25905973 2.3879991 1.5988032e-38
0.072800592 -0.22571136 2.3772304 1.5988032e-38
0.099728502 -0.220099 2.3850138 1.5988032e-38
0.12770736 -0.21052279 2.3920002 1.5988032e-38
0.836061 -0.23692192 2.3920002 1.5988032e-38
0.84991914 -0.22365785 2.3845575 1.5988032e-38
0.10894274 -0.18771048 2.376533 1.5988032e-38
0.14071213 -0.18047623 2.3842666 1.5988032e-38
0.16174477 -0.16402286 2.3920002 1.5988032e-38
0.15294252 -0.13936539 2.3759999 1.5988032e-38
0.16732374 -0.13513051 2.3855996 1.5988032e-38
0.15412574 -0.11188572 2.3760002 1.5988032e-38
0.17649153 -0.10086931 2.3822434 1.5988032e-38
0.21849006 -0.086360537 2.3920002 1.5988032e-38
0.18858469 -0.069685228 2.3771849 1.5988032e-38
0.21578066 -0.064128213 2.384701 1.5988032e-38
0.22646815 -0.020522136 2.3812239 1.5988032e-38
0.2533029 -0.0079710484 2.3895996 1.5988032e-38
0.28020576 -0.0022780953 2.3920002 1.5988032e-38
0.23137715 0.0050914288 2.3760002 1.5988032e-38
0.26046354 0.018985685 2.3780646 1.5988032e-38
0.28316727 0.021186287 2.392 1.5988032e-38
0.26881582 0.058544166 2.3759997 1.5988032e-38
0.2972461 0.064843498 2.3844357 1.5988032e-38
0.32348955 0.073468573 2.3920002 1.5988032e-38
0.2750988 0.087604903 2.3760004 1.5988032e-38
0.30040881 0.098849364 2.3783824 1.5988032e-38
0.33032385 0.10069181 2.3919995 1.5988032e-38
0.30968821 0.13286206 2.3760002 1.5988032e-38
0.33891004 0.14146115 2.388217 1.5988032e-38
0.36950707 0.14625375 2.392 1.5988032e-38
0.34809208 0.17054977 2.3766954 1.5988032e-38
0.37605074 0.17816947 2.3838289 1.5988032e-38
0.39032418 0.21466272 2.3857388 1.5988032e-38
0.41051435 0.22945148 2.3913331 1.5988032e-38
0.68831027 0.21772084 2.3920002 1.5988032e-38
0.42669973 0.2580089 2.3866661 1.5988032e-38
0.44574732 0.27413082 2.3920002 1.5988032e-38
0.49804854 0.26853049 2.3920002 1.5988032e-38
0.43427461 0.28886214 2.3796926 1.5988032e-38
0.4562135 0.29817793 2.3884435 1.5988032e-38
0.4999443 0.30090383 2.3919992 1.5988032e-38
0.52168387 0.31665528 2.3920002 1.5988032e-38
0.5148496 0.32121146 2.3920002 1.5988032e-38
0.52168387 0.32121146 2.3920002 1.5988032e-38
-0.16289429 -0.63092858 2.4090002 1.5988032e-38
-0.1374736 -0.61707139 2.4089985 1.5988032e-38
-0.098640904 -0.61414087 2.4131689 1.5988032e-38
-0.069906577 -0.60926324 2.4141004 1.5988032e-38
-0.014566455 -0.6038264 2.4127781 1.5988032e-38
0.021336857 -0.60706806 2.4090002 1.5988032e-38
0.057866983 -0.60492676 2.4090002 1.5988032e-38
0.09517318 -0.60321575 2.4175003 1.5988032e-38
0.23631144 -0.60339713 2.4090002 1.5988032e-38
-0.12763473 -0.58939004 2.4090002 1.5988032e-38
-0.097966947 -0.58239126 2.4159846 1.5988032e-38
-0.060923822 -0.58271807 2.420603 1.5988032e-38
-0.021488417 -0.59496635 2.420516 1.5988032e-38
0.018595533 -0.59522396 2.4181538 1.5988032e-38
0.059907436 -0.59452325 2.4196248 1.5988032e-38
0.10000564 -0.59288788 2.4205158 1.5988032e-38
0.14139025 -0.58047682 2.419461 1.5988032e-38
0.18139751 -0.5816763 2.4193728 1.5988032e-38
0.2213542 -0.58606172 2.4191353 1.5988032e-38
0.26079255 -0.58210778 2.4201269 1.5988032e-38
0.30048409 -0.57913899 2.4189782 1.5988032e-38
0.33990905 -0.57203203 2.4186084 1.5988032e-38
0.38034564 -0.5727734 2.4204302 1.5988032e-38
0.42189851 -0.57045877 2.4159393 1.5988032e-38
0.45880187 -0.57002676 2.4154601 1.5988032e-38
0.48534128 -0.5672937 2.4203336 1.5988032e-38
0.55234933 -0.56496787 2.4090002 1.5988032e-38
0.57916403 -0.56287479 2.4105458 1.5988032e-38
0.6224069 -0.5643943 2.4090002 1.5988032e-38
0.65846908 -0.56435525 2.4124002 1.5988032e-38
-0.086588033 -0.54442555 2.4090002 1.5988032e-38
-0.059996225 -0.54038978 2.4145241 1.5988032e-38
-0.022968853 -0.52719635 2.4260001 1.5988032e-38
0.35812384 -0.55682474 2.4260001 1.5988032e-38
0.38332906 -0.55598456 2.4260006 1.5988032e-38
0.42281717 -0.55528438 2.4260006 1.5988032e-38
0.45348352 -0.55514443 2.4260006 1.5988032e-38
0.49852559 -0.5521695 2.41325 1.5988032e-38
0.54151386 -0.54996455 2.4155805 1.5988032e-38
0.58021075 -0.55365241 2.4213638 1.5988032e-38
0.61958796 -0.54856789 2.4173114 1.5988032e-38
0.65848023 -0.55198729 2.4237337 1.5988032e-38
0.69828373 -0.5437659 2.4179049 1.5988032e-38
0.74070257 -0.54085946 2.4185002 1.5988032e-38
0.7793864 -0.54814672 2.4162121 1.5988032e-38
0.81751668 -0.54049426 2.4160483 1.5988032e-38
0.86091739 -0.54055405 2.4174995 1.5988032e-38
0.90087718 -0.53028756 2.4182284 1.5988032e-38
0.92383236 -0.52845061 2.4090004 1.5988032e-38
-0.057840154 -0.50848621 2.4090002 1.5988032e-38
-0.020993702 -0.50250316 2.4177732 1.5988032e-38
0.9035849 -0.50046891 2.4253712 1.5988032e-38
0.92286438 -0.5094775 2.4141004 1.5988032e-38
-0.01415916 -0.46321842 2.4165111 1.5988032e-38
0.0023104763 -0.44592196 2.4260001 1.5988032e-38
0.87871146 -0.44509146 2.4090002 1.5988032e-38
0.89164639 -0.46476778 2.4189785 1.5988032e-38
-0.0068961051 -0.43041065 2.4167275 1.5988032e-38
0.022078855 -0.41724235 2.4191999 1.5988032e-38
0.043899052 -0.41742605 2.4260004 1.5988032e-38
0.87871146 -0.41411859 2.4090002 1.5988032e-38
0.88744098 -0.41989434 2.4138041 1.5988032e-38
0.030667845 -0.38941157 2.411 1.5988032e-38
0.053755961 -0.37474394 2.4201841 1.5988032e-38
0.87503958 -0.37427875 2.4141004 1.5988032e-38
0.88442236 -0.39106664 2.4175005 1.5988032e-38
0.039002858 -0.35102573 2.4090002 1.5988032e-38
0.062874869 -0.34267515 2.414063 1.5988032e-38
0.09222725 -0.32747334 2.4248672 1.5988032e-38
0.12245524 -0.32346666 2.4260001 1.5988032e-38
0.86746126 -0.33754116 2.4220328 1.5988032e-38
0.071521871 -0.29775843 2.4090002 1.5988032e-38
0.098602057 -0.29832613 2.4190445 1.5988032e-38
0.12729624 -0.29629105 2.4259999 1.5988032e-38
0.85600746 -0.30365118 2.414973 1.5988032e-38
0.074181907 -0.27454954 2.4090002 1.5988032e-38
0.10445113 -0.26547951 2.4102743 1.5988032e-38
0.1392834 -0.25989562 2.4241614 1.5988032e-38
0.16404381 -0.24953145 2.4260001 1.5988032e-38
0.83805859 -0.24175002 2.4175 1.5988032e-38
0.84801728 -0.26490375 2.4187143 1.5988032e-38
0.14368148 -0.22315627 2.4127078 1.5988032e-38
0.17189346 -0.21574014 2.4235001 1.5988032e-38
0.83229858 -0.22790334 2.4175 1.5988032e-38
0.84508336 -0.2188268 2.415375 1.5988032e-38
0.15830572 -0.19042574 2.4090002 1.5988032e-38
0.18021281 -0.18071027 2.4222221 1.5988032e-38
0.20378402 -0.18345182 2.4260004 1.5988032e-38
0.78995389 -0.16779976 2.4217503 1.5988032e-38
0.80173522 -0.17097524 2.4260001 1.5988032e-38
0.84888577 -0.19960286 2.4090002 1.5988032e-38
0.18596332 -0.14285421 2.4156516 1.5988032e-38
0.21434921 -0.13495281 2.4260008 1.5988032e-38
0.78633207 -0.15531535 2.4260004 1.5988032e-38
0.19293588 -0.10625671 2.4100003 1.5988032e-38
0.22007032 -0.10475384 2.4187138 1.5988032e-38
0.24912243 -0.093652584 2.4235713 1.5988032e-38
0.23278177 -0.052062646 2.4090004 1.5988032e-38
0.25740242 -0.058193043 2.4242413 1.5988032e-38
0.30190223 -0.04543937 2.4260004 1.5988032e-38
0.2635662 -0.026092799 2.4170353 1.5988032e-38
0.29935172 -0.017346777 2.4240007 1.5988032e-38
0.3211562 -0.0092419051 2.4260001 1.5988032e-38
0.30463332 0.021232555 2.41082 1.5988032e-38
0.33222789 0.022472296 2.4228377 1.5988032e-38
0.30819908 0.048180003 2.4090002 1.5988032e-38
0.34172472 0.059203029 2.4169133 1.5988032e-38
0.37145856 0.06317503 2.4260004 1.5988032e-38
0.34573129 0.09794835 2.4089992 1.5988032e-38
0.37792468 0.10145024 2.4212496 1.5988032e-38
0.41049463 0.11321333 2.4260004 1.5988032e-38
0.6977638 0.099350482 2.4260001 1.5988032e-38
0.34704897 0.12740934 2.4090002 1.5988032e-38
0.38329992 0.13666101 2.4114714 1.5988032e-38
0.41917303 0.14297692 2.4222217 1.5988032e-38
0.44130099 0.15480191 2.4260001 1.5988032e-38
0.39479366 0.17771891 2.4090004 1.5988032e-38
0.41942269 0.18176734 2.4161203 1.5988032e-38
0.44998083 0.18624586 2.4252272 1.5988032e-38
0.69748688 0.18511645 2.42345 1.5988032e-38
0.42508024 0.21674375 2.409353 1.5988032e-38
0.46004075 0.21995831 2.4230425 1.5988032e-38
0.49625549 0.22799051 2.4230256 1.5988032e-38
0.53834099 0.23797905 2.4260001 1.5988032e-38
0.69092876 0.21651143 2.4213099 1.5988032e-38
0.43247288 0.24319431 2.4090002 1.5988032e-38
0.46286285 0.25869647 2.4111531 1.5988032e-38
0.50056446 0.25638196 2.4163265 1.5988032e-38
0.5323078 0.27367407 2.4219999 1.5988032e-38
0.69006222 0.24568066 2.4260004 1.5988032e-38
0.47262293 0.2911194 2.4090002 1.5988032e-38
0.49807644 0.29825509 2.4094586 1.5988032e-38
0.53887826 0.30142233 2.4216774 1.5988032e-38
0.56375623 0.31191432 2.4260004 1.5988032e-38
0.48751047 0.3211562 2.4260001 1.5988032e-38
0.54334623 0.32578221 2.4184449 1.5988032e-38
0.56705493 0.32501084 2.4203336 1.5988032e-38
-0.047696676 -0.57429898 2.4430003 1.5988032e-38
-0.020553268 -0.57709318 2.4496961 1.5988032e-38
0.021977326 -0.57930505 2.4548671 1.5988032e-38
0.06108097 -0.57650244 2.453603 1.5988032e-38
0.099346682 -0.57647717 2.4570708 1.5988032e-38
0.13884076 -0.56789941 2.451618 1.5988032e-38
0.17708451 -0.56573325 2.4501724 1.5988032e-38
0.22100353 -0.56908453 2.4490252 1.5988032e-38
0.25860053 -0.56675172 2.4545455 1.5988032e-38
0.29677162 -0.56673092 2.44363 1.5988032e-38
0.34057897 -0.56311673 2.4456158 1.5988032e-38
0.46766001 -0.56072664 2.4430001 1.5988032e-38
0.48162001 -0.56072664 2.4430001 1.5988032e-38
-0.046200957 -0.55009055 2.4430001 1.5988032e-38
-0.020156775 -0.54726672 2.4474349 1.5988032e-38
0.019446628 -0.54244286 2.4656622 1.5988032e-38
0.053009309 -0.5452292 2.4759991 1.5988032e-38
0.098333344 -0.55853337 2.4780004 1.5988032e-38
0.13821955 -0.55799341 2.4732635 1.5988032e-38
0.18311086 -0.55558485 2.4715199 1.5988032e-38
0.2157063 -0.5578565 2.4726002 1.5988032e-38
0.26968256 -0.55847871 2.4720001 1.5988032e-38
0.30424374 -0.55244887 2.4690831 1.5988032e-38
0.34045458 -0.55059862 2.4715991 1.5988032e-38
0.37853491 -0.54406512 2.4638035 1.5988032e-38
0.41986251 -0.54398757 2.4606276 1.5988032e-38
0.46089801 -0.54222816 2.4636309 1.5988032e-38
0.50000578 -0.53761518 2.4572403 1.5988032e-38
0.5404554 -0.53388292 2.46053 1.5988032e-38
0.58113605 -0.53452468 2.4595366 1.5988032e-38
0.61822516 -0.5316143 2.4563997 1.5988032e-38
0.6617623 -0.53519022 2.4556141 1.5988032e-38
0.6978901 -0.53049892 2.4563882 1.5988032e-38
0.73824173 -0.52767044 2.4458337 1.5988032e-38
0.7819376 -0.53143317 2.4486852 1.5988032e-38
0.82019007 -0.52911615 2.4430006 1.5988032e-38
0.85975552 -0.52865529 2.4464874 1.5988032e-38
0.89280558 -0.52688426 2.4430003 1.5988032e-38
-0.0049118525 -0.50075036 2.4430001 1.5988032e-38
0.021230236 -0.49894837 2.4520376 1.5988032e-38
0.059040669 -0.49804598 2.468847 1.5988032e-38
0.086890906 -0.49023643 2.4780006 1.5988032e-38
0.50909102 -0.51415044 2.4738464 1.5988032e-38
0.53392196 -0.5118953 2.4780004 1.5988032e-38
0.58488667 -0.51487339 2.4780006 1.5988032e-38
0.62614578 -0.5157035 2.4726002 1.5988032e-38
0.65545791 -0.51194423 2.4746668 1.5988032e-38
0.70328039 -0.51237398 2.4675171 1.5988032e-38
0.74354756 -0.51219511 2.4650002 1.5988032e-38
0.77897805 -0.51161987 2.468297 1.5988032e-38
0.81860602 -0.51366854 2.4629498 1.5988032e-38
0.86450565 -0.50840545 2.4653537 1.5988032e-38
0.89003021 -0.50164855 2.4543064 1.5988032e-38
-0.0023266668 -0.47231334 2.4430003 1.5988032e-38
0.0211193 -0.46056521 2.4461868 1.5988032e-38
0.061469853 -0.45956883 2.4560831 1.5988032e-38
0.093068749 -0.45829779 2.4729223 1.5988032e-38
0.12413602 -0.44415203 2.4780004 1.5988032e-38
0.87036002 -0.45600408 2.4630692 1.5988032e-38
0.88318932 -0.46358442 2.4500837 1.5988032e-38
0.023525188 -0.43560374 2.4430003 1.5988032e-38
0.061763059 -0.42082444 2.4460647 1.5988032e-38
0.098492369 -0.41919991 2.4624131 1.5988032e-38
0.131098 -0.41842794 2.4779992 1.5988032e-38
0.83710003 -0.4020943 2.4690001 1.5988032e-38
0.8651312 -0.41902405 2.4622183 1.5988032e-38
0.88195175 -0.42282543 2.4447002 1.5988032e-38
0.069135226 -0.38606051 2.4430006 1.5988032e-38
0.099692166 -0.3789219 2.4488161 1.5988032e-38
0.13979784 -0.37928516 2.4637499 1.5988032e-38
0.16520001 -0.36344004 2.4780002 1.5988032e-38
0.83415776 -0.37398952 2.4750004 1.5988032e-38
0.85925174 -0.37975374 2.4592719 1.5988032e-38
0.88216937 -0.38807002 2.4472499 1.5988032e-38
0.10207884 -0.34277552 2.4465787 1.5988032e-38
0.14107721 -0.34013316 2.4500771 1.5988032e-38
0.17216444 -0.33420429 2.4762578 1.5988032e-38
0.82971609 -0.33817434 2.4707136 1.5988032e-38
0.85248715 -0.34200245 2.4520168 1.5988032e-38
0.10547557 -0.31565112 2.4430001 1.5988032e-38
0.14487654 -0.30372283 2.4455504 1.5988032e-38
0.17624307 -0.29936707 2.4621401 1.5988032e-38
0.79711711 -0.30803716 2.4690001 1.5988032e-38
0.82424688 -0.29978082 2.4617975 1.5988032e-38
0.84732491 -0.30337653 2.4450402 1.5988032e-38
0.15588668 -0.27222002 2.4430003 1.5988032e-38
0.18090436 -0.26083329 2.4512246 1.5988032e-38
0.21213283 -0.25763547 2.4755671 1.5988032e-38
0.79314029 -0.24967878 2.4679999 1.5988032e-38
0.82230431 -0.25988346 2.4578433 1.5988032e-38
0.845976 -0.26570535 2.4430003 1.5988032e-38
0.1891641 -0.22400409 2.4434862 1.5988032e-38
0.21937446 -0.21930583 2.45521 1.5988032e-38
0.25204596 -0.21168661 2.4751201 1.5988032e-38
0.79192984 -0.2195942 2.4656408 1.5988032e-38
0.82263148 -0.22051063 2.4525621 1.5988032e-38
0.84976488 -0.21467783 2.4502859 1.5988032e-38
0.22079456 -0.17884465 2.4469995 1.5988032e-38
0.25992316 -0.17888394 2.4606066 1.5988032e-38
0.28717145 -0.18374896 2.4756005 1.5988032e-38
0.78351909 -0.17923523 2.4600611 1.5988032e-38
0.81748599 -0.18880248 2.4458337 1.5988032e-38
0.85514295 -0.19914286 2.46 1.5988032e-38
0.22950906 -0.14641385 2.4430006 1.5988032e-38
0.26100507 -0.13981558 2.4467185 1.5988032e-38
0.30365339 -0.13668336 2.4780006 1.5988032e-38
0.32777777 -0.13189778 2.4780004 1.5988032e-38
0.75735575 -0.14957286 2.4735003 1.5988032e-38
0.77499408 -0.13986129 2.4592426 1.5988032e-38
0.26696295 -0.103783 2.4460912 1.5988032e-38
0.30083388 -0.096866518 2.4673326 1.5988032e-38
0.33186671 -0.099151351 2.4770265 1.5988032e-38
0.7491014 -0.086197019 2.4636667 1.5988032e-38
0.7716049 -0.10467599 2.4641211 1.5988032e-38
0.27454668 -0.070381664 2.4430001 1.5988032e-38
0.30017418 -0.062013891 2.44629 1.5988032e-38
0.33659881 -0.058943629 2.4658632 1.5988032e-38
0.36906776 -0.044476926 2.4780004 1.5988032e-38
0.71980006 -0.044840001 2.4780002 1.5988032e-38
0.73893321 -0.060313895 2.4596241 1.5988032e-38
0.76142853 -0.077314287 2.46 1.5988032e-38
0.30525863 -0.030712007 2.4430006 1.5988032e-38
0.34044915 -0.020716816 2.4514997 1.5988032e-38
0.37815121 -0.017759401 2.4764199 1.5988032e-38
0.40592003 -0.0047200001 2.4780002 1.5988032e-38
0.71980011 -0.030680001 2.4780002 1.5988032e-38
0.73210168 -0.024699619 2.4683778 1.5988032e-38
0.3507897 0.016105715 2.4457202 1.5988032e-38
0.38039547 0.020855742 2.4668729 1.5988032e-38
0.41478312 0.020296009 2.477999 1.5988032e-38
0.70775497 0.032929976 2.4627619 1.5988032e-38
0.73238677 0.0039333338 2.4780002 1.5988032e-38
0.38789347 0.054246292 2.448957 1.5988032e-38
0.4189631 0.058826912 2.4712496 1.5988032e-38
0.44812238 0.060388237 2.4779994 1.5988032e-38
0.70743436 0.059807938 2.4671133 1.5988032e-38
0.39320669 0.086862229 2.4430001 1.5988032e-38
0.4211939 0.096946828 2.4500005 1.5988032e-38
0.46108338 0.099755444 2.4725709 1.5988032e-38
0.50650108 0.10327809 2.4780004 1.5988032e-38
0.52156007 0.11564001 2.4780002 1.5988032e-38
0.69962275 0.10167449 2.4552104 1.5988032e-38
0.42807466 0.12655155 2.4493752 1.5988032e-38
0.46224555 0.13766152 2.4639828 1.5988032e-38
0.50091821 0.14120463 2.4751859 1.5988032e-38
0.53551024 0.14416981 2.477999 1.5988032e-38
0.56404006 0.15812001 2.4780002 1.5988032e-38
0.67732 0.15812001 2.4780002 1.5988032e-38
0.69883651 0.14163928 2.4608769 1.5988032e-38
0.46489802 0.17563391 2.4463418 1.5988032e-38
0.50088215 0.17983152 2.4643157 1.5988032e-38
0.53979903 0.1800489 2.4665213 1.5988032e-38
0.5658555 0.17663693 2.4780004 1.5988032e-38
0.67417324 0.18423736 2.4780004 1.5988032e-38
0.69139403 0.17832683 2.4619641 1.5988032e-38
0.47541556 0.20397112 2.4430003 1.5988032e-38
0.50540543 0.21198882 2.4544244 1.5988032e-38
0.54185486 0.22037582 2.4585006 1.5988032e-38
0.57795835 0.22358829 2.4725208 1.5988032e-38
0.60724622 0.23109846 2.4780004 1.5988032e-38
0.66839308 0.22348742 2.4714475 1.5988032e-38
0.68548936 0.2180977 2.4607856 1.5988032e-38
0.54487443 0.25752872 2.446696 1.5988032e-38
0.58045441 0.26055986 2.4616187 1.5988032e-38
0.6174823 0.26395518 2.4772787 1.5988032e-38
0.66367924 0.26092738 2.4742377 1.5988032e-38
0.68728399 0.26161399 2.4612997 1.5988032e-38
0.55048937 0.30618933 2.4430003 1.5988032e-38
0.58211738 0.29946023 2.4512246 1.5988032e-38
0.62143004 0.29848313 2.4656568 1.5988032e-38
0.65801066 0.29729053 2.4663024 1.5988032e-38
0.68559426 0.285768 2.4635999 1.5988032e-38
0.55142003 0.33348891 2.4430001 1.5988032e-38
0.58457673 0.32821441 2.444134 1.5988032e-38
0.62252176 0.33017603 2.4654996 1.5988032e-38
0.64717418 0.33057627 2.4696922 1.5988032e-38
0.10816 -0.56457144 2.4960001 1.5988032e-38
0.15451428 -0.56338286 2.4960001 1.5988032e-38
0.25673142 -0.56338286 2.4960001 1.5988032e-38
0.071699806 -0.5408138 2.4988124 1.5988032e-38
0.098994926 -0.54330206 2.5100014 1.5988032e-38
0.13933679 -0.54140943 2.5051355 1.5988032e-38
0.1801489 -0.54017234 2.506608 1.5988032e-38
0.21958181 -0.53984576 2.5040321 1.5988032e-38
0.25872371 -0.54456961 2.5052822 1.5988032e-38
0.29692623 -0.53935021 2.5025184 1.5988032e-38
0.34043813 -0.53044719 2.4997678 1.5988032e-38
0.38143083 -0.52583826 2.4983475 1.5988032e-38
0.42030859 -0.52683431 2.4959998 1.5988032e-38
0.46096763 -0.52574492 2.4959993 1.5988032e-38
0.49101204 -0.52270728 2.4960001 1.5988032e-38
0.56576002 -0.5205943 2.4960001 1.5988032e-38
0.076544002 -0.51108575 2.4960001 1.5988032e-38
0.10380992 -0.50282282 2.5084898 1.5988032e-38
0.13681482 -0.49912927 2.5120006 1.5988032e-38
0.16626985 -0.49242482 2.5140002 1.5988032e-38
0.21309145 -0.51956004 2.5140002 1.5988032e-38
0.35674858 -0.51956004 2.5140002 1.5988032e-38
0.38324538 -0.51732534 2.5140004 1.5988032e-38
0.41990614 -0.51404011 2.507143 1.5988032e-38
0.46199656 -0.51396275 2.5100868 1.5988032e-38
0.49898437 -0.5075565 2.5075388 1.5988032e-38
0.54303658 -0.50544262 2.5039194 1.5988032e-38
0.57687449 -0.50825423 2.5055625 1.5988032e-38
0.62170333 -0.5082522 2.5042706 1.5988032e-38
0.66321939 -0.50179011 2.5030713 1.5988032e-38
0.70015883 -0.50093621 2.5039535 1.5988032e-38
0.73840743 -0.49926081 2.50788 1.5988032e-38
0.78091794 -0.49263626 2.5051768 1.5988032e-38
0.82016867 -0.49543247 2.5076847 1.5988032e-38
0.86069721 -0.49436122 2.5069187 1.5988032e-38
0.10931282 -0.46512496 2.5022604 1.5988032e-38
0.13904139 -0.46220908 2.5003457 1.5988032e-38
0.16498807 -0.45817932 2.5140002 1.5988032e-38
0.78732097 -0.47366959 2.5140002 1.5988032e-38
0.82553315 -0.46490422 2.5140002 1.5988032e-38
0.85483485 -0.46179202 2.5088143 1.5988032e-38
0.11172572 -0.43501717 2.4960001 1.5988032e-38
0.1511863 -0.42297304 2.4959998 1.5988032e-38
0.17978096 -0.41923591 2.510843 1.5988032e-38
0.20798367 -0.41453072 2.5140004 1.5988032e-38
0.83311194 -0.41675195 2.5125 1.5988032e-38
0.84724391 -0.42338112 2.5067997 1.5988032e-38
0.15926857 -0.3946057 2.4960001 1.5988032e-38
0.18234347 -0.3827635 2.5056012 1.5988032e-38
0.21086819 -0.37504771 2.5140004 1.5988032e-38
0.82168984 -0.37945804 2.5089846 1.5988032e-38
0.84300804 -0.39545605 2.5104001 1.5988032e-38
0.18769631 -0.34671849 2.4965296 1.5988032e-38
0.219779 -0.33920568 2.5080953 1.5988032e-38
0.24571359 -0.33460149 2.5140002 1.5988032e-38
0.7940253 -0.32981956 2.5125003 1.5988032e-38
0.81435931 -0.34136355 2.5084622 1.5988032e-38
0.19670856 -0.30249143 2.4960001 1.5988032e-38
0.2188032 -0.29965925 2.4971261 1.5988032e-38
0.25473773 -0.29844987 2.5136673 1.5988032e-38
0.78947628 -0.29754215 2.5075386 1.5988032e-38
0.80764204 -0.29617465 2.4974391 1.5988032e-38
0.22959241 -0.26485333 2.4959993 1.5988032e-38
0.25672439 -0.25739649 2.5034301 1.5988032e-38
0.29290098 -0.24820767 2.5140002 1.5988032e-38
0.75898862 -0.25140002 2.5140002 1.5988032e-38
0.78131926 -0.25888392 2.503715 1.5988032e-38
0.80517226 -0.27472985 2.4960001 1.5988032e-38
0.26568198 -0.22286019 2.4976876 1.5988032e-38
0.29958367 -0.22042234 2.5095668 1.5988032e-38
0.32842815 -0.21648981 2.5067997 1.5988032e-38
0.75898862 -0.20351431 2.5140002 1.5988032e-38
0.77857971 -0.22009833 2.5097296 1.5988032e-38
0.30661154 -0.17930627 2.5010235 1.5988032e-38
0.33355004 -0.17733264 2.5043726 1.5988032e-38
0.36153716 -0.16041715 2.5140002 1.5988032e-38
0.750552 -0.17401637 2.5125 1.5988032e-38
0.7702781 -0.18591617 2.5035481 1.5988032e-38
0.30253109 -0.1404627 2.4960005 1.5988032e-38
0.34410354 -0.14151275 2.4960005 1.5988032e-38
0.37005609 -0.13703363 2.5105386 1.5988032e-38
0.74708021 -0.13816711 2.5051587 1.5988032e-38
0.76374209 -0.13413878 2.4960001 1.5988032e-38
0.30393472 -0.11512163 2.4960001 1.5988032e-38
0.35313779 -0.099751964 2.4959993 1.5988032e-38
0.37940863 -0.097439364 2.5043077 1.5988032e-38
0.41186377 -0.095495321 2.50896 1.5988032e-38
0.71589148 -0.083800003 2.5140002 1.5988032e-38
0.74011123 -0.10166713 2.5071833 1.5988032e-38
0.76993018 -0.10697142 2.4960001 1.5988032e-38
0.35482818 -0.068620197 2.4960001 1.5988032e-38
0.38223651 -0.062651806 2.496001 1.5988032e-38
0.4103761 -0.06037429 2.5106251 1.5988032e-38
0.71399647 -0.056827489 2.5105715 1.5988032e-38
0.72724766 -0.064558104 2.5041819 1.5988032e-38
0.39562452 -0.028186124 2.4960001 1.5988032e-38
0.41992828 -0.017977979 2.5016255 1.5988032e-38
0.45507261 -0.0057445723 2.5122001 1.5988032e-38
0.71301085 -0.020975942 2.5083156 1.5988032e-38
0.72453415 -0.012992729 2.5025449 1.5988032e-38
0.43576789 0.015639098 2.4959996 1.5988032e-38
0.45577833 0.021348573 2.5054736 1.5988032e-38
0.51716578 0.035914287 2.5140002 1.5988032e-38
0.7065801 0.019890953 2.5064998 1.5988032e-38
0.72800821 0.011234286 2.5062857 1.5988032e-38
0.46872932 0.059428558 2.4960001 1.5988032e-38
0.49928033 0.059872955 2.5051246 1.5988032e-38
0.52747077 0.067270711 2.51175 1.5988032e-38
0.69739169 0.060556676 2.50529 1.5988032e-38
0.47780573 0.0832 2.4960001 1.5988032e-38
0.49902606 0.097926706 2.4960003 1.5988032e-38
0.53541064 0.10296655 2.5042284 1.5988032e-38
0.56505144 0.11732001 2.5140002 1.5988032e-38
0.67758286 0.11492572 2.5140002 1.5988032e-38
0.69337022 0.10131872 2.5041289 1.5988032e-38
0.50062627 0.129792 2.4960001 1.5988032e-38
0.54890794 0.13242218 2.4966915 1.5988032e-38
0.57378548 0.14115931 2.5074544 1.5988032e-38
0.67278355 0.15284064 2.5120003 1.5988032e-38
0.68902904 0.13639329 2.5034482 1.5988032e-38
0.58564979 0.18323539 2.5025001 1.5988032e-38
0.61540747 0.18632656 2.5106514 1.5988032e-38
0.66709751 0.17829567 2.5056283 1.5988032e-38
0.58807284 0.20659164 2.4972003 1.5988032e-38
0.62046379 0.21735992 2.5014005 1.5988032e-38
0.65618956 0.21878085 2.506588 1.5988032e-38
0.63216972 0.24970385 2.4970584 1.5988032e-38
0.64799964 0.24876457 2.4972003 1.5988032e-38
0.66322291 0.28288001 2.4960001 1.5988032e-38
0.11065779 -0.53774863 2.5319998 1.5988032e-38
0.14985308 -0.52534705 2.5320001 1.5988032e-38
0.17817605 -0.52603388 2.5348506 1.5988032e-38
0.2242682 -0.5232029 2.5434003 1.5988032e-38
0.25913212 -0.52611917 2.5411196 1.5988032e-38
0.30170164 -0.52509511 2.5419524 1.5988032e-38
0.33759999 -0.52328008 2.5319998 1.5988032e-38
0.11333714 -0.51845711 2.5320001 1.5988032e-38
0.15191999 -0.51484001 2.5319998 1.5988032e-38
0.17988037 -0.50400186 2.5437801 1.5988032e-38
0.21858792 -0.51651621 2.5480773 1.5988032e-38
0.26065359 -0.51773071 2.5462501 1.5988032e-38
0.29734752 -0.5176096 2.5486252 1.5988032e-38
0.33957785 -0.5073576 2.5455718 1.5988032e-38
0.37869385 -0.50500458 2.5433269 1.5988032e-38
0.42055053 -0.50279289 2.543566 1.5988032e-38
0.46027449 -0.50072104 2.5414996 1.5988032e-38
0.5017513 -0.49283266 2.5440907 1.5988032e-38
0.5412569 -0.49175587 2.5405505 1.5988032e-38
0.57872713 -0.49164319 2.5365241 1.5988032e-38
0.61876869 -0.49238619 2.5370188 1.5988032e-38
0.65987706 -0.49033764 2.5326791 1.5988032e-38
0.69602114 -0.48939693 2.5364335 1.5988032e-38
0.74359518 -0.48611188 2.5364704 1.5988032e-38
0.76603049 -0.48630476 2.5320001 1.5988032e-38
0.84641141 -0.49434289 2.5320001 1.5988032e-38
0.18477103 -0.46189901 2.5420005 1.5988032e-38
0.2192108 -0.45580703 2.5500004 1.5988032e-38
0.5174886 -0.47618669 2.5510001 1.5988032e-38
0.54016417 -0.47537687 2.5509999 1.5988032e-38
0.57816005 -0.47245994 2.5503447 1.5988032e-38
0.61888289 -0.47315115 2.5503669 1.5988032e-38
0.66049278 -0.47481847 2.5472 1.5988032e-38
0.69962454 -0.47457564 2.547833 1.5988032e-38
0.73788232 -0.47632289 2.5453 1.5988032e-38
0.78022778 -0.46602732 2.5395997 1.5988032e-38
0.81884861 -0.45651826 2.5332663 1.5988032e-38
0.19291428 -0.4364686 2.5320001 1.5988032e-38
0.22287743 -0.42079526 2.5427177 1.5988032e-38
0.25510001 -0.40087143 2.5510001 1.5988032e-38
0.79232746 -0.40689921 2.5466156 1.5988032e-38
0.82146621 -0.42031342 2.5369394 1.5988032e-38
0.22617707 -0.38362268 2.5365863 1.5988032e-38
0.25652122 -0.38002014 2.5506208 1.5988032e-38
0.79002219 -0.38081154 2.5410686 1.5988032e-38
0.80729276 -0.38422099 2.5320003 1.5988032e-38
0.26209229 -0.33958873 2.5381289 1.5988032e-38
0.28850597 -0.32737833 2.5510004 1.5988032e-38
0.32312667 -0.32798573 2.5510001 1.5988032e-38
0.78554738 -0.34032279 2.5383329 1.5988032e-38
0.8030057 -0.35448 2.5320001 1.5988032e-38
0.27386937 -0.30177307 2.5320001 1.5988032e-38
0.28983828 -0.30124006 2.5435359 1.5988032e-38
0.32998648 -0.29168582 2.5510001 1.5988032e-38
