# .PCD v0.7 - Point Cloud Data file format
VERSION 0.7
FIELDS x y z rgb
SIZE 4 4 4 4
TYPE F F F F
COUNT 1 1 1 1
WIDTH 301
HEIGHT 1
VIEWPOINT 0 0 0 1 0 0 0
POINTS 301
DATA ascii
-0.011167656 -0.16111057 0.5487777 1.3838031e-38
-0.015846213 -0.14002796 0.55104232 7.663819e-39
0.002611706 -0.1459053 0.55059278 1.6875423e-38
-0.059439253 -0.098323964 0.54370409 5.5364672e-39
-0.024967734 -0.089944586 0.538055 5.8126995e-39
-0.091791317 -0.054656241 0.54447168 5.5223981e-39
-0.062159229 -0.060886696 0.5494101 6.736088e-39
-0.02707728 -0.069785215 0.54126948 7.4650028e-39
-0.091438137 -0.012204935 0.55754071 6.1865267e-39
-0.053546235 -0.030274641 0.5452531 3.7818579e-39
-0.036123548 -0.030944183 0.54332614 5.8076465e-39
-0.093609907 0.0023129492 0.55871165 5.9117391e-39
-0.29995045 0.14139536 0.54153138 1.2441014e-38
-0.32193059 0.18209839 0.53309804 9.216319e-39
-0.29853901 0.18544963 0.53789186 9.9524505e-39
-0.26860374 0.19315402 0.55300319 1.0689294e-38
-0.32783353 0.21953163 0.54955459 8.3872772e-39
-0.30284753 0.21074112 0.54012394 8.6631508e-39
-0.27340627 0.20487806 0.53947705 8.2943795e-39
-0.041623399 -0.1263258 0.56559455 1.0515394e-38
-0.023348659 -0.12586831 0.56283247 9.6917585e-39
-0.086712979 -0.087466508 0.58179688 9.9438045e-39
-0.061868489 -0.09734387 0.56528974 6.4623891e-39
-0.024525361 -0.11328971 0.56397951 9.3240676e-39
-0.12420755 -0.054721855 0.58617145 1.3905704e-38
-0.10892815 -0.064544462 0.57874835 1.1051949e-38
-0.06644468 -0.06707795 0.56314749 5.8170211e-39
-0.030395741 -0.050101887 0.58127677 1.5746734e-38
-0.12682778 -0.032495134 0.58316404 1.178627e-38
-0.097649366 -0.02607514 0.565364 8.2021923e-39
-0.073459677 -0.020618806 0.56365925 5.6347907e-39
-0.027451344 -0.035772122 0.5944795 1.6118028e-38
-0.10185287 0.014705477 0.5678125 8.1211804e-39
-0.078973196 0.0013021769 0.56300002 7.6414487e-39
-0.25010338 0.19544989 0.564735 1.2440291e-38
-0.23481026 0.1984046 0.57303911 1.2901634e-38
-0.25174913 0.21740097 0.57024008 9.2156085e-39
-0.22461005 0.22157454 0.5836156 9.9528162e-39
-0.24012858 0.2429143 0.58500004 7.2769878e-39
-0.23103911 0.24156688 0.58425009 7.3698967e-39
-0.099186674 -0.08600001 0.60200006 1.1607261e-38
-0.12664615 -0.061889339 0.60737503 1.3351793e-38
-0.11906224 -0.059817784 0.60200012 8.0962891e-39
-0.12988204 -0.013496689 0.60768348 1.2615664e-38
-0.1134542 -0.01329344 0.60910791 1.1509678e-38
-0.057927571 -0.0099029187 0.6118328 8.7477822e-39
-0.029767578 -0.016917767 0.60957807 1.6210222e-38
-0.1275169 0.0081660999 0.61146832 1.3446499e-38
-0.092163369 0.02584042 0.60994595 1.2522395e-38
-0.061411783 0.018533945 0.61484772 1.2708946e-38
-0.035717532 0.0072814217 0.61571437 1.9162637e-38
-0.12219144 0.05630558 0.63374186 1.3353588e-38
-0.099641666 0.059289522 0.62806052 1.0864668e-38
-0.070063427 0.050192133 0.63298428 1.4550334e-38
-0.10386902 0.086194679 0.63767242 9.7586817e-39
-0.20180076 0.23717816 0.60049999 7.8334112e-39
-0.19914286 0.23714286 0.60000002 1.1981497e-38
-0.12210447 0.073553629 0.64030772 9.9427157e-39
-0.086018026 0.077059209 0.6411429 1.3536896e-38
-0.066097483 0.067530699 0.64731252 1.5655598e-38
-0.12572245 0.10323887 0.6532706 9.8508788e-39
-0.098223589 0.10289286 0.64603639 1.1601152e-38
-0.07003665 0.09945111 0.66105843 1.611549e-38
-0.12817198 0.14160182 0.66605645 9.2062268e-39
-0.099127918 0.13977735 0.6562469 1.0863589e-38
-0.072221048 0.13807234 0.67048585 1.6760502e-38
-0.12692724 0.17623872 0.67386222 9.0225558e-39
-0.099432237 0.1797757 0.66818166 9.9430758e-39
-0.075615689 0.17491986 0.67500067 1.547013e-38
-0.10229015 0.20554699 0.67702907 8.6530573e-39
0.19917333 0.23926668 0.67900002 1.1509299e-38
0.22440054 0.23740982 0.67555714 1.3259578e-38
0.24945915 0.23829719 0.67652416 1.6116562e-38
0.15942095 0.27811357 0.67880005 9.9416269e-39
0.18426487 0.26397544 0.66620046 1.0126734e-38
0.21923129 0.25851959 0.65456736 1.1139813e-38
0.25889161 0.25985754 0.66064203 1.7039609e-38
0.29131922 0.2680724 0.67142397 2.0360096e-38
0.1567568 0.29340518 0.67755312 8.7441655e-39
0.17787479 0.28827414 0.66236949 8.4682989e-39
0.21880499 0.28517362 0.64570844 8.9296371e-39
0.26114422 0.28635526 0.65156126 1.4367013e-38
0.29965258 0.29123369 0.6692732 1.7592418e-38
0.32010001 0.29876 0.67900002 1.6117287e-38
-0.14163102 0.15462072 0.68375623 1.2341596e-38
-0.061613094 0.14527735 0.68674332 1.6851615e-38
-0.13720848 0.18725561 0.68703854 1.0219664e-38
-0.06024307 0.18199044 0.69585407 1.657503e-38
-0.12926587 0.21818173 0.6950748 8.7459774e-39
-0.098246783 0.22369859 0.68747348 8.5612232e-39
-0.063773125 0.21876743 0.70027739 1.371985e-38
0.15909302 0.23852542 0.71900004 1.1507506e-38
0.18505736 0.231654 0.70659161 1.1600417e-38
0.21975428 0.22503865 0.70036495 1.2982272e-38
0.25871271 0.22653978 0.69969326 1.6484624e-38
0.29171872 0.23272461 0.70883262 1.9619281e-38
-0.12737937 0.24609125 0.71206069 8.5619462e-39
-0.097544022 0.25618035 0.70692414 7.3637618e-39
-0.069437236 0.254504 0.71151489 9.8505186e-39
0.14915754 0.26504141 0.70327944 1.0587347e-38
0.17198028 0.2502062 0.6916489 1.1047243e-38
0.27552778 0.24298228 0.68330562 1.8698045e-38
0.30382201 0.25454059 0.69429463 2.0819988e-38
0.32979479 0.26741916 0.70755869 2.0544123e-38
0.11715246 0.31339395 0.71606904 8.5594113e-39
0.1370775 0.29566574 0.69863057 9.1125851e-39
0.31745011 0.28676212 0.6820001 2.0082063e-38
0.33818346 0.29445943 0.69637346 1.7684977e-38
0.11367048 0.32115334 0.71900004 8.2831859e-39
-0.046660297 0.19060099 0.72556245 1.399355e-38
-0.015452594 0.1952351 0.75569487 1.169046e-38
0.020628208 0.19179353 0.75375915 1.2612418e-38
0.057658523 0.1929266 0.75519323 1.3626211e-38
0.083118379 0.19775905 0.75735301 1.3903159e-38
0.15151781 0.1899413 0.75268501 1.206068e-38
0.18016581 0.18660642 0.74843198 1.3441814e-38
0.21955115 0.18851098 0.74628055 1.4823667e-38
0.25664121 0.19243854 0.74854916 1.7312586e-38
0.28416827 0.19886877 0.75418746 1.8602248e-38
-0.044157442 0.22103767 0.73861474 9.6628806e-39
-0.01997073 0.21965541 0.74179882 1.1138728e-38
0.019662786 0.2196085 0.74269742 1.1508232e-38
0.059781335 0.21954815 0.74935889 1.1692624e-38
0.087102078 0.21995722 0.75537258 1.0863943e-38
0.14328441 0.22211623 0.74177957 1.0771382e-38
0.17754497 0.21361248 0.72944254 1.2244711e-38
0.21857445 0.20651065 0.72684646 1.3626563e-38
0.26177371 0.20781159 0.72938716 1.6944165e-38
0.30039829 0.2175214 0.73833346 1.9434526e-38
0.33578587 0.23009139 0.74800861 2.0172817e-38
0.36299235 0.23790661 0.75713348 1.8422177e-38
-0.12745287 0.26882312 0.73461902 8.378271e-39
-0.10437019 0.27498385 0.72288436 7.0886168e-39
-0.052370343 0.26337162 0.72673965 9.0207552e-39
-0.020522902 0.25921929 0.73126119 9.6657644e-39
0.019409155 0.25935784 0.7418803 8.8363611e-39
0.056780495 0.25506017 0.75204206 7.7300121e-39
0.1113065 0.26528934 0.7508173 8.3761018e-39
0.13236374 0.25668862 0.73371965 9.6661162e-39
0.31770766 0.24207738 0.72188896 2.091254e-38
0.34542602 0.25619915 0.73261315 1.9437414e-38
0.36722419 0.25732836 0.74410027 1.6764099e-38
-0.12803926 0.28317723 0.74688393 1.3912858e-38
-0.098571204 0.29475805 0.74078536 9.8555619e-39
-0.058992952 0.29407799 0.73351282 7.6414277e-39
-0.020904701 0.29260898 0.74233794 5.4290913e-39
0.015958959 0.28775832 0.75239986 5.2432581e-39
0.042176194 0.28081143 0.75699997 5.7946242e-39
0.10671989 0.30075717 0.73911059 8.2835433e-39
0.12271187 0.28746307 0.72314095 9.4813634e-39
0.3581267 0.28239229 0.72144443 1.7870092e-38
0.36213908 0.28242382 0.72400004 1.7133242e-38
0.096653163 0.32640418 0.74384731 7.2701144e-39
0.39120036 -0.0065347934 0.79780012 4.697308e-39
0.39422989 0.11011813 0.79757625 5.9862377e-39
0.029080899 0.15770186 0.79374075 1.4362691e-38
0.060993977 0.1547994 0.79121333 1.4731111e-38
0.10197231 0.14929307 0.79096639 1.3717322e-38
0.14071925 0.14526054 0.78585273 1.399427e-38
0.17883497 0.14535855 0.78245151 1.5929653e-38
0.21658212 0.15162326 0.78651661 1.6943086e-38
0.24692626 0.15707462 0.79461551 1.6850891e-38
-0.044461083 0.19131097 0.77611119 1.0953262e-38
-0.019030318 0.18290375 0.77206469 1.2242918e-38
0.019831246 0.17225528 0.77234328 1.3440739e-38
0.060840186 0.173219 0.76948351 1.463928e-38
0.099765532 0.17920722 0.77271527 1.3257786e-38
0.13675992 0.17720328 0.76869053 1.1599708e-38
0.17969637 0.16630095 0.76415676 1.4454531e-38
0.22108862 0.16855083 0.76777327 1.6205165e-38
0.26043549 0.17416735 0.77745092 1.7771769e-38
0.29784694 0.18707262 0.78182936 1.8234545e-38
0.32890871 0.19510627 0.79021406 1.961856e-38
-0.041257147 0.20049526 0.76000005 9.7550776e-39
0.1071934 0.21976933 0.76568794 8.5601329e-39
0.12540333 0.21283345 0.76555377 8.6530474e-39
0.31076139 0.20395751 0.76480645 1.8972825e-38
0.34274527 0.21226148 0.7741161 1.9618202e-38
0.37565634 0.22338662 0.77908003 1.8790241e-38
0.40026906 0.22026144 0.79750001 1.8788086e-38
0.068309978 0.27155098 0.76221949 5.7035104e-39
0.099915557 0.25940695 0.7673744 5.8889806e-39
0.12087619 0.24102859 0.76000005 8.1909959e-39
0.37847951 0.24319172 0.7607857 1.7408747e-38
-0.08848048 0.31692904 0.7615 1.972664e-38
-0.0059405719 0.30639777 0.76200002 2.1154604e-39
0.023692101 0.29901186 0.76517373 3.1274459e-39
0.060884681 0.29480839 0.7749961 3.863925e-39
0.089462355 0.2982339 0.77336287 5.7053082e-39
0.076311514 0.33901626 0.78966057 5.5223589e-39
0.083330035 0.3310689 0.76795548 6.2581247e-39
0.39662683 -0.041884288 0.83766669 8.1045652e-39
0.41188821 -0.049956076 0.83629709 6.4446865e-39
0.38551861 -0.016012134 0.82872558 8.194963e-39
0.40625975 -0.027308052 0.82514113 1.0498047e-38
0.35355446 0.029281383 0.83443749 1.0310775e-38
0.37914601 0.020283388 0.82089263 1.0955786e-38
0.40321511 0.02210631 0.8145355 1.1420728e-38
0.3489067 0.061320096 0.82807869 9.5750065e-39
0.37859645 0.059588987 0.8086502 1.0589165e-38
0.40172288 0.059231974 0.80503863 1.0866113e-38
0.11319241 0.11725213 0.82795829 1.454888e-38
0.14294049 0.11370825 0.82247257 1.5285364e-38
0.17701747 0.11277893 0.82586509 1.6206601e-38
0.20172505 0.11747415 0.8278572 1.5097015e-38
0.3480919 0.099268317 0.82670546 7.2729997e-39
0.37709364 0.099184476 0.8059414 6.44649e-39
0.40156901 0.091363356 0.80446678 1.1234888e-38
0.03293236 0.15241185 0.80632496 1.4455607e-38
0.062968835 0.14276004 0.815198 1.4363409e-38
0.098617323 0.13063267 0.81411129 1.4179017e-38
0.13832584 0.12534991 0.8052026 1.5008777e-38
0.18266895 0.125835 0.80770904 1.7127833e-38
0.2180984 0.13660593 0.81342328 1.6666133e-38
0.2597318 0.1504509 0.81881851 1.565342e-38
0.29918566 0.15539204 0.83075482 1.4732905e-38
0.34442225 0.13799201 0.83500779 9.9427059e-39
0.37967995 0.13354681 0.8171854 6.5358004e-39
0.40431011 0.1343343 0.81283867 6.8156355e-39
0.27325821 0.16278432 0.80338115 1.7036359e-38
0.30318034 0.1683507 0.81124097 1.6945244e-38
0.34090972 0.17948131 0.82065982 1.9342333e-38
0.37692726 0.19140032 0.82616109 1.8789522e-38
0.40607798 0.1969334 0.83494431 1.9065746e-38
0.35315812 0.20077331 0.80088902 1.9617844e-38
0.38445517 0.20632529 0.80839592 1.9065749e-38
0.40863904 0.20755342 0.82206869 1.8512934e-38
0.074268214 0.31142792 0.80361903 3.4040258e-39
0.071803473 0.33573514 0.80649137 3.8668032e-39
0.39229628 -0.082745902 0.86389351 3.5945534e-39
0.41559461 -0.083544441 0.85219675 4.5165139e-39
0.354884 -0.047532696 0.874183 2.7637095e-39
0.38186932 -0.058813009 0.85931146 3.6845854e-39
0.40996695 -0.067209587 0.84486043 3.7764223e-39
0.35048738 -0.016309883 0.86684215 5.248307e-39
0.36998987 -0.026416494 0.85093266 4.973162e-39
0.31876445 0.032923177 0.87644452 1.1966335e-38
0.34004667 0.020158006 0.85883784 9.8512361e-39
0.3618626 0.0028066668 0.8421666 1.1232011e-38
0.31655157 0.074066684 0.87475556 1.1784816e-38
0.32969067 0.059378836 0.85658169 9.8515906e-39
0.099780753 0.11850835 0.84266669 1.4268724e-38
0.1527743 0.10443302 0.84133339 1.4914094e-38
0.16533946 0.10309402 0.84100002 1.5377964e-38
0.31169716 0.10329229 0.86733985 1.1784811e-38
0.32869649 0.099944964 0.84990913 9.6664777e-39
0.058339532 0.1372097 0.84500015 1.5377942e-38
0.090147965 0.12265065 0.84172726 1.4453451e-38
0.23921032 0.14161907 0.85960007 1.5008411e-38
0.26359743 0.1388965 0.86391521 1.3350696e-38
0.30106878 0.13593377 0.85641611 1.2245427e-38
0.33703876 0.13897525 0.84453082 1.1600058e-38
0.37242964 0.15351008 0.84850013 1.381203e-38
0.35505679 0.16448727 0.84447056 1.8420011e-38
0.3797572 0.17237344 0.8504014 1.9434887e-38
0.41653153 0.18987875 0.86189353 1.7960119e-38
0.44083336 0.19250001 0.87500006 1.6854131e-38
-0.041620683 0.35746562 0.86171436 3.0392202e-39
-0.017597225 0.35518587 0.8616491 1.4733308e-39
0.0089033386 0.35585323 0.86858416 1.0127128e-39
-0.043415684 0.36891586 0.86074519 2.7637109e-39
-0.019973977 0.36883944 0.85086685 1.5655264e-39
0.019090045 0.37196639 0.86135805 1.0123527e-39
0.045027077 0.38637701 0.87400013 1.3807736e-39
0.3793315 -0.089906253 0.89786708 3.1328578e-39
0.34682167 -0.055597778 0.89322895 3.1321333e-39
0.36766657 -0.072441332 0.88156956 3.4083586e-39
0.3165414 -0.0077850563 0.89888114 1.0767788e-38
0.33290109 -0.021747427 0.89205694 7.3648394e-39
0.31506103 0.022534829 0.89563471 1.0772109e-38
0.32814261 0.010552543 0.88687474 1.0308973e-38
0.31234601 0.059900936 0.89800364 1.1142328e-38
0.32167113 0.047486994 0.88297361 1.1416758e-38
0.23543143 0.11910857 0.90760005 1.418192e-38
0.27126247 0.11785011 0.91026199 1.2614576e-38
0.29705444 0.10160482 0.89684367 1.224579e-38
0.2323554 0.12864399 0.896191 1.3258146e-38
0.2595717 0.12708518 0.89332116 1.3167744e-38
0.28480715 0.12298457 0.88455003 1.2706764e-38
0.42697206 0.1829529 0.89516264 1.7682809e-38
0.44884977 0.18865608 0.90458834 1.5931815e-38
0.025761392 0.35637921 0.8866393 1.1974614e-39
0.033867802 0.36574641 0.8852433 1.289657e-39
0.056550678 0.38092369 0.89711738 1.8421133e-39
0.072533339 0.40021333 0.89600003 1.4736867e-39
0.33251724 -0.04551645 0.9248001 4.1426923e-39
0.32955295 -0.037988849 0.92771441 3.5001983e-39
0.31269512 0.017702354 0.92562425 5.5256141e-39
0.30714783 0.066338144 0.92224997 8.8424848e-39
0.27337146 0.11609524 0.92000002 1.2153244e-38
0.29899004 0.088545159 0.92450011 1.224652e-38
0.43992573 0.18000953 0.92200005 1.5930771e-38
0.44168192 0.18000953 0.92200005 1.6115881e-38
0.066334739 0.37094536 0.92755359 2.8577072e-39
0.081448719 0.25502694 0.6695174 1.14182e-38
0.16467449 0.23045409 0.74187517 1.4273377e-38
0.0026653467 0.20918639 0.81101805 1.3081333e-38
-0.072613552 0.10628057 0.65986967 1.0680642e-38
-0.020960353 -0.13634194 0.54852927 1.0978166e-38
0.029080899 0.15770186 0.79374075 1.4362691e-38
0.099765532 0.17920722 0.77271527 1.3257786e-38
