# .PCD v0.7 - Point Cloud Data file format
VERSION 0.7
FIELDS x y z rgb
SIZE 4 4 4 4
TYPE F F F F
COUNT 1 1 1 1
WIDTH 1042
HEIGHT 1
VIEWPOINT 0 0 0 1 0 0 0
POINTS 1042
DATA ascii
-0.39523327 -0.41876841 2.1510739 1.296903e-38
1.0157274 -0.42140585 2.1339188 1.296903e-38
-0.44588223 -0.39231336 2.1270001 1.296903e-38
-0.420739 -0.38089556 2.1282523 1.296903e-38
-0.3809976 -0.38058892 2.1358504 1.296903e-38
-0.35465166 -0.36965212 2.1443336 1.296903e-38
1.0142187 -0.37841168 2.1349127 1.296903e-38
-0.41230038 -0.3526094 2.1270006 1.296903e-38
-0.37122831 -0.34348971 2.128824 1.296903e-38
-0.34613204 -0.33845016 2.1405997 1.296903e-38
0.99247247 -0.33097127 2.1467407 1.296903e-38
1.0086014 -0.34111768 2.1323786 1.296903e-38
-0.36462858 -0.31803715 2.1270001 1.296903e-38
-0.33880883 -0.300006 2.1332853 1.296903e-38
-0.31497696 -0.28672251 2.1504002 1.296903e-38
0.98563188 -0.29871112 2.1376731 1.296903e-38
1.0125809 -0.296675 2.1269994 1.296903e-38
-0.37273145 -0.25523999 2.1270001 1.296903e-38
-0.33497953 -0.27077052 2.1269996 1.296903e-38
-0.3141638 -0.27406684 2.1421671 1.296903e-38
0.98583424 -0.25933868 2.1349766 1.296903e-38
1.0037414 -0.27448428 2.1270001 1.296903e-38
0.97886831 -0.22121741 2.138984 1.296903e-38
0.98847622 -0.19769526 2.1400001 1.296903e-38
-0.095980793 0.076378264 2.1291668 1.296903e-38
-0.045110479 0.079968572 2.1530001 1.296903e-38
-0.027303712 0.074572586 2.1530001 1.296903e-38
-0.12356858 0.087105721 2.1270001 1.296903e-38
-0.088842057 0.084790617 2.1270001 1.296903e-38
-0.056174617 0.096724607 2.1352534 1.296903e-38
-0.023787348 0.10288206 2.1459088 1.296903e-38
0.0066640475 0.10841894 2.1530001 1.296903e-38
-0.045240954 0.12626955 2.1270001 1.296903e-38
-0.014900354 0.13644737 2.1340566 1.296903e-38
0.014139147 0.14381745 2.1505761 1.296903e-38
-0.0085773123 0.17609081 2.1303329 1.296903e-38
0.020053983 0.1799652 2.1435812 1.296903e-38
0.051315289 0.1875878 2.1501112 1.296903e-38
-0.0038277255 0.20788446 2.1284444 1.296903e-38
0.022379136 0.21718219 2.1351054 1.296903e-38
0.057227906 0.22226094 2.1471665 1.296903e-38
0.034278937 0.24969308 2.1315887 1.296903e-38
0.062295593 0.2595464 2.1411552 1.296903e-38
0.09990707 0.26744944 2.1519167 1.296903e-38
0.1209781 0.2706629 2.1530001 1.296903e-38
0.068113796 0.2999959 2.1365995 1.296903e-38
0.10020022 0.30057991 2.147222 1.296903e-38
0.12957183 0.30557546 2.1526752 1.296903e-38
0.074202232 0.3285633 2.1287336 1.296903e-38
0.10097869 0.34044242 2.1336541 1.296903e-38
0.13645649 0.34258175 2.1479623 1.296903e-38
0.16596165 0.34852806 2.1437144 1.296903e-38
0.10580461 0.37060183 2.1269996 1.296903e-38
0.13707507 0.36677325 2.1351712 1.296903e-38
-0.64184475 -0.76773715 2.1670001 1.296903e-38
-0.61912233 -0.77385288 2.1805208 1.296903e-38
-0.57731372 -0.76812488 2.1767206 1.296903e-38
-0.54154634 -0.77193141 2.1816359 1.296903e-38
-0.49997783 -0.77071172 2.174773 1.296903e-38
-0.46035445 -0.77245003 2.1770005 1.296903e-38
-0.42598575 -0.76797807 2.1745715 1.296903e-38
-0.38236764 -0.76572257 2.1679032 1.296903e-38
-0.33812985 -0.7638815 2.1677778 1.296903e-38
-0.29816434 -0.7652393 2.1688066 1.296903e-38
-0.26829523 -0.76704925 2.1670001 1.296903e-38
-0.61644065 -0.74072379 2.1751983 1.296903e-38
-0.57715172 -0.73923963 2.181031 1.296903e-38
-0.54727364 -0.74232614 2.194 1.296903e-38
-0.49639162 -0.75455958 2.1922069 1.296903e-38
-0.46352604 -0.75541914 2.1911564 1.296903e-38
-0.41520792 -0.75193846 2.1855958 1.296903e-38
-0.37855837 -0.74965936 2.1827669 1.296903e-38
-0.34274733 -0.74644661 2.1814752 1.296903e-38
-0.29896411 -0.74891365 2.1838856 1.296903e-38
-0.25931063 -0.74887115 2.1809065 1.296903e-38
-0.21789749 -0.73923397 2.1784761 1.296903e-38
-0.18046491 -0.73644084 2.1786594 1.296903e-38
-0.14038722 -0.73990315 2.1787436 1.296903e-38
-0.098824956 -0.7337994 2.1780956 1.296903e-38
-0.061610207 -0.72729021 2.1774509 1.296903e-38
-0.025051244 -0.7225157 2.1697998 1.296903e-38
0.025276918 -0.72077477 2.1766469 1.296903e-38
0.060202766 -0.72395134 2.179683 1.296903e-38
0.098066248 -0.72397387 2.1757777 1.296903e-38
0.13277176 -0.72210407 2.1670001 1.296903e-38
0.23321047 -0.72026956 2.1670001 1.296903e-38
0.24146572 -0.72026956 2.1670001 1.296903e-38
-0.60676003 -0.71201426 2.1670001 1.296903e-38
-0.57838202 -0.70361793 2.1732314 1.296903e-38
-0.54046243 -0.69786197 2.1880975 1.296903e-38
-0.51402283 -0.69163239 2.194 1.296903e-38
-0.054327618 -0.71461719 2.1940002 1.296903e-38
-0.019014554 -0.71261603 2.1879201 1.296903e-38
0.014962771 -0.71430373 2.1859396 1.296903e-38
0.06276311 -0.71190846 2.194 1.296903e-38
0.10306583 -0.70397335 2.1875603 1.296903e-38
0.14078595 -0.70218331 2.181623 1.296903e-38
0.17902313 -0.7011404 2.1826744 1.296903e-38
0.2196544 -0.70392686 2.1810753 1.296903e-38
0.25965878 -0.70311809 2.183934 1.296903e-38
0.29997733 -0.69670701 2.1766319 1.296903e-38
0.34089419 -0.69519866 2.1754107 1.296903e-38
0.38066784 -0.69540983 2.1760921 1.296903e-38
0.41911829 -0.69472456 2.1750014 1.296903e-38
0.45944098 -0.68872011 2.1694138 1.296903e-38
0.49807885 -0.68763942 2.1678486 1.296903e-38
0.54019934 -0.6873014 2.1706889 1.296903e-38
0.57816172 -0.68581605 2.1694119 1.296903e-38
0.61374837 -0.68714833 2.1773784 1.296903e-38
0.64597243 -0.68312097 2.1670003 1.296903e-38
0.73875523 -0.68322319 2.1850002 1.296903e-38
-0.57373905 -0.67624158 2.1670001 1.296903e-38
-0.53972501 -0.66017503 2.180501 1.296903e-38
-0.50317091 -0.64795452 2.194 1.296903e-38
0.30387348 -0.67695439 2.1908801 1.296903e-38
0.34126246 -0.67638522 2.1907501 1.296903e-38
0.38175598 -0.67679679 2.194 1.296903e-38
0.42147037 -0.67678404 2.1894784 1.296903e-38
0.46289784 -0.67607623 2.1840229 1.296903e-38
0.4968057 -0.67354709 2.1794443 1.296903e-38
0.54597533 -0.67617625 2.1838236 1.296903e-38
0.58018881 -0.67494041 2.1842685 1.296903e-38
0.62681562 -0.67197597 2.1835365 1.296903e-38
0.65670687 -0.66784662 2.1851404 1.296903e-38
0.69944125 -0.66745359 2.1849501 1.296903e-38
0.74154526 -0.66761762 2.1895339 1.296903e-38
0.77875549 -0.667925 2.1841671 1.296903e-38
0.81839907 -0.65212691 2.1815939 1.296903e-38
0.86074346 -0.64827877 2.1747777 1.296903e-38
0.89963025 -0.64717853 2.1786296 1.296903e-38
0.93913502 -0.64747465 2.175617 1.296903e-38
0.96503371 -0.64349431 2.1698 1.296903e-38
-0.53609383 -0.62762618 2.1734166 1.296903e-38
-0.50074577 -0.61867344 2.187495 1.296903e-38
-0.47571489 -0.61418068 2.194 1.296903e-38
0.82759047 -0.63126767 2.1893201 1.296903e-38
0.86148578 -0.62885243 2.1894259 1.296903e-38
0.9060775 -0.63096458 2.1910002 1.296903e-38
0.93872744 -0.62779278 2.1841562 1.296903e-38
0.98161787 -0.62265176 2.1818089 1.296903e-38
1.0199206 -0.61255819 2.1755373 1.296903e-38
1.0447059 -0.61006659 2.1725001 1.296903e-38
-0.49882293 -0.58122277 2.1768112 1.296903e-38
-0.46435007 -0.57707393 2.1902604 1.296903e-38
0.99670279 -0.59342474 2.194 1.296903e-38
1.0209479 -0.58370644 2.1862299 1.296903e-38
1.0481555 -0.58042926 2.173104 1.296903e-38
-0.49020627 -0.5519684 2.1683333 1.296903e-38
-0.45924985 -0.54107434 2.1808288 1.296903e-38
-0.42531785 -0.53592658 2.1909668 1.296903e-38
0.99670279 -0.53282857 2.194 1.296903e-38
1.0224568 -0.53881037 2.185771 1.296903e-38
1.042441 -0.55398929 2.1732223 1.296903e-38
-0.48499525 -0.50976098 2.1670003 1.296903e-38
-0.45267707 -0.50258142 2.1757169 1.296903e-38
-0.41965574 -0.49944758 2.1793375 1.296903e-38
-0.38112685 -0.49741271 2.1869092 1.296903e-38
-0.35730857 -0.48476952 2.194 1.296903e-38
1.0205909 -0.49899936 2.1755741 1.296903e-38
1.0422239 -0.49118668 2.1670001 1.296903e-38
-0.44512945 -0.47222421 2.172091 1.296903e-38
-0.41879034 -0.46840534 2.1735172 1.296903e-38
-0.37920877 -0.4618502 2.1802115 1.296903e-38
-0.35296693 -0.45163742 2.1920741 1.296903e-38
0.99419606 -0.44809636 2.181 1.296903e-38
1.0129108 -0.45863032 2.1735742 1.296903e-38
-0.37622708 -0.4225319 2.1696005 1.296903e-38
-0.34142122 -0.41962618 2.1850612 1.296903e-38
-0.31520241 -0.40844774 2.1918335 1.296903e-38
0.98913503 -0.42051798 2.1809268 1.296903e-38
1.0091563 -0.42005476 2.1783228 1.296903e-38
-0.36219859 -0.39521956 2.1670001 1.296903e-38
-0.33741504 -0.38108265 2.1702576 1.296903e-38
-0.30629915 -0.37779492 2.1895173 1.296903e-38
-0.27581716 -0.36148763 2.194 1.296903e-38
0.99297327 -0.380101 2.1867073 1.296903e-38
1.0107774 -0.3826907 2.1738255 1.296903e-38
-0.32956907 -0.3443715 2.1670001 1.296903e-38
-0.30027336 -0.34022665 2.174638 1.296903e-38
-0.26995027 -0.33838096 2.1886668 1.296903e-38
0.98412228 -0.34121361 2.1763754 1.296903e-38
1.0027821 -0.34970105 2.1670001 1.296903e-38
-0.32401809 -0.31266716 2.1670001 1.296903e-38
-0.29859304 -0.3024441 2.1699495 1.296903e-38
-0.25994742 -0.29945508 2.1832533 1.296903e-38
-0.2350975 -0.29468763 2.1916366 1.296903e-38
0.97669637 -0.30183327 2.1852694 1.296903e-38
-0.29374892 -0.27861428 2.1670001 1.296903e-38
-0.26048079 -0.27546376 2.1692917 1.296903e-38
0.9557482 -0.24614589 2.194 1.296903e-38
0.97462219 -0.25876614 2.1817706 1.296903e-38
0.95153743 -0.20913343 2.1873002 1.296903e-38
0.97251654 -0.2174153 2.1794369 1.296903e-38
1.00326 -0.20148286 2.181 1.296903e-38
0.95282286 -0.19850476 2.194 1.296903e-38
0.98299468 -0.19413553 2.185143 1.296903e-38
1.00326 -0.19732857 2.181 1.296903e-38
-0.056417145 -0.045969527 2.194 1.296903e-38
-0.051715709 -0.036044285 2.194 1.296903e-38
0.010723746 0.032164637 2.1931334 1.296903e-38
-0.043340001 0.076360956 2.1670001 1.296903e-38
-0.0095390938 0.069045573 2.1722381 1.296903e-38
0.014549175 0.061695218 2.1914003 1.296903e-38
-0.051595241 0.08048857 2.1670001 1.296903e-38
-0.0072233342 0.089362949 2.1670001 1.296903e-38
0.022301106 0.098551534 2.1817825 1.296903e-38
0.051736608 0.1100761 2.194 1.296903e-38
0.029922897 0.13400866 2.1714389 1.296903e-38
0.056642815 0.14384614 2.1873133 1.296903e-38
0.094028577 0.15253524 2.194 1.296903e-38
0.03921238 0.16510478 2.1670001 1.296903e-38
0.065687791 0.17569204 2.178 1.296903e-38
0.09791109 0.18221 2.1919742 1.296903e-38
0.12495352 0.18763924 2.194 1.296903e-38
0.074192442 0.21376109 2.1679335 1.296903e-38
0.099762224 0.22083618 2.183392 1.296903e-38
0.13052346 0.22536002 2.1883786 1.296903e-38
0.10191569 0.24987759 2.171 1.296903e-38
0.13974509 0.25968665 2.1858215 1.296903e-38
0.16707107 0.26882175 2.194 1.296903e-38
0.14633939 0.29696044 2.1764576 1.296903e-38
0.17591913 0.30307931 2.1917391 1.296903e-38
0.15159099 0.33021376 2.1690001 1.296903e-38
0.18078569 0.33405375 2.1823335 1.296903e-38
0.20593417 0.34012806 2.194 1.296903e-38
-0.53489143 -0.74199003 2.2131567 1.296903e-38
-0.50068277 -0.73803252 2.222321 1.296903e-38
-0.46058157 -0.74239719 2.2286708 1.296903e-38
-0.41811994 -0.73683119 2.2243016 1.296903e-38
-0.38124165 -0.73252392 2.2237685 1.296903e-38
-0.33767775 -0.73152256 2.2230885 1.296903e-38
-0.30127582 -0.73181123 2.2233293 1.296903e-38
-0.26189443 -0.73240572 2.2196152 1.296903e-38
-0.22428243 -0.72582179 2.2085557 1.296903e-38
-0.17902288 -0.7239641 2.2092502 1.296903e-38
-0.14107044 -0.72672534 2.2088573 1.296903e-38
-0.10039195 -0.72501838 2.2080002 1.296903e-38
-0.076123439 -0.72464466 2.2080002 1.296903e-38
-0.52781725 -0.71076578 2.2080002 1.296903e-38
-0.50154924 -0.69978273 2.2207277 1.296903e-38
-0.47739059 -0.69732124 2.2369998 1.296903e-38
-0.4149102 -0.71317685 2.2369998 1.296903e-38
-0.37748164 -0.71758306 2.2369998 1.296903e-38
-0.3391718 -0.71520096 2.2369998 1.296903e-38
-0.3054328 -0.71680832 2.2369998 1.296903e-38
-0.25375742 -0.71062827 2.2313666 1.296903e-38
-0.22118101 -0.70626009 2.2265725 1.296903e-38
-0.17929125 -0.7126196 2.2286601 1.296903e-38
-0.13894826 -0.71140409 2.2260711 1.296903e-38
-0.10014404 -0.71151435 2.2219996 1.296903e-38
-0.060563374 -0.70762497 2.2211864 1.296903e-38
-0.01943399 -0.70090252 2.2204232 1.296903e-38
0.02143812 -0.70056242 2.2181261 1.296903e-38
0.059551716 -0.69650227 2.2184196 1.296903e-38
0.097140439 -0.68923301 2.2183137 1.296903e-38
0.13868946 -0.68623018 2.2210283 1.296903e-38
0.18128999 -0.68651515 2.2215428 1.296903e-38
0.22115022 -0.68757313 2.2172222 1.296903e-38
0.25926214 -0.68805385 2.2101429 1.296903e-38
0.28158 -0.68595427 2.223 1.296903e-38
-0.52361149 -0.67501724 2.2080002 1.296903e-38
-0.49607092 -0.66653168 2.2149482 1.296903e-38
-0.46209297 -0.65866363 2.2357142 1.296903e-38
-0.41868928 -0.65436071 2.2369998 1.296903e-38
-0.39626858 -0.64553428 2.237 1.296903e-38
0.10992423 -0.67768371 2.2337775 1.296903e-38
0.14404429 -0.676534 2.234586 1.296903e-38
0.17950465 -0.67438573 2.2353997 1.296903e-38
0.22139648 -0.67501324 2.2347295 1.296903e-38
0.26057521 -0.67334706 2.2296605 1.296903e-38
0.29918766 -0.66579849 2.2255931 1.296903e-38
0.33974537 -0.66365033 2.2237687 1.296903e-38
0.37925455 -0.66441596 2.2241294 1.296903e-38
0.41891178 -0.66368788 2.2226887 1.296903e-38
0.46092448 -0.65963602 2.2209363 1.296903e-38
0.50024289 -0.65608454 2.2189314 1.296903e-38
0.53958756 -0.65989763 2.2204549 1.296903e-38
0.57861292 -0.65835238 2.2228911 1.296903e-38
0.62053877 -0.65958095 2.2207639 1.296903e-38
0.6609934 -0.65203673 2.2196672 1.296903e-38
0.69992042 -0.64929587 2.2195454 1.296903e-38
0.73764849 -0.64805806 2.2173507 1.296903e-38
0.78140318 -0.64849591 2.2165613 1.296903e-38
0.80893123 -0.64999056 2.215724 1.296903e-38
0.90633154 -0.64137149 2.2080002 1.296903e-38
-0.48155433 -0.63716573 2.2080002 1.296903e-38
-0.45801827 -0.62209952 2.225667 1.296903e-38
-0.41905946 -0.61963081 2.2353637 1.296903e-38
-0.39265606 -0.6144107 2.2369998 1.296903e-38
0.46657425 -0.63701236 2.237 1.296903e-38
0.64728284 -0.63620967 2.2342 1.296903e-38
0.70731807 -0.63701242 2.237 1.296903e-38
0.74630719 -0.63395202 2.227 1.296903e-38
0.77275699 -0.63217014 2.2286537 1.296903e-38
0.82126015 -0.63326019 2.2301288 1.296903e-38
0.86277592 -0.62172478 2.2331567 1.296903e-38
0.90043563 -0.62340158 2.2188642 1.296903e-38
0.93910623 -0.61860132 2.2295315 1.296903e-38
0.97666734 -0.61222196 2.2222331 1.296903e-38
1.0045227 -0.61063039 2.2275832 1.296903e-38
-0.45164841 -0.59296364 2.2114091 1.296903e-38
-0.42007789 -0.58006001 2.2208784 1.296903e-38
-0.38099778 -0.57662672 2.2312794 1.296903e-38
-0.35152858 -0.56457615 2.2369998 1.296903e-38
0.8926695 -0.59866381 2.237 1.296903e-38
0.97576314 -0.59427118 2.2341497 1.296903e-38
1.0148484 -0.57790637 2.2169678 1.296903e-38
1.04704 -0.5703429 2.2180002 1.296903e-38
-0.40873986 -0.5450117 2.2142498 1.296903e-38
-0.37807161 -0.53989631 2.2253129 1.296903e-38
-0.34237617 -0.53638345 2.2351933 1.296903e-38
0.9988572 -0.54884577 2.2080002 1.296903e-38
1.0073369 -0.53697646 2.2131541 1.296903e-38
1.0430171 -0.55725718 2.2080002 1.296903e-38
-0.37220576 -0.50889158 2.2080002 1.296903e-38
-0.34121022 -0.4995929 2.2256119 1.296903e-38
-0.31083646 -0.49086171 2.2369998 1.296903e-38
0.98072922 -0.49498066 2.237 1.296903e-38
1.0091554 -0.50276482 2.2181199 1.296903e-38
-0.33734202 -0.46285698 2.2162101 1.296903e-38
-0.30189911 -0.45879224 2.2318668 1.296903e-38
-0.27848363 -0.45013919 2.237 1.296903e-38
0.99268967 -0.4564341 2.2323997 1.296903e-38
1.0059811 -0.46800858 2.2204399 1.296903e-38
-0.32313907 -0.43459052 2.2080002 1.296903e-38
-0.29839212 -0.42040059 2.2201459 1.296903e-38
-0.2668156 -0.41458896 2.2341995 1.296903e-38
0.98963225 -0.41556269 2.2305915 1.296903e-38
1.0034542 -0.43035617 2.237 1.296903e-38
-0.29008219 -0.38625872 2.2119706 1.296903e-38
-0.25942284 -0.38053682 2.2240999 1.296903e-38
-0.22647475 -0.36823741 2.2317498 1.296903e-38
0.98456728 -0.38066196 2.2274332 1.296903e-38
-0.2525281 -0.34152403 2.2146347 1.296903e-38
-0.22064355 -0.33946705 2.2216682 1.296903e-38
-0.19143645 -0.32577738 2.2357271 1.296903e-38
0.95232284 -0.32596284 2.237 1.296903e-38
0.97532731 -0.33891425 2.2253218 1.296903e-38
-0.24802928 -0.30802143 2.21175 1.296903e-38
-0.21727888 -0.30011141 2.2152379 1.296903e-38
-0.18390702 -0.29786801 2.2291522 1.296903e-38
-0.15552476 -0.28335333 2.237 1.296903e-38
0.94867486 -0.29595804 2.2357271 1.296903e-38
0.96683383 -0.30027232 2.2214839 1.296903e-38
-0.21432975 -0.27390024 2.2265215 1.296903e-38
-0.17945676 -0.26018789 2.2195516 1.296903e-38
-0.15352742 -0.25725499 2.2369998 1.296903e-38
0.91823518 -0.26844001 2.237 1.296903e-38
0.94207072 -0.25895023 2.2289581 1.296903e-38
0.96707916 -0.26690465 2.2129092 1.296903e-38
-0.17622247 -0.2383147 2.2144289 1.296903e-38
-0.14720573 -0.23417392 2.2271998 1.296903e-38
0.94575661 -0.22388448 2.224817 1.296903e-38
0.96268398 -0.2197092 2.2113335 1.296903e-38
-0.066044763 -0.18961237 2.237 1.296903e-38
0.94628578 -0.19977143 2.2080002 1.296903e-38
0.96100581 -0.19977143 2.2080002 1.296903e-38
-0.0075535071 -0.086962171 2.2369998 1.296903e-38
-0.05312011 -0.053797603 2.2098 1.296903e-38
-0.019927541 -0.059602506 2.2225642 1.296903e-38
0.011233421 -0.0476452 2.2369998 1.296903e-38
-0.042192861 -0.031635717 2.2155004 1.296903e-38
-0.018119469 -0.024683474 2.21293 1.296903e-38
0.018294467 -0.018391615 2.2270138 1.296903e-38
0.042415839 -0.012201819 2.2369998 1.296903e-38
-0.0038022853 0.010994857 2.217 1.296903e-38
0.021212796 0.017789092 2.2170708 1.296903e-38
0.050419323 0.021197302 2.2307444 1.296903e-38
0.034741778 0.058961879 2.2085173 1.296903e-38
0.059049167 0.060564417 2.2238035 1.296903e-38
0.10013238 0.069379412 2.2369998 1.296903e-38
0.039253339 0.08902096 2.2080002 1.296903e-38
0.064603873 0.097390369 2.2139239 1.296903e-38
0.098429002 0.10186072 2.2318182 1.296903e-38
0.12649703 0.10998584 2.2369998 1.296903e-38
0.071917728 0.13269031 2.2080002 1.296903e-38
0.099814214 0.13889506 2.2132578 1.296903e-38
0.13764115 0.14358951 2.2354248 1.296903e-38
0.16404666 0.15339428 2.237 1.296903e-38
0.10870857 0.17179433 2.2080002 1.296903e-38
0.14183532 0.18048351 2.2222059 1.296903e-38
0.16990548 0.1904113 2.2369998 1.296903e-38
0.10304001 0.20818287 2.2080002 1.296903e-38
0.14816712 0.21618949 2.2173846 1.296903e-38
0.17674513 0.22241475 2.2311144 1.296903e-38
0.15491049 0.24323049 2.2080002 1.296903e-38
0.18362035 0.25797564 2.2210152 1.296903e-38
0.20685245 0.26509318 2.2337689 1.296903e-38
0.19254342 0.29431143 2.2085772 1.296903e-38
0.21800102 0.30300543 2.2291787 1.296903e-38
0.24196126 0.31074515 2.237 1.296903e-38
0.22131765 0.33099642 2.2222748 1.296903e-38
0.24074382 0.32809332 2.237 1.296903e-38
-0.48257142 -0.72278476 2.2520001 1.296903e-38
-0.45825395 -0.72620404 2.2537498 1.296903e-38
-0.43645906 -0.73172128 2.2520003 1.296903e-38
-0.28525335 -0.72278476 2.2520001 1.296903e-38
-0.48257142 -0.70562667 2.2520001 1.296903e-38
-0.45939583 -0.70186508 2.2536798 1.296903e-38
-0.42113563 -0.70247781 2.2567251 1.296903e-38
-0.38291296 -0.70903754 2.2618375 1.296903e-38
-0.33916214 -0.71023118 2.2604845 1.296903e-38
-0.29736128 -0.71306604 2.2613328 1.296903e-38
-0.26090729 -0.70212311 2.2607105 1.296903e-38
-0.2191797 -0.690027 2.2597363 1.296903e-38
-0.18150975 -0.69788927 2.2584994 1.296903e-38
-0.14096108 -0.69697249 2.2614133 1.296903e-38
-0.10161261 -0.69643247 2.262444 1.296903e-38
-0.060531005 -0.69325614 2.2572198 1.296903e-38
-0.020190964 -0.69000208 2.2534354 1.296903e-38
0.018630933 -0.68708855 2.2536798 1.296903e-38
0.06023759 -0.68565756 2.2550435 1.296903e-38
0.093438722 -0.68415123 2.2582223 1.296903e-38
-0.4482553 -0.66858083 2.2520003 1.296903e-38
-0.42266169 -0.66719604 2.2538662 1.296903e-38
-0.39029908 -0.66057223 2.2615783 1.296903e-38
-0.24386477 -0.67980003 2.266 1.296903e-38
-0.22767904 -0.67980003 2.266 1.296903e-38
-0.12301143 -0.67980003 2.266 1.296903e-38
-0.11653715 -0.67980003 2.266 1.296903e-38
-0.056005631 -0.67567527 2.2653911 1.296903e-38
-0.020515777 -0.67813051 2.2629564 1.296903e-38
0.021612907 -0.67309773 2.2641327 1.296903e-38
0.060089085 -0.6717152 2.2647493 1.296903e-38
0.10305148 -0.66498899 2.2613332 1.296903e-38
0.13885468 -0.65913093 2.2552159 1.296903e-38
0.17891073 -0.65929323 2.2561998 1.296903e-38
0.22072785 -0.66018701 2.2566659 1.296903e-38
0.26102182 -0.65890115 2.257782 1.296903e-38
0.30165035 -0.65044385 2.2575343 1.296903e-38
0.33751786 -0.65021712 2.2563446 1.296903e-38
0.38116607 -0.64970738 2.2596359 1.296903e-38
0.42083749 -0.64702493 2.2585111 1.296903e-38
0.45433307 -0.64873743 2.2584615 1.296903e-38
0.50286978 -0.64256912 2.2549474 1.296903e-38
0.54148269 -0.64253414 2.2574997 1.296903e-38
0.58436453 -0.64423054 2.2581596 1.296903e-38
0.61688566 -0.64564794 2.2595994 1.296903e-38
0.65859461 -0.64405507 2.2558892 1.296903e-38
0.68846858 -0.64373493 2.2520001 1.296903e-38
-0.43538666 -0.6369943 2.2520001 1.296903e-38
-0.37920102 -0.61893761 2.2601945 1.296903e-38
-0.35608572 -0.61505711 2.266 1.296903e-38
0.29565907 -0.6366381 2.266 1.296903e-38
0.4165124 -0.6366381 2.266 1.296903e-38
0.47332489 -0.63313031 2.2625003 1.296903e-38
0.49807188 -0.63142735 2.2644861 1.296903e-38
0.53667516 -0.63283986 2.2659998 1.296903e-38
0.57581896 -0.63341868 2.2653 1.296903e-38
0.61968166 -0.63509673 2.2660005 1.296903e-38
0.66467017 -0.62770641 2.2616918 1.296903e-38
0.699063 -0.62407404 2.2606304 1.296903e-38
0.74093831 -0.62814218 2.2609804 1.296903e-38
0.77949417 -0.6192317 2.2578151 1.296903e-38
0.8200404 -0.62267327 2.2598028 1.296903e-38
0.85822338 -0.61022049 2.2569406 1.296903e-38
0.90192938 -0.61038947 2.255379 1.296903e-38
0.93885261 -0.60724407 2.2558496 1.296903e-38
0.97019017 -0.60342211 2.2548001 1.296903e-38
1.0063844 -0.60360807 2.2555001 1.296903e-38
-0.36462316 -0.59113783 2.2543337 1.296903e-38
-0.34124067 -0.57668966 2.2609994 1.296903e-38
0.89252305 -0.59609264 2.2555003 1.296903e-38
0.94630283 -0.59304982 2.2629564 1.296903e-38
0.98032546 -0.58039165 2.2564876 1.296903e-38
1.0074688 -0.5826152 2.2530367 1.296903e-38
-0.32823342 -0.54893225 2.2541001 1.296903e-38
-0.3108767 -0.53608656 2.2614412 1.296903e-38
0.99278134 -0.54357827 2.2632 1.296903e-38
1.008561 -0.54219049 2.2568831 1.296903e-38
-0.32385904 -0.5125981 2.2520001 1.296903e-38
-0.29990804 -0.50144243 2.2588365 1.296903e-38
-0.25866318 -0.48526317 2.2660005 1.296903e-38
-0.23954856 -0.48125523 2.266 1.296903e-38
0.985089 -0.49796307 2.2619352 1.296903e-38
1.0090015 -0.50065106 2.2574189 1.296903e-38
-0.28353754 -0.47570822 2.2520001 1.296903e-38
-0.26043463 -0.45929217 2.2631111 1.296903e-38
-0.22942784 -0.45059544 2.2659996 1.296903e-38
0.98622006 -0.46173891 2.2573447 1.296903e-38
1.0052807 -0.4746052 2.2520001 1.296903e-38
-0.25256085 -0.42627341 2.2555995 1.296903e-38
-0.22135758 -0.42018688 2.2650013 1.296903e-38
0.95870864 -0.40536004 2.2520003 1.296903e-38
0.97766376 -0.42205918 2.2558174 1.296903e-38
-0.21603876 -0.38678282 2.2591264 1.296903e-38
-0.18904617 -0.37128115 2.2618818 1.296903e-38
0.95337123 -0.37182033 2.2616253 1.296903e-38
0.97051328 -0.37778345 2.2559617 1.296903e-38
-0.18035512 -0.34164524 2.2604847 1.296903e-38
-0.15394412 -0.32839018 2.2660003 1.296903e-38
0.95402724 -0.33838138 2.2568121 1.296903e-38
0.96754551 -0.34726617 2.2526085 1.296903e-38
-0.16630916 -0.3062267 2.2526085 1.296903e-38
-0.14460392 -0.29722354 2.2624307 1.296903e-38
-0.11869524 -0.28702664 2.266 1.296903e-38
0.94352621 -0.29963046 2.2551105 1.296903e-38
-0.13523562 -0.26258835 2.2614908 1.296903e-38
-0.11383952 -0.25303668 2.2660003 1.296903e-38
-0.062584773 -0.26976192 2.2660003 1.296903e-38
0.91696095 -0.25581619 2.2636666 1.296903e-38
0.92744404 -0.25743568 2.2558618 1.296903e-38
-0.13207872 -0.23259872 2.2613335 1.296903e-38
-0.10445181 -0.23695885 2.2660003 1.296903e-38
-0.056287881 -0.20751198 2.2653637 1.296903e-38
-0.035608571 -0.20609809 2.266 1.296903e-38
0.91719043 -0.22228383 2.2660003 1.296903e-38
0.92777485 -0.22059181 2.2577136 1.296903e-38
-0.056134295 -0.18856171 2.2589996 1.296903e-38
-0.017696381 -0.17048953 2.266 1.296903e-38
0.017593648 -0.093135752 2.2625773 1.296903e-38
0.042442542 -0.085604452 2.2660003 1.296903e-38
-0.0021447621 -0.079356194 2.2520001 1.296903e-38
0.021932134 -0.064080246 2.2554991 1.296903e-38
0.05018235 -0.055552416 2.2644439 1.296903e-38
0.03538857 -0.033243809 2.2520001 1.296903e-38
0.061347384 -0.019246109 2.2591939 1.296903e-38
0.086323813 -0.0021580954 2.266 1.296903e-38
0.070145831 0.017014042 2.253953 1.296903e-38
0.097123377 0.022544798 2.2639577 1.296903e-38
0.12678809 0.02427857 2.266 1.296903e-38
0.076236539 0.047379743 2.2520003 1.296903e-38
0.10088421 0.056723181 2.2536712 1.296903e-38
0.12914023 0.064685099 2.2598231 1.296903e-38
0.11183402 0.087935239 2.2520001 1.296903e-38
0.14229718 0.099015743 2.2566664 1.296903e-38
0.16599688 0.10841636 2.2635295 1.296903e-38
0.15056232 0.12854274 2.2520006 1.296903e-38
0.17701067 0.14194225 2.2601047 1.296903e-38
0.20429969 0.14099556 2.266 1.296903e-38
0.18309771 0.17825389 2.2527881 1.296903e-38
0.20611539 0.18318966 2.2630527 1.296903e-38
0.19588827 0.21519113 2.2520001 1.296903e-38
0.21950996 0.22283693 2.2613337 1.296903e-38
0.24494381 0.23091619 2.266 1.296903e-38
0.22558209 0.25796843 2.2522328 1.296903e-38
0.25003934 0.26375639 2.2620621 1.296903e-38
0.23100345 0.28727201 2.2520003 1.296903e-38
0.25898615 0.30058557 2.2557993 1.296903e-38
0.28803778 0.31118098 2.2647276 1.296903e-38
0.25985488 0.32661697 2.2548001 1.296903e-38
-0.40536633 -0.70732731 2.2810001 1.296903e-38
-0.37762645 -0.69946337 2.2828548 1.296903e-38
-0.33975217 -0.69324595 2.2882326 1.296903e-38
-0.30063236 -0.69413257 2.290493 1.296903e-38
-0.26820233 -0.68986678 2.2940238 1.296903e-38
-0.21410023 -0.68574822 2.2810001 1.296903e-38
-0.17908853 -0.68606555 2.284692 1.296903e-38
-0.14546588 -0.68387383 2.2889092 1.296903e-38
-0.091194235 -0.68303794 2.2922783 1.296903e-38
-0.076425001 -0.68342078 2.2927501 1.296903e-38
-0.37269017 -0.65993881 2.2824023 1.296903e-38
-0.33965755 -0.6589151 2.2956655 1.296903e-38
-0.31174663 -0.6623947 2.3102851 1.296903e-38
-0.24896622 -0.67419642 2.2930913 1.296903e-38
-0.21970221 -0.67149138 2.2934301 1.296903e-38
-0.18126683 -0.67407292 2.2947245 1.296903e-38
-0.13683049 -0.67654431 2.2971284 1.296903e-38
-0.1018192 -0.676759 2.2913663 1.296903e-38
-0.057447523 -0.66288179 2.2968302 1.296903e-38
-0.020076856 -0.66188782 2.3010325 1.296903e-38
0.018621905 -0.65432996 2.2988169 1.296903e-38
0.059172101 -0.65310603 2.3013732 1.296903e-38
0.097352102 -0.65024328 2.2933254 1.296903e-38
0.14096607 -0.64310253 2.2934861 1.296903e-38
0.18268505 -0.64637661 2.2952132 1.296903e-38
0.21834262 -0.64676362 2.2961097 1.296903e-38
0.25818032 -0.64651865 2.2918742 1.296903e-38
0.29521176 -0.64397293 2.2832856 1.296903e-38
0.34351814 -0.64404118 2.2828457 1.296903e-38
0.37838829 -0.6440689 2.2816956 1.296903e-38
0.41926956 -0.64085239 2.2810001 1.296903e-38
0.45503032 -0.64285773 2.2810001 1.296903e-38
-0.36968815 -0.6303739 2.2810001 1.296903e-38
-0.33951107 -0.61958867 2.2858944 1.296903e-38
-0.30771849 -0.61727464 2.3046658 1.296903e-38
-0.27744001 -0.60332191 2.312 1.296903e-38
0.050643809 -0.63635057 2.312 1.296903e-38
0.11541072 -0.63531125 2.3082502 1.296903e-38
0.14097586 -0.63109148 2.3104999 1.296903e-38
0.17587839 -0.63325167 2.3107502 1.296903e-38
0.2204562 -0.63404572 2.3112106 1.296903e-38
0.26311165 -0.63315398 2.3099999 1.296903e-38
0.30245036 -0.62722331 2.297693 1.296903e-38
0.34023649 -0.6245603 2.2977166 1.296903e-38
0.37954491 -0.6265083 2.2965362 1.296903e-38
0.41886163 -0.62863654 2.2956192 1.296903e-38
0.46116787 -0.62659848 2.2974503 1.296903e-38
0.49895912 -0.61417675 2.2942629 1.296903e-38
0.54022598 -0.61672896 2.2941833 1.296903e-38
0.58041024 -0.61760789 2.2944207 1.296903e-38
0.61771268 -0.61897051 2.2925358 1.296903e-38
0.65791959 -0.61528307 2.2921154 1.296903e-38
0.70380819 -0.60637826 2.2838571 1.296903e-38
0.74245858 -0.61084563 2.2943163 1.296903e-38
0.77757287 -0.60599369 2.2888927 1.296903e-38
0.82316875 -0.60848916 2.2871132 1.296903e-38
0.85347056 -0.60410851 2.2892385 1.296903e-38
0.90074736 -0.60224044 2.294385 1.296903e-38
0.92673773 -0.60435641 2.2810001 1.296903e-38
-0.33228278 -0.59078377 2.2816951 1.296903e-38
-0.30014569 -0.57916057 2.2875998 1.296903e-38
-0.26324743 -0.57397366 2.3044989 1.296903e-38
-0.23120001 -0.5658896 2.312 1.296903e-38
0.49322665 -0.59671617 2.312 1.296903e-38
0.66906381 -0.59521163 2.2958891 1.296903e-38
0.69704288 -0.59337008 2.297657 1.296903e-38
0.74062341 -0.59333628 2.3113184 1.296903e-38
0.78877574 -0.59584516 2.2957647 1.296903e-38
0.81120753 -0.59468758 2.3024213 1.296903e-38
0.86267573 -0.58567327 2.3013654 1.296903e-38
0.90166444 -0.58374488 2.3065448 1.296903e-38
0.93914437 -0.58048654 2.2990184 1.296903e-38
0.97343922 -0.56976473 2.2987599 1.296903e-38
-0.29118022 -0.54151005 2.2813127 1.296903e-38
-0.25906137 -0.54066807 2.2916973 1.296903e-38
-0.22508681 -0.53705484 2.308537 1.296903e-38
0.90498286 -0.55708194 2.312 1.296903e-38
0.95011085 -0.54792744 2.3105717 1.296903e-38
0.98139328 -0.54099119 2.2973902 1.296903e-38
1.0042325 -0.54803252 2.2810001 1.296903e-38
-0.28623709 -0.51030266 2.2809997 1.296903e-38
-0.25887546 -0.50322604 2.2814574 1.296903e-38
-0.21990921 -0.49874797 2.291703 1.296903e-38
-0.18819787 -0.48954573 2.3112502 1.296903e-38
0.95501506 -0.49505267 2.3035004 1.296903e-38
0.97175825 -0.50222582 2.2930169 1.296903e-38
-0.25758237 -0.46551019 2.2810001 1.296903e-38
-0.21489412 -0.46342409 2.2819402 1.296903e-38
-0.18100862 -0.45903626 2.2969053 1.296903e-38
-0.15279418 -0.44715378 2.3103335 1.296903e-38
0.95263827 -0.45925444 2.312 1.296903e-38
0.97246164 -0.46087661 2.295752 1.296903e-38
-0.20203143 -0.4247005 2.2810001 1.296903e-38
-0.18030763 -0.41926941 2.2810011 1.296903e-38
-0.14750981 -0.41649193 2.300262 1.296903e-38
0.9432534 -0.41750017 2.3073502 1.296903e-38
0.96749294 -0.42333856 2.2958906 1.296903e-38
-0.17427818 -0.38433409 2.2809987 1.296903e-38
-0.1399775 -0.37960532 2.3000548 1.296903e-38
-0.11219838 -0.37717184 2.3100438 1.296903e-38
0.91819429 -0.36918604 2.312 1.296903e-38
0.941329 -0.37898415 2.3022265 1.296903e-38
0.966317 -0.39538896 2.2881112 1.296903e-38
-0.16541131 -0.35099474 2.2810001 1.296903e-38
-0.13721113 -0.34231776 2.2925763 1.296903e-38
-0.10887182 -0.3391515 2.304307 1.296903e-38
-0.060252123 -0.32808381 2.3120003 1.296903e-38
0.91174537 -0.33090299 2.3111668 1.296903e-38
0.94026977 -0.3413496 2.3005683 1.296903e-38
-0.13074516 -0.30807576 2.2809994 1.296903e-38
-0.10346274 -0.29693714 2.29193 1.296903e-38
-0.062216222 -0.29832852 2.3071587 1.296903e-38
0.90580815 -0.30053312 2.3086178 1.296903e-38
0.92995089 -0.3027454 2.2915392 1.296903e-38
-0.096011274 -0.26070988 2.2814639 1.296903e-38
-0.058748692 -0.25937402 2.2929356 1.296903e-38
-0.023021717 -0.25488508 2.3106592 1.296903e-38
0.87709206 -0.24147557 2.312 1.296903e-38
0.9022944 -0.26040843 2.3034782 1.296903e-38
0.92253327 -0.26129326 2.2908466 1.296903e-38
-0.087205581 -0.22789313 2.2809997 1.296903e-38
-0.058528163 -0.22662653 2.2862301 1.296903e-38
-0.019503472 -0.2197106 2.2942703 1.296903e-38
0.0080601592 -0.21027823 2.3078337 1.296903e-38
0.87056589 -0.21770678 2.3019993 1.296903e-38
0.90029353 -0.22046532 2.2946613 1.296903e-38
0.92259175 -0.2207634 2.292556 1.296903e-38
-0.048991542 -0.1728653 2.2914445 1.296903e-38
-0.01912635 -0.18302076 2.2919574 1.296903e-38
0.01751616 -0.17715178 2.3094628 1.296903e-38
0.043304127 -0.16220699 2.312 1.296903e-38
0.86629719 -0.19907334 2.2970002 1.296903e-38
0.89669716 -0.19867715 2.2924287 1.296903e-38
0.92098767 -0.19907334 2.2970002 1.296903e-38
0.026359674 -0.14021723 2.3056526 1.296903e-38
0.051223256 -0.13338912 2.3119991 1.296903e-38
0.029194942 -0.10908797 2.2835259 1.296903e-38
0.060223553 -0.099508189 2.2999191 1.296903e-38
0.10348955 -0.095311016 2.312 1.296903e-38
0.12257271 -0.10202159 2.312 1.296903e-38
0.067689784 -0.063232236 2.2884729 1.296903e-38
0.098647945 -0.0564913 2.3076649 1.296903e-38
0.13025114 -0.051660072 2.3120003 1.296903e-38
0.074947149 -0.031499527 2.2810001 1.296903e-38
0.10049093 -0.020250699 2.291333 1.296903e-38
0.1378178 -0.019194033 2.3057144 1.296903e-38
0.16073905 -0.0044038096 2.312 1.296903e-38
0.10828988 0.014943347 2.2809992 1.296903e-38
0.14186564 0.019353203 2.2902975 1.296903e-38
0.17190725 0.023685802 2.3112845 1.296903e-38
0.14769717 0.056478336 2.2843835 1.296903e-38
0.17909347 0.059841502 2.3005786 1.296903e-38
0.20607242 0.067740954 2.312 1.296903e-38
0.15351494 0.081826359 2.2810001 1.296903e-38
0.18274905 0.098058611 2.2899687 1.296903e-38
0.21410847 0.10145781 2.3097982 1.296903e-38
0.24220954 0.11229715 2.312 1.296903e-38
0.19108638 0.12955771 2.2826002 1.296903e-38
0.22008945 0.14019999 2.2956879 1.296903e-38
0.2487051 0.14125219 2.3119991 1.296903e-38
0.22504444 0.17924485 2.2902195 1.296903e-38
0.25683364 0.18292728 2.3087485 1.296903e-38
0.23125985 0.20716614 2.2810001 1.296903e-38
0.2616719 0.21818031 2.2970631 1.296903e-38
0.2991384 0.2275553 2.3067055 1.296903e-38
0.32368001 0.23560381 2.312 1.296903e-38
0.26838031 0.25656298 2.2940645 1.296903e-38
0.30014926 0.25941506 2.3024924 1.296903e-38
0.33183935 0.26482207 2.3044991 1.296903e-38
0.27341884 0.28537074 2.283 1.296903e-38
0.30089253 0.29832965 2.2866101 1.296903e-38
0.33876085 0.30091512 2.2964983 1.296903e-38
0.37267387 0.31104788 2.305207 1.296903e-38
0.31933999 0.32368478 2.2810001 1.296903e-38
0.33547792 0.32326385 2.2842002 1.296903e-38
0.37414417 0.32228005 2.3020003 1.296903e-38
-0.28810477 -0.68037051 2.3270001 1.296903e-38
-0.27259144 -0.68037051 2.3270001 1.296903e-38
-0.095296197 -0.68037051 2.3270001 1.296903e-38
-0.29519069 -0.65920198 2.335001 1.296903e-38
-0.26116368 -0.6583361 2.33881 1.296903e-38
-0.21934262 -0.65326524 2.3379722 1.296903e-38
-0.1799688 -0.65574807 2.3395059 1.296903e-38
-0.14067031 -0.65664768 2.3391268 1.296903e-38
-0.1003082 -0.65686697 2.3382165 1.296903e-38
-0.063201346 -0.64840293 2.3299479 1.296903e-38
-0.01831273 -0.64351171 2.3269999 1.296903e-38
0.018172761 -0.64092231 2.3269999 1.296903e-38
0.072354481 -0.64046729 2.3302002 1.296903e-38
0.094823338 -0.64201272 2.3317995 1.296903e-38
-0.2908152 -0.62468535 2.3295596 1.296903e-38
-0.25933805 -0.6190508 2.335458 1.296903e-38
-0.22072111 -0.61858809 2.3430009 1.296903e-38
-0.19081689 -0.62232673 2.3590009 1.296903e-38
-0.15951334 -0.63580668 2.3590002 1.296903e-38
-0.059183966 -0.63212341 2.3454616 1.296903e-38
-0.018272238 -0.63060337 2.3430009 1.296903e-38
0.017957745 -0.63025266 2.3430011 1.296903e-38
0.060569532 -0.63213569 2.3470013 1.296903e-38
0.10539551 -0.62791032 2.3504674 1.296903e-38
0.13825102 -0.6179288 2.3419516 1.296903e-38
0.18282107 -0.621674 2.3461487 1.296903e-38
0.22008009 -0.61803204 2.3403332 1.296903e-38
0.25913328 -0.61846209 2.3420603 1.296903e-38
0.2976726 -0.61139023 2.3400183 1.296903e-38
0.33946177 -0.60802203 2.3386376 1.296903e-38
0.38118431 -0.6084671 2.3361435 1.296903e-38
0.42169014 -0.61124367 2.3380353 1.296903e-38
0.45951274 -0.61101347 2.336221 1.296903e-38
0.49713528 -0.60400546 2.3304286 1.296903e-38
0.5400117 -0.6032964 2.3269999 1.296903e-38
0.57646763 -0.6021086 2.3313637 1.296903e-38
0.62023747 -0.60250604 2.3279998 1.296903e-38
0.64835888 -0.60674381 2.3269999 1.296903e-38
0.77747995 -0.60421419 2.3269999 1.296903e-38
0.83772004 -0.60058767 2.3270001 1.296903e-38
0.84584606 -0.60206515 2.3270001 1.296903e-38
-0.25590399 -0.58787566 2.3281033 1.296903e-38
-0.21829675 -0.58104187 2.3347509 1.296903e-38
-0.18430595 -0.57846779 2.3530004 1.296903e-38
0.11907334 -0.59986001 2.3590002 1.296903e-38
0.12806001 -0.59986001 2.3590002 1.296903e-38
0.30795714 -0.59359324 2.3561769 1.296903e-38
0.34007874 -0.59470105 2.3590009 1.296903e-38
0.38252416 -0.59141302 2.3558006 1.296903e-38
0.42007065 -0.59070748 2.3575125 1.296903e-38
0.46162811 -0.59243017 2.3567786 1.296903e-38
0.50257248 -0.58772677 2.3454006 1.296903e-38
0.53884518 -0.5887478 2.3446007 1.296903e-38
0.58151805 -0.58972377 2.3505108 1.296903e-38
0.61994416 -0.59125882 2.3444233 1.296903e-38
0.6588546 -0.58769518 2.344357 1.296903e-38
0.69722927 -0.58304763 2.3384297 1.296903e-38
0.73916107 -0.58350205 2.3469255 1.296903e-38
0.78015608 -0.58401221 2.3409436 1.296903e-38
0.81902558 -0.58072609 2.3366902 1.296903e-38
0.85682523 -0.57501042 2.3384292 1.296903e-38
0.89752233 -0.56673223 2.3315721 1.296903e-38
0.93012923 -0.56187576 2.3292859 1.296903e-38
-0.20858788 -0.54473966 2.3269997 1.296903e-38
-0.1806342 -0.53931129 2.3387191 1.296903e-38
-0.15046301 -0.53066343 2.3580594 1.296903e-38
0.87411278 -0.55147183 2.3558006 1.296903e-38
0.90165639 -0.55171847 2.3501122 1.296903e-38
0.94510669 -0.54259127 2.349359 1.296903e-38
0.96716893 -0.5394159 2.3328946 1.296903e-38
-0.20315081 -0.51489496 2.3270001 1.296903e-38
-0.17609185 -0.50301284 2.3281243 1.296903e-38
-0.14411339 -0.50061357 2.3480797 1.296903e-38
-0.11682668 -0.48303339 2.3590002 1.296903e-38
0.90765339 -0.48752671 2.3590002 1.296903e-38
0.94511801 -0.50067341 2.3505597 1.296903e-38
0.9640429 -0.5097239 2.3270001 1.296903e-38
-0.16178192 -0.4742648 2.3270001 1.296903e-38
-0.13788624 -0.4619408 2.3345299 1.296903e-38
-0.10408182 -0.45794135 2.3498971 1.296903e-38
0.91589117 -0.4545756 2.3590002 1.296903e-38
0.93940854 -0.45984313 2.3465323 1.296903e-38
-0.12923212 -0.42588022 2.3281429 1.296903e-38
-0.10083713 -0.42031443 2.3400912 1.296903e-38
-0.066524178 -0.41462675 2.3576293 1.296903e-38
-0.035946667 -0.40440005 2.3590002 1.296903e-38
0.91440558 -0.41882986 2.3501847 1.296903e-38
0.92666787 -0.42268261 2.3334 1.296903e-38
-0.093471885 -0.38088816 2.3332236 1.296903e-38
-0.059924547 -0.37996942 2.3372569 1.296903e-38
-0.033523992 -0.37925515 2.3584082 1.296903e-38
0.91163194 -0.37737197 2.3501441 1.296903e-38
0.9254216 -0.38659799 2.3379474 1.296903e-38
-0.090040937 -0.34033689 2.3281717 1.296903e-38
-0.059661333 -0.34213939 2.330395 1.296903e-38
-0.021990461 -0.33927199 2.3526511 1.296903e-38
0.0022466669 -0.33026004 2.3590002 1.296903e-38
0.87709874 -0.34284136 2.3590004 1.296903e-38
0.90115875 -0.34131503 2.3451998 1.296903e-38
0.92681092 -0.35326079 2.3270001 1.296903e-38
-0.087113351 -0.31077814 2.3269999 1.296903e-38
-0.054552387 -0.30549332 2.3269999 1.296903e-38
-0.019954562 -0.29962772 2.330358 1.296903e-38
0.0092216237 -0.29509598 2.3518891 1.296903e-38
0.87684202 -0.29559717 2.3590007 1.296903e-38
0.88949001 -0.30148831 2.3455608 1.296903e-38
-0.0098721208 -0.26836053 2.3269999 1.296903e-38
0.015743656 -0.2580035 2.3435345 1.296903e-38
0.044933334 -0.24264002 2.3590002 1.296903e-38
0.87180817 -0.25630555 2.3410418 1.296903e-38
0.88546872 -0.26851624 2.3327146 1.296903e-38
-0.0022161906 -0.23713239 2.3270001 1.296903e-38
0.023546444 -0.22201061 2.3333461 1.296903e-38
0.052770715 -0.21664357 2.3522007 1.296903e-38
0.83576 -0.20669335 2.3590002 1.296903e-38
0.86301577 -0.22125615 2.3468928 1.296903e-38
-0.059837144 -0.17064668 2.3270001 1.296903e-38
0.033645798 -0.19159974 2.3269999 1.296903e-38
0.060853135 -0.18113932 2.3399234 1.296903e-38
0.095187731 -0.17524 2.3590009 1.296903e-38
0.12581334 -0.1673767 2.3590002 1.296903e-38
0.83800673 -0.19995335 2.3590002 1.296903e-38
0.84998894 -0.19995336 2.3590002 1.296903e-38
0.067318015 -0.14470254 2.3322103 1.296903e-38
0.10059527 -0.14083287 2.3465555 1.296903e-38
0.13843179 -0.14064541 2.3573277 1.296903e-38
0.098189175 -0.10107175 2.3272679 1.296903e-38
0.13975678 -0.099575765 2.3487146 1.296903e-38
0.16625336 -0.087620012 2.3590002 1.296903e-38
0.10091055 -0.072543316 2.3270001 1.296903e-38
0.14420466 -0.063808531 2.3357282 1.296903e-38
0.17264839 -0.056440428 2.3557189 1.296903e-38
0.1546901 -0.03501581 2.3270001 1.296903e-38
0.18181433 -0.020562591 2.3504932 1.296903e-38
0.20894003 -0.01511394 2.3590009 1.296903e-38
0.18886758 0.014788148 2.331445 1.296903e-38
0.21812984 0.022775086 2.3536673 1.296903e-38
0.24308935 0.031004002 2.3590004 1.296903e-38
0.1957635 0.043585084 2.3270001 1.296903e-38
0.22279567 0.058383755 2.3364434 1.296903e-38
0.25284427 0.062694982 2.3571405 1.296903e-38
0.23112604 0.093115479 2.330478 1.296903e-38
0.25904036 0.10105729 2.3484201 1.296903e-38
0.28410125 0.11090366 2.3590004 1.296903e-38
0.26839843 0.13818255 2.3339751 1.296903e-38
0.29737273 0.14590296 2.3554454 1.296903e-38
0.32576671 0.15694574 2.3590002 1.296903e-38
0.27062148 0.16990796 2.3269999 1.296903e-38
0.30079618 0.18014424 2.337667 1.296903e-38
0.33906505 0.18235736 2.3520744 1.296903e-38
0.36339837 0.19152834 2.3590002 1.296903e-38
0.30318013 0.21396355 2.3307221 1.296903e-38
0.341021 0.22056425 2.3406541 1.296903e-38
0.3744742 0.22488518 2.3550982 1.296903e-38
0.67615384 0.20787716 2.3470001 1.296903e-38
0.68058574 0.20752287 2.3430002 1.296903e-38
0.34840524 0.25459123 2.3300276 1.296903e-38
0.38092953 0.2608043 2.3496497 1.296903e-38
0.40847731 0.26236078 2.3590009 1.296903e-38
0.3568067 0.2814562 2.3270001 1.296903e-38
0.3852405 0.29639867 2.3380556 1.296903e-38
0.41593644 0.30464178 2.3543344 1.296903e-38
0.44259337 0.31678 2.3590002 1.296903e-38
0.42519844 0.32203466 2.353667 1.296903e-38
0.44618803 0.32396933 2.3590002 1.296903e-38
-0.18717065 -0.64232814 2.3760004 1.296903e-38
-0.1428051 -0.64070475 2.3800001 1.296903e-38
-0.10235682 -0.64060897 2.3813336 1.296903e-38
-0.0792 -0.64038861 2.3760002 1.296903e-38
-0.17373948 -0.62120652 2.3849225 1.296903e-38
-0.140596 -0.62529844 2.3904893 1.296903e-38
-0.10123084 -0.63048959 2.3894188 1.296903e-38
-0.05903792 -0.61762631 2.3839998 1.296903e-38
-0.022344261 -0.61588246 2.3835783 1.296903e-38
0.022499306 -0.6148743 2.3830502 1.296903e-38
0.060834002 -0.61505693 2.3826034 1.296903e-38
0.097549535 -0.61545223 2.3820372 1.296903e-38
0.14630288 -0.6072638 2.3769999 1.296903e-38
0.17587095 -0.60855997 2.3809996 1.296903e-38
0.21904004 -0.6048041 2.3784616 1.296903e-38
0.26107717 -0.60616279 2.3759999 1.296903e-38
0.2873829 -0.6041829 2.3760002 1.296903e-38
-0.16569525 -0.58514899 2.3767998 1.296903e-38
-0.14342327 -0.57786173 2.3917232 1.296903e-38
-0.11390477 -0.56268954 2.3920002 1.296903e-38
-0.061922785 -0.59582561 2.3920002 1.296903e-38
-0.036449526 -0.59913909 2.3920002 1.296903e-38
0.026577782 -0.59913909 2.3920002 1.296903e-38
0.060597338 -0.59868354 2.3920002 1.296903e-38
0.10857601 -0.59707439 2.3856003 1.296903e-38
0.13829333 -0.59218484 2.3841944 1.296903e-38
0.18026797 -0.59583241 2.3886662 1.296903e-38
0.22003917 -0.59597361 2.3866661 1.296903e-38
0.25912833 -0.59448212 2.3830583 1.296903e-38
0.29808 -0.59154743 2.3821931 1.296903e-38
0.33942783 -0.58783561 2.383172 1.296903e-38
0.38041216 -0.58417863 2.3843477 1.296903e-38
0.42196274 -0.58110493 2.3871999 1.296903e-38
0.46014252 -0.58159047 2.3849406 1.296903e-38
0.49751005 -0.57381743 2.3818769 1.296903e-38
0.54179329 -0.57231283 2.3845098 1.296903e-38
0.58112001 -0.57285583 2.3848882 1.296903e-38
0.6184966 -0.57527316 2.3851907 1.296903e-38
0.65842521 -0.57405448 2.3853905 1.296903e-38
0.69896072 -0.57019764 2.3800845 1.296903e-38
0.73999149 -0.56975019 2.3772969 1.296903e-38
0.77920896 -0.56879514 2.3778281 1.296903e-38
0.81964201 -0.56618488 2.3779998 1.296903e-38
0.8545115 -0.5671286 2.3759999 1.296903e-38
-0.16066287 -0.55666292 2.3760002 1.296903e-38
-0.13493305 -0.54368204 2.3851845 1.296903e-38
-0.10553446 -0.53740048 2.3916435 1.296903e-38
-0.068167627 -0.5346514 2.3920002 1.296903e-38
0.50993878 -0.55545151 2.3895388 1.296903e-38
0.52775878 -0.55509591 2.3920002 1.296903e-38
0.58319247 -0.55813336 2.3920002 1.296903e-38
0.65609145 -0.55813336 2.3920002 1.296903e-38
0.7001726 -0.55339545 2.3891423 1.296903e-38
0.73870713 -0.55180091 2.3887992 1.296903e-38
0.78530574 -0.55456764 2.3890364 1.296903e-38
0.82043433 -0.55042577 2.3849993 1.296903e-38
0.86133265 -0.552414 2.3850248 1.296903e-38
0.90053499 -0.53760153 2.38485 1.296903e-38
0.93028647 -0.532579 2.3784242 1.296903e-38
-0.12626742 -0.50778514 2.3760002 1.296903e-38
-0.10216163 -0.49998537 2.3843806 1.296903e-38
-0.063672081 -0.49430579 2.3913324 1.296903e-38
0.90856689 -0.49568683 2.3842158 1.296903e-38
0.92590654 -0.5005759 2.3782854 1.296903e-38
-0.086742848 -0.46690294 2.3759999 1.296903e-38
-0.061154716 -0.45907429 2.3835557 1.296903e-38
-0.029079219 -0.45575309 2.3919992 1.296903e-38
0.91122091 -0.45900592 2.3813329 1.296903e-38
0.92569488 -0.46574652 2.3777776 1.296903e-38
-0.055590481 -0.4279134 2.3764997 1.296903e-38
-0.022088129 -0.41976666 2.3845332 1.296903e-38
0.0022780953 -0.40550098 2.3920002 1.296903e-38
0.90039158 -0.41834769 2.3847265 1.296903e-38
-0.013685396 -0.38121462 2.3813329 1.296903e-38
0.01641045 -0.37394452 2.3907683 1.296903e-38
0.043283813 -0.36449528 2.3920002 1.296903e-38
0.87706673 -0.37132955 2.3920002 1.296903e-38
0.89302558 -0.38183969 2.3801477 1.296903e-38
-0.0072914287 -0.35325715 2.3760002 1.296903e-38
0.021499034 -0.34070423 2.38432 1.296903e-38
0.045941591 -0.33108324 2.3920002 1.296903e-38
0.87706673 -0.33748358 2.3920002 1.296903e-38
0.88436568 -0.34178469 2.3817596 1.296903e-38
0.026887288 -0.30285484 2.3777387 1.296903e-38
0.056672841 -0.29551393 2.3910758 1.296903e-38
0.084289528 -0.28931811 2.3920002 1.296903e-38
0.86716449 -0.29233447 2.3911569 1.296903e-38
0.88107437 -0.30806857 2.3856003 1.296903e-38
0.034181055 -0.26642168 2.3759999 1.296903e-38
0.061519425 -0.25995424 2.3836524 1.296903e-38
0.095680013 -0.25317237 2.3919995 1.296903e-38
0.12073906 -0.2437562 2.3920002 1.296903e-38
0.85931778 -0.25990021 2.385103 1.296903e-38
0.070937157 -0.22568336 2.3784997 1.296903e-38
0.1007265 -0.21940468 2.3846488 1.296903e-38
0.12997964 -0.21574387 2.3914475 1.296903e-38
0.83674246 -0.21332029 2.3828573 1.296903e-38
0.85408515 -0.2249105 2.3793328 1.296903e-38
0.10848402 -0.18608671 2.3759997 1.296903e-38
0.14076862 -0.17994456 2.3792541 1.296903e-38
0.16502668 -0.16730478 2.3900001 1.296903e-38
0.83552003 -0.19753143 2.3840003 1.296903e-38
0.15613715 -0.12445715 2.3760002 1.296903e-38
0.17161016 -0.13788193 2.3860457 1.296903e-38
0.15613715 -0.11540572 2.3760002 1.296903e-38
0.17748514 -0.10060174 2.3814332 1.296903e-38
0.21635744 -0.089027196 2.3912721 1.296903e-38
0.18918855 -0.066034287 2.3759997 1.296903e-38
0.21345946 -0.062499907 2.3813326 1.296903e-38
0.22654009 -0.021969602 2.3811057 1.296903e-38
0.25503823 -0.0077021322 2.3919997 1.296903e-38
0.28020576 -0.0045561907 2.3920002 1.296903e-38
0.22968003 0.0071657146 2.3759999 1.296903e-38
0.26049152 0.01863496 2.3796132 1.296903e-38
0.28234985 0.020502856 2.3920002 1.296903e-38
0.270336 0.057778299 2.3759999 1.296903e-38
0.29785305 0.064779013 2.3828964 1.296903e-38
0.32273018 0.070620961 2.3920002 1.296903e-38
0.69709718 0.068342865 2.3920002 1.296903e-38
0.27606857 0.088251434 2.3760004 1.296903e-38
0.30097982 0.099796616 2.377867 1.296903e-38
0.33063802 0.10439959 2.3919992 1.296903e-38
0.30680725 0.13416065 2.3765514 1.296903e-38
0.34055096 0.13887306 2.3882492 1.296903e-38
0.36677334 0.14217994 2.3920002 1.296903e-38
0.35074291 0.16454206 2.3760004 1.296903e-38
0.37675518 0.17859684 2.3851418 1.296903e-38
0.40777907 0.19363812 2.3920002 1.296903e-38
0.38802111 0.21156044 2.3846152 1.296903e-38
0.40849301 0.22574253 2.3872588 1.296903e-38
0.6856966 0.203807 2.386667 1.296903e-38
0.42590657 0.25788435 2.3837833 1.296903e-38
0.44650668 0.27564955 2.3920002 1.296903e-38
0.50118095 0.27337146 2.3920002 1.296903e-38
0.43114024 0.29339257 2.3796921 1.296903e-38
0.45789686 0.30424404 2.3872933 1.296903e-38
0.50144917 0.30670732 2.3905106 1.296903e-38
0.52624005 0.31665528 2.3920002 1.296903e-38
0.46585336 0.3249467 2.3860002 1.296903e-38
0.50264025 0.32698828 2.3869472 1.296903e-38
0.52832252 0.33248085 2.3911111 1.296903e-38
0.596861 0.33715811 2.3920002 1.296903e-38
0.60597336 0.33715811 2.3920002 1.296903e-38
-0.13536285 -0.61257452 2.4089999 1.296903e-38
-0.098695278 -0.61455309 2.4144516 1.296903e-38
-0.069028936 -0.60843539 2.4153752 1.296903e-38
-0.015784319 -0.60452414 2.4135337 1.296903e-38
0.01376774 -0.60392535 2.4111252 1.296903e-38
0.097656906 -0.60330641 2.4132502 1.296903e-38
-0.12699547 -0.58882177 2.4090002 1.296903e-38
-0.097958378 -0.58174068 2.4138227 1.296903e-38
-0.059934877 -0.58054876 2.4177735 1.296903e-38
-0.024473665 -0.5951454 2.4214227 1.296903e-38
0.023580862 -0.59728444 2.4179046 1.296903e-38
0.060202893 -0.59427822 2.418633 1.296903e-38
0.098693632 -0.59406638 2.4206879 1.296903e-38
0.14247483 -0.57976508 2.4203336 1.296903e-38
0.18118024 -0.58162367 2.4185081 1.296903e-38
0.21986775 -0.5821982 2.4195845 1.296903e-38
0.26108932 -0.58084494 2.4193337 1.296903e-38
