# .PCD v0.7 - Point Cloud Data file format
VERSION 0.7
FIELDS x y z rgb
SIZE 4 4 4 4
TYPE F F F F
COUNT 1 1 1 1
WIDTH 268
HEIGHT 1
VIEWPOINT 0 0 0 1 0 0 0
POINTS 268
DATA ascii
-0.081415437 -0.043337908 0.53970003 9.3302137e-39
-0.064209305 -0.049261317 0.54517543 8.4068141e-39
-0.08555568 -0.02056881 0.53392392 1.419094e-38
-0.070265166 -0.024525821 0.53258425 8.8533266e-39
-0.046451919 -0.051544368 0.58043706 5.4518526e-39
-0.025652258 -0.058278996 0.59226757 9.8700261e-39
-0.0822611 -0.0021640635 0.59786671 1.0584492e-38
-0.057616349 -0.021608887 0.59156358 6.2801461e-39
-0.033341512 -0.035207979 0.59592819 1.0343644e-38
-0.081817426 0.023288736 0.59832257 1.2152167e-38
-0.061698008 0.023448421 0.59655935 1.3537984e-38
-0.039336573 0.01653162 0.59860009 9.2026283e-39
-0.081782691 0.042551991 0.5985294 1.8142363e-38
-0.075578891 0.04238683 0.59794295 1.3346014e-38
-0.08084064 -0.082001917 0.61066669 1.6924488e-38
-0.066955559 -0.082943201 0.60860723 9.0262469e-39
-0.081017151 -0.078102857 0.61200005 2.0280474e-38
-0.064825401 -0.072208129 0.60470605 8.8616391e-39
-0.12193608 -0.0047591836 0.63607138 1.6211664e-38
-0.10699612 -0.0061753928 0.62318063 1.1691915e-38
-0.050071035 -0.0098209996 0.60814899 7.662726e-39
-0.03010837 -0.015383583 0.61684239 1.3369492e-38
-0.1215507 0.016805295 0.62626475 1.334963e-38
-0.10300659 0.020369299 0.61069781 1.1508597e-38
-0.057929497 0.0079528233 0.60996109 9.3077873e-39
-0.029248822 0.010839468 0.6339528 1.6394976e-38
-0.095549293 0.057909694 0.6102863 1.2429111e-38
-0.060927685 0.066950828 0.6209166 1.6296999e-38
-0.033118818 0.06330689 0.63718373 1.6576123e-38
-0.085047774 0.090242438 0.6121819 1.0311128e-38
-0.059096862 0.098453544 0.61505252 1.4363784e-38
-0.035151862 0.097474486 0.63145661 1.9430937e-38
-0.057624988 0.13652523 0.63270336 1.2153969e-38
-0.039008763 0.12188953 0.63800001 1.8235287e-38
-0.057205718 0.16005433 0.63900006 1.0034911e-38
-0.055559311 -0.090920895 0.65597969 1.1987984e-38
-0.0099079963 -0.083912335 0.64957148 1.7885624e-38
0.00087066676 -0.081718288 0.65300006 1.5034429e-38
-0.04897571 -0.075379312 0.65598124 5.912102e-39
-0.0097944019 -0.061294999 0.64976573 8.2115908e-39
0.001962574 -0.071492873 0.6515137 8.5695609e-39
-0.020763457 -0.038250376 0.64615804 1.0712068e-38
-0.12514758 0.0076299226 0.64127916 1.4826925e-38
-0.093094699 0.017836081 0.66785634 1.0498043e-38
-0.049609657 0.033393376 0.64814496 8.9242407e-39
-0.02943345 0.030037945 0.64416939 1.6579363e-38
-0.080225721 0.050374292 0.65300006 6.8001735e-39
-0.061140794 0.051137958 0.64683646 1.0030939e-38
-0.023506621 0.057631973 0.64354175 2.0084959e-38
-0.025635483 0.10030257 0.64990467 1.8975365e-38
-0.080102861 0.15896381 0.65200001 1.0768547e-38
-0.060446549 0.15135296 0.64397657 1.233728e-38
-0.031869158 0.14064287 0.65597892 1.8418587e-38
-0.081392482 0.1856686 0.66188246 8.6523482e-39
-0.059199844 0.17987089 0.64989674 1.003527e-38
-0.031324103 0.18012412 0.66429514 1.7681381e-38
-0.084194385 0.21943174 0.67363387 8.1013226e-39
-0.05953446 0.21988225 0.66163123 8.7452515e-39
-0.031148678 0.21975444 0.66888082 1.5469772e-38
-0.082499608 0.24545358 0.67793554 7.732903e-39
-0.057794601 0.25817901 0.67178297 7.9158509e-39
-0.032454409 0.25711283 0.67495638 1.1785188e-38
0.18683842 0.26723617 0.67064404 9.8490725e-39
0.21972179 0.26210105 0.66526711 1.224508e-38
0.25691736 0.26569441 0.66956609 1.7592425e-38
0.28514904 0.27567554 0.67653453 2.0543771e-38
-0.050780352 0.28170836 0.67900032 7.1786474e-39
-0.03492 0.28065336 0.67900002 8.8367268e-39
0.18081458 0.2898089 0.66825253 8.46758e-39
0.2198319 0.28758544 0.65691954 9.8505144e-39
0.26017138 0.28862113 0.66259474 1.5287531e-38
0.28912023 0.29244581 0.67430288 1.7960843e-38
-0.020390429 0.15332353 0.68282062 1.7325943e-38
-0.01983604 0.19086164 0.68710017 1.519137e-38
-0.090058491 0.23072407 0.68279493 7.364845e-39
-0.017070938 0.22008893 0.68663388 1.6667228e-38
0.18930195 0.23517074 0.71019959 1.1876285e-38
0.21988988 0.23155901 0.70504564 1.3534726e-38
0.2567409 0.23249431 0.70719051 1.7037082e-38
0.28558218 0.23741062 0.71627253 1.9895147e-38
-0.086657107 0.26182017 0.68870264 7.8247371e-39
-0.075492851 0.27247632 0.6826393 7.3641177e-39
-0.014039801 0.26196885 0.69429439 1.3995359e-38
0.0017991918 0.27009994 0.71672738 1.2336185e-38
0.14998965 0.26756871 0.70604658 1.0954691e-38
0.17534147 0.25369501 0.69399422 1.123128e-38
0.21933821 0.24329166 0.68588966 1.3443253e-38
0.26380369 0.24790525 0.68891078 1.8421098e-38
0.29762092 0.26056561 0.69979078 2.1004023e-38
0.32525411 0.27471277 0.71418065 2.0912548e-38
-0.084095284 0.29133654 0.6993469 7.3648436e-39
-0.060592856 0.29659256 0.68877614 6.5343598e-39
-0.018835047 0.2969718 0.69740891 9.388823e-39
0.003197551 0.29586306 0.71753109 9.7568727e-39
0.11931977 0.31755835 0.71899998 8.5583351e-39
0.14048649 0.29671469 0.69988555 9.0200307e-39
0.16198249 0.29141128 0.68095714 8.9278351e-39
0.30934671 0.29291022 0.68750465 1.9251222e-38
0.33733791 0.30011329 0.70380902 1.7961205e-38
0.36086956 0.30061048 0.71900004 1.8147754e-38
-0.0034142856 0.32026002 0.71700001 8.3743138e-39
0.11914857 0.32115334 0.71900004 8.2824713e-39
0.15614374 0.19860871 0.75800008 1.2796809e-38
0.18344611 0.19555157 0.7548908 1.3901354e-38
0.21810873 0.19488853 0.75300831 1.519137e-38
0.24990368 0.19728407 0.75496769 1.7588095e-38
0.066613324 0.23622796 0.75700748 1.1875573e-38
0.087317094 0.23353194 0.75671816 1.2060689e-38
0.14766291 0.22355509 0.74766248 1.1783733e-38
0.17859684 0.21829548 0.73650956 1.2612772e-38
0.21970335 0.21181789 0.73413461 1.4362688e-38
0.25983936 0.21357746 0.73731363 1.7496977e-38
0.29729283 0.22671606 0.74156958 1.9986623e-38
0.32705933 0.23495127 0.75375324 2.0631997e-38
-0.0025834811 0.25435111 0.72148275 1.3810945e-38
0.022854384 0.26594952 0.75081861 9.6632393e-39
0.060061716 0.26026362 0.75119925 9.8487124e-39
0.09352427 0.26049915 0.75400752 9.0193118e-39
0.13604601 0.25756621 0.73703063 1.0401882e-38
0.16334076 0.24333911 0.72286671 1.1691535e-38
0.31137657 0.24678639 0.72833604 2.1279167e-38
0.34086773 0.25977248 0.74089348 1.9805477e-38
0.36814207 0.26804361 0.74956781 1.6302762e-38
-0.0006857143 0.31885716 0.72000003 8.3743054e-39
0.022152193 0.29981685 0.73970503 8.0058816e-39
0.058116317 0.29916504 0.74876386 7.3605122e-39
0.10622925 0.30109626 0.74284798 7.9136831e-39
0.1238924 0.29041749 0.72672242 9.5721255e-39
0.35046056 0.28732044 0.72551507 1.860765e-38
0.36486393 0.28844759 0.73330683 1.6579351e-38
-0.0013714286 0.3209143 0.72000003 8.0977241e-39
0.021711418 0.3249408 0.73657739 6.9920926e-39
0.051848024 0.32705891 0.75054342 5.7020768e-39
0.09911824 0.32638377 0.74318129 7.1775586e-39
0.15412591 0.15781981 0.79593331 1.4361614e-38
0.17962782 0.15688394 0.79531932 1.5467598e-38
0.20916136 0.15826911 0.79607326 1.648103e-38
0.038237147 0.19928986 0.79766673 1.3715531e-38
0.063707128 0.19470754 0.79075336 1.3808803e-38
0.10116012 0.18834282 0.78907782 1.3716965e-38
0.14139341 0.18158926 0.7819314 1.2888284e-38
0.17921294 0.17642742 0.7749213 1.4546005e-38
0.22029659 0.17558807 0.77630913 1.6112609e-38
0.25913918 0.1846797 0.77910614 1.8139831e-38
0.29546341 0.19358556 0.78889358 1.8601887e-38
0.32291636 0.19916461 0.79716671 1.9802221e-38
-0.0055473866 0.2353712 0.79129726 1.1506074e-38
0.023347711 0.22473101 0.77926934 1.1781578e-38
0.058798715 0.21720441 0.77020371 1.2520225e-38
0.10105025 0.21756539 0.76880288 1.2336192e-38
0.1302053 0.21597284 0.77063107 9.8490697e-39
0.2764937 0.20156726 0.76374996 1.9062503e-38
0.30381656 0.20931344 0.77215993 1.9340171e-38
0.33947381 0.22148019 0.77778286 1.9985907e-38
0.37609768 0.23104092 0.78687483 1.9065747e-38
0.40052003 0.23484001 0.79800004 1.8512218e-38
-0.0054434533 0.25029874 0.77333117 1.0674874e-38
0.013875766 0.24923562 0.76399052 1.0214252e-38
0.042415243 0.24160765 0.76000005 1.0769223e-38
0.11127614 0.25956261 0.76384121 6.3488784e-39
0.12301389 0.24812356 0.76432341 7.1782831e-39
0.35415149 0.24364187 0.7616384 1.9158309e-38
0.3756133 0.24954124 0.76782942 1.7776811e-38
0.076379396 0.31535667 0.76260006 4.7815611e-39
0.097193077 0.29970929 0.76403153 4.506772e-39
0.071116477 0.33621892 0.77159899 2.8504975e-39
0.084754787 0.3304233 0.76728004 4.3231025e-39
0.41753921 -0.044515014 0.83837509 3.6827889e-39
0.38949856 -0.0083089201 0.83299971 8.5648273e-39
0.40930498 -0.020004116 0.83219647 1.0496967e-38
0.35657823 0.031831935 0.83586693 1.1414965e-38
0.38111547 0.020437654 0.82484215 9.667212e-39
0.4047243 0.021753069 0.81652552 9.3023993e-39
0.34987327 0.062976845 0.82772845 1.0127103e-38
0.37890622 0.059742343 0.81355178 1.1417488e-38
0.40412328 0.06021044 0.81351328 1.0956149e-38
0.34651443 0.10005974 0.82423365 7.4570336e-39
0.3802273 0.10104421 0.81010443 8.1949672e-39
0.40262115 0.095211044 0.80924332 9.3909936e-39
0.10594039 0.15111028 0.82774776 1.3901715e-38
0.14071524 0.14408137 0.82022536 1.4546364e-38
0.17889757 0.14083385 0.81873965 1.6021127e-38
0.2186055 0.14891107 0.81919777 1.6205159e-38
0.25393838 0.15540867 0.82837611 1.5651983e-38
0.35072878 0.13097388 0.82638609 6.5354332e-39
0.37967828 0.13867103 0.81234598 5.8925946e-39
0.40325961 0.143198 0.81071222 8.8446666e-39
0.03442312 0.1961918 0.81339353 1.3717683e-38
0.062622361 0.18170094 0.81839037 1.4085746e-38
0.097086258 0.16923241 0.81133455 1.380916e-38
0.12930776 0.16358319 0.80257165 1.3809162e-38
0.23546627 0.16119657 0.80271429 1.6665417e-38
0.26399693 0.16675366 0.81195998 1.6758333e-38
0.30052921 0.17650439 0.81893075 1.6759773e-38
0.33651802 0.18900509 0.82600558 1.9157582e-38
0.37217331 0.18898873 0.83381933 1.8145586e-38
-0.0025929527 0.22774649 0.80140013 1.2245085e-38
0.016744915 0.21165606 0.80863827 1.2980844e-38
0.34891868 0.20590095 0.81057918 1.9617839e-38
0.38148528 0.21256644 0.81731671 1.87888e-38
0.40744564 0.2171572 0.82391006 1.7682814e-38
0.067275383 0.35600847 0.80142868 1.6551969e-39
0.35872573 -0.040973332 0.87800002 3.0388516e-39
0.38476306 -0.054031383 0.86386728 3.5001955e-39
0.41084889 -0.057905637 0.84935147 3.5927541e-39
0.35245398 -0.0154875 0.8721953 3.592394e-39
0.37592822 -0.022792155 0.85390955 5.5256141e-39
0.40536907 -0.035552308 0.84501874 7.2726367e-39
0.34567747 0.021774031 0.85935479 9.0221999e-39
0.36318386 0.0067498535 0.84429824 1.0126744e-38
0.31881985 0.077992767 0.87680006 1.1507518e-38
0.33153784 0.058482882 0.85744083 1.0127459e-38
0.14796458 0.11711232 0.86042559 1.4731119e-38
0.17290339 0.11706662 0.85666662 1.5100623e-38
0.31494674 0.10453065 0.87174594 1.1599701e-38
0.32715559 0.099180698 0.85252506 9.2058625e-39
0.07588286 0.15730813 0.85710526 1.3902073e-38
0.10015603 0.14102767 0.85519338 1.417866e-38
0.13683237 0.12546413 0.85034776 1.4824028e-38
0.1822384 0.12390935 0.84846616 1.5837095e-38
0.2154783 0.13705663 0.84760797 1.5284642e-38
0.26417342 0.14926207 0.86175686 1.3441811e-38
0.30303729 0.14311604 0.86328143 1.1968839e-38
0.33571973 0.1424301 0.85144877 9.75723e-39
0.36509791 0.15662444 0.84969246 8.8352807e-39
0.038683813 0.19181049 0.84625 1.436629e-38
0.061572738 0.17165479 0.84916061 1.3994272e-38
0.30694997 0.16274676 0.84497076 1.3810591e-38
0.34423992 0.17216854 0.848795 1.5931812e-38
0.37861842 0.18091495 0.85761648 1.8051951e-38
0.41062117 0.19545284 0.8692354 1.7221476e-38
0.39765665 0.20208645 0.84388894 1.887992e-38
0.41950274 0.2048789 0.85493034 1.7314395e-38
0.44083336 0.20416668 0.87500006 1.7315827e-38
0.37643474 -0.084280737 0.91505897 3.8679257e-39
0.34947896 -0.047172304 0.89388376 3.2239688e-39
0.36929885 -0.063352019 0.8916654 3.3168847e-39
0.31772596 -0.0044155782 0.90235716 1.0765991e-38
0.33639225 -0.020410346 0.89491439 5.3397837e-39
0.31468293 0.02227384 0.89865172 1.1322403e-38
0.32997546 0.015474563 0.88992488 1.0677394e-38
0.31435275 0.060875736 0.89859617 1.1417116e-38
0.32129377 0.056468792 0.88268566 1.1323118e-38
0.30440989 0.10118894 0.89721036 1.2061399e-38
0.10890456 0.13074923 0.88223082 1.4175441e-38
0.23291615 0.13828604 0.90923595 1.3351057e-38
0.26053321 0.13706596 0.89694321 1.3442893e-38
0.29012835 0.12864256 0.89264905 1.2613848e-38
0.39641905 0.18186668 0.88000005 1.9527792e-38
0.42378142 0.19113499 0.89861476 1.7221835e-38
0.45078087 0.19631997 0.90780532 1.5747787e-38
0.43683758 0.20185155 0.88188893 1.6853418e-38
0.4442248 0.2019031 0.88612503 1.6853774e-38
0.38068193 -0.089469522 0.921 1.1060641e-38
0.34077421 -0.04454831 0.93285728 4.3285199e-39
0.33128113 -0.033442721 0.92057151 3.9597374e-39
0.31216294 0.028824165 0.92950004 6.4475676e-39
0.30907354 0.062487114 0.92633772 8.3822311e-39
0.27926195 0.11892857 0.92500007 1.2427655e-38
0.29690096 0.10104924 0.92567718 1.150967e-38
0.2249341 0.1315594 0.92316043 1.344254e-38
0.25968266 0.12704496 0.92359984 1.3073045e-38
0.28310966 0.1206879 0.92114288 1.2337624e-38
0.43689924 0.19030476 0.92583346 1.6298096e-38
0.44712263 0.19291352 0.92185199 1.5655241e-38
0.14940087 0.16287115 0.74471021 1.3076282e-38
0.057099834 0.22952321 0.69673783 1.206357e-38
0.25491583 0.17023022 0.8133918 1.3442171e-38
