# .PCD v0.7 - Point Cloud Data file format
VERSION 0.7
FIELDS x y z rgb
SIZE 4 4 4 4
TYPE F F F F
COUNT 1 1 1 1
WIDTH 176
HEIGHT 1
VIEWPOINT 0 0 0 1 0 0 0
POINTS 176
DATA ascii
0.18705185 0.19365555 0.50924534 1.0310401e-38
0.21806432 0.18527938 0.49075899 9.6671952e-39
-0.30478382 0.23060721 0.51489604 9.7684096e-39
0.15390892 0.224519 0.51750493 8.8352765e-39
0.17918786 0.21417755 0.5091604 8.1909861e-39
0.218922 0.21275304 0.49876961 8.654132e-39
0.24271522 0.22113252 0.50416124 1.4093317e-38
-0.29650974 0.14023173 0.53683907 1.2624686e-38
-0.32076332 0.18078046 0.52981818 1.0876924e-38
-0.29650354 0.18353884 0.53181016 9.8602535e-39
-0.26492721 0.19191468 0.5490194 1.0596019e-38
0.16592318 0.1976653 0.5231213 1.0311114e-38
-0.32794952 0.20396774 0.53944451 8.9411684e-39
-0.29625118 0.21677165 0.53362107 8.3854835e-39
-0.26936856 0.21405269 0.54541087 8.6617117e-39
0.07524839 0.23702352 0.55254638 9.2951771e-39
0.10232943 0.22886683 0.54450631 9.4802858e-39
0.13844971 0.21875678 0.53022689 9.4810032e-39
0.16183653 0.2072736 0.52327108 9.7572258e-39
0.065819286 0.24368915 0.55270195 8.9274735e-39
0.086957656 0.24115287 0.54175609 8.4668569e-39
-0.24476054 0.19578053 0.56278479 1.2254823e-38
-0.23428313 0.1978396 0.56854773 1.2347739e-38
-0.25406325 0.22159888 0.56697923 8.3854835e-39
-0.22335754 0.22191183 0.58096468 9.3989208e-39
-0.19926003 0.23337875 0.59666669 1.1890017e-38
0.036135934 0.23789948 0.59389108 9.9405451e-39
0.061594218 0.23286946 0.58126879 1.0125652e-38
0.085860468 0.22668757 0.57497686 1.0310402e-38
-0.26599064 0.24071744 0.57290918 1.2627542e-38
-0.21910504 0.2423498 0.59210122 8.2011021e-39
0.025176294 0.25138739 0.58639991 9.3880929e-39
0.048755281 0.24482983 0.56768656 9.57248e-39
-0.20483117 0.2363117 0.59999996 8.6527322e-39
0.028685423 0.23480937 0.62552226 9.848711e-39
0.059743926 0.22837193 0.62861001 1.0953251e-38
0.099053703 0.22922128 0.63264835 1.2795007e-38
0.12541232 0.23530443 0.63731802 1.3993554e-38
-0.0079176733 0.26317701 0.62229496 9.0225558e-39
0.010461414 0.24895503 0.61496854 9.2044234e-39
0.10893714 0.24239714 0.62847728 1.076959e-38
0.13038233 0.24408226 0.635566 1.1691902e-38
0.073693022 0.19609155 0.67311209 1.2519499e-38
0.10140824 0.19212849 0.66821116 1.3808437e-38
0.13796829 0.19117077 0.67028183 1.6204443e-38
0.16489759 0.19558263 0.67615002 1.9246536e-38
0.027828462 0.22743115 0.65667683 1.1324561e-38
0.060368378 0.21300703 0.65699142 1.1782654e-38
0.10040583 0.21004428 0.64833933 1.334746e-38
0.14041921 0.21824583 0.65136462 1.6021855e-38
0.17368616 0.22257867 0.66746199 1.6390631e-38
0.22156984 0.2278623 0.66823053 1.1323467e-38
0.25801328 0.22328559 0.66627651 1.2890438e-38
0.29277685 0.22461452 0.67254323 1.3628363e-38
-0.0015857144 0.24489124 0.64060009 8.4758476e-39
0.0040304125 0.24239732 0.64153343 1.0589876e-38
0.15008475 0.243549 0.64604986 1.2982637e-38
0.18524715 0.24743487 0.66934299 9.8494228e-39
0.21129628 0.24306402 0.65858412 1.0494431e-38
0.11074864 0.15680948 0.71476567 1.3808078e-38
0.14077641 0.15308127 0.71231359 1.4638194e-38
0.17703952 0.15471061 0.71439862 1.6020405e-38
0.20439965 0.15796927 0.71778268 1.6665416e-38
0.067070983 0.18884714 0.69906473 1.298048e-38
0.099751234 0.17403281 0.69749165 1.3900991e-38
0.14049152 0.17165573 0.69264299 1.5375397e-38
0.18091241 0.17893083 0.69765633 1.5467234e-38
0.21910316 0.18156403 0.70199686 1.5099535e-38
0.25765324 0.18838589 0.70583296 1.6943087e-38
0.28840479 0.19484559 0.71176541 1.8695163e-38
0.033933025 0.21871544 0.69552821 1.1877378e-38
0.047447953 0.20619299 0.69306189 1.224436e-38
0.18942718 0.21761751 0.68669176 1.0398994e-38
0.21749389 0.20796929 0.68434459 1.2428018e-38
0.26088798 0.20677783 0.68732941 1.5376842e-38
0.30021098 0.21206537 0.69662011 1.8051591e-38
0.3263565 0.21982102 0.70803982 1.6670099e-38
0.18207465 0.24266227 0.68056536 6.8048259e-39
0.1523219 0.11911429 0.75800002 1.4452723e-38
0.17654595 0.11849131 0.75710243 1.5098809e-38
0.10473904 0.14730787 0.73884922 1.3808799e-38
0.14018056 0.13458 0.73704886 1.4453444e-38
0.1804076 0.13489802 0.73605394 1.6112958e-38
0.21793139 0.14438143 0.73883092 1.7771397e-38
0.25283408 0.15467906 0.74877226 1.7678846e-38
0.068321481 0.17815134 0.72921866 1.3073759e-38
0.085723862 0.16391115 0.72895104 1.3532573e-38
0.23147684 0.16316104 0.72262329 1.7587728e-38
0.26299053 0.16935365 0.73233598 1.7679212e-38
0.29869005 0.18350975 0.73835063 1.8878835e-38
0.32875031 0.19493544 0.74950534 1.9894429e-38
0.039085716 0.20777144 0.72000003 1.1974987e-38
0.042951431 0.20511001 0.72150004 1.3076634e-38
0.31508064 0.20306545 0.72371882 2.0354681e-38
0.34231544 0.21299222 0.73642439 1.8512215e-38
0.36829108 0.21947859 0.75470442 1.5931103e-38
0.38988242 -0.045984767 0.79584086 1.1785904e-38
0.35490078 -0.024419883 0.78442866 5.1579148e-39
0.37959701 -0.018992016 0.79103005 6.6305211e-39
0.35246813 0.025203152 0.79239702 1.1415682e-38
0.37517619 0.019221617 0.78495544 1.0218581e-38
0.34570116 0.060675528 0.78802848 8.1945972e-39
0.37263301 0.060069606 0.77542335 8.3775522e-39
0.14740017 0.1153658 0.77682215 1.399391e-38
0.18002486 0.11081478 0.77409756 1.4823309e-38
0.21227524 0.11487389 0.77959239 1.5468309e-38
0.34958139 0.097067304 0.78811353 5.2475825e-39
0.37220243 0.10045693 0.77275509 5.5248939e-39
0.11315687 0.13200653 0.76603347 1.4086825e-38
0.129555 0.12349435 0.76780224 1.4177941e-38
0.22532283 0.12750715 0.76712227 1.7033828e-38
0.26135096 0.14505322 0.77679467 1.6481019e-38
0.2953878 0.15447761 0.78714377 1.6021481e-38
0.3459366 0.13436268 0.79604775 9.8512277e-39
0.37732774 0.12708227 0.78966475 7.3655624e-39
0.30579302 0.16811571 0.77148938 1.7773562e-38
0.33830857 0.18045345 0.7795192 1.980295e-38
0.370024 0.19416182 0.79244184 2.0632354e-38
0.354516 0.20239119 0.76217413 2.1000417e-38
0.38054511 0.2087639 0.77991664 1.8788083e-38
0.4000181 0.20266572 0.79700005 1.860442e-38
0.38860369 -0.090533309 0.82412213 3.6849497e-39
0.40294299 -0.097341388 0.81444305 4.5154335e-39
0.35584754 -0.048111163 0.8323921 7.0907776e-39
0.37866363 -0.061300818 0.81584865 8.7470522e-39
0.40157795 -0.069939114 0.80499995 6.9971415e-39
0.347473 -0.017365422 0.82169259 9.6679238e-39
0.36502618 -0.022098035 0.80737901 7.735061e-39
0.3361246 0.019378126 0.81661469 1.0956143e-38
0.31918672 0.062279969 0.83517677 9.2080247e-39
0.3265847 0.058941748 0.81539625 9.4831739e-39
0.14459658 0.11229422 0.80557889 1.5286473e-38
0.3164832 0.11231155 0.83721852 1.0770657e-38
0.33064616 0.10120089 0.82020062 7.9158425e-39
0.23872414 0.12109175 0.83833337 1.2981558e-38
0.26287416 0.12992556 0.8237502 1.3533644e-38
0.30200899 0.13642251 0.82252967 1.2521291e-38
0.33965516 0.13929789 0.81857097 1.2061038e-38
0.37559554 0.14672074 0.82166195 1.5102054e-38
0.40158918 0.15420569 0.83382362 2.0723827e-38
0.35014895 0.16644061 0.80644172 1.9526363e-38
0.38162205 0.17840619 0.81595707 2.09093e-38
0.40732443 0.18696813 0.82532269 2.0171015e-38
0.39647004 0.20099111 0.80244452 1.8789526e-38
0.40231597 0.20125167 0.80425 1.9066825e-38
0.35778701 -0.082893848 0.86178952 3.3154497e-39
0.37109309 -0.093035497 0.84989953 3.7767838e-39
0.3478255 -0.057945698 0.85821313 3.4079999e-39
0.36486533 -0.074239798 0.84693331 4.3292275e-39
0.33603704 -0.022397215 0.85826766 5.5252582e-39
0.3184967 0.032419782 0.86719221 1.178374e-38
0.32410687 0.018275168 0.85456163 1.0404773e-38
0.31639105 0.062768959 0.85793269 1.0681348e-38
0.32010001 0.041571431 0.87300003 1.1695142e-38
0.22708006 0.11043831 0.85268939 1.3535096e-38
0.26046064 0.11222581 0.85852003 1.2798605e-38
0.30423391 0.10239689 0.8560009 1.1600057e-38
0.32034001 0.085905723 0.84300005 9.2051408e-39
0.26289579 0.12158974 0.84203446 1.2890077e-38
0.29286119 0.12251886 0.84270716 1.1969194e-38
0.42072174 0.1781866 0.8555041 2.0078455e-38
0.4406724 0.17978096 0.87800002 1.8604759e-38
0.33665848 -0.056636143 0.88719517 3.6838693e-39
0.31820261 -0.0069317571 0.90613818 1.2137061e-38
0.3275989 -0.018440386 0.8907665 9.3891818e-39
0.31547973 0.019029099 0.89102376 1.242947e-38
0.32600555 0.0098352861 0.89130092 1.1322403e-38
0.31443906 0.059116196 0.88815165 1.1695142e-38
0.32081273 0.042861905 0.88912505 1.1786261e-38
0.27646762 0.10289539 0.88042867 1.2613862e-38
0.29697812 0.094326809 0.88679391 1.1969924e-38
0.43667448 0.17597161 0.88476932 1.9432362e-38
0.45366225 0.1779488 0.90748906 1.768137e-38
0.46201971 0.17551316 0.92078573 1.6392806e-38
-0.06554883 0.22659294 0.59117901 1.3079519e-38
0.027474709 0.16911049 0.83437681 1.5198939e-38
