# .PCD v0.7 - Point Cloud Data file format
VERSION 0.7
FIELDS x y z rgb
SIZE 4 4 4 4
TYPE F F F F
COUNT 1 1 1 1
WIDTH 1031
HEIGHT 1
VIEWPOINT 0 0 0 1 0 0 0
POINTS 1031
DATA ascii
0.3766419 -0.29844245 2.6175714 1.4976798e-39
0.78995782 -0.29279605 2.6186006 1.4976798e-39
0.80487573 -0.31149763 2.6164999 1.4976798e-39
0.38359216 -0.25809342 2.6148543 1.4976798e-39
0.42063999 -0.25038099 2.6290007 1.4976798e-39
0.4431743 -0.24286954 2.6290002 1.4976798e-39
0.7586543 -0.26540384 2.6290002 1.4976798e-39
0.78148019 -0.26148948 2.6227775 1.4976798e-39
0.38601512 -0.23020594 2.6090007 1.4976798e-39
0.42036614 -0.21998088 2.6142454 1.4976798e-39
0.45018381 -0.21687824 2.6237373 1.4976798e-39
0.7586543 -0.2053124 2.6290002 1.4976798e-39
0.77406383 -0.21718141 2.6230004 1.4976798e-39
0.39507717 -0.19629622 2.6090002 1.4976798e-39
0.41925585 -0.18234338 2.6090007 1.4976798e-39
0.45855406 -0.17603764 2.6226842 1.4976798e-39
0.49137262 -0.16712929 2.6289999 1.4976798e-39
0.75443751 -0.17800829 2.6218579 1.4976798e-39
0.76665413 -0.19337833 2.6115003 1.4976798e-39
0.4248943 -0.15654002 2.6090002 1.4976798e-39
0.47123632 -0.14459078 2.6105392 1.4976798e-39
0.49877328 -0.13895811 2.620667 1.4976798e-39
0.73948526 -0.13949053 2.6153164 1.4976798e-39
0.50615627 -0.10212338 2.6151118 1.4976798e-39
0.53314245 -0.091362879 2.6281674 1.4976798e-39
0.71608961 -0.082625717 2.6290002 1.4976798e-39
0.7344476 -0.10126991 2.6192861 1.4976798e-39
0.51434577 -0.068999931 2.6090007 1.4976798e-39
0.53921628 -0.057970032 2.6216087 1.4976798e-39
0.56736326 -0.045569338 2.6290002 1.4976798e-39
0.71396929 -0.057648644 2.6234829 1.4976798e-39
0.72552085 -0.070655562 2.6178892 1.4976798e-39
0.54728085 -0.023905776 2.6143341 1.4976798e-39
0.57303905 -0.016810615 2.6282861 1.4976798e-39
0.70597851 -0.018058864 2.6190004 1.4976798e-39
0.72306573 -0.027332382 2.6090002 1.4976798e-39
0.5556311 0.017011065 2.6090007 1.4976798e-39
0.57750314 0.023498604 2.6237059 1.4976798e-39
0.61568809 0.031557027 2.6252503 1.4976798e-39
0.67853242 0.0025038098 2.6290002 1.4976798e-39
0.68987805 0.018501734 2.6162734 1.4976798e-39
0.58640391 0.042240955 2.6090002 1.4976798e-39
0.61907381 0.060024112 2.6190004 1.4976798e-39
0.67728049 0.073862389 2.6290002 1.4976798e-39
0.68728566 0.058629815 2.6178894 1.4976798e-39
0.62380427 0.097498871 2.6218572 1.4976798e-39
0.66235924 0.10076381 2.6258411 1.4976798e-39
0.68475407 0.096549325 2.6145561 1.4976798e-39
0.62793487 0.12601295 2.6090002 1.4976798e-39
0.66231108 0.13378903 2.6112864 1.4976798e-39
0.68330956 0.12175334 2.6090002 1.4976798e-39
0.30886981 -0.48402822 2.6490002 1.4976798e-39
0.34044737 -0.48659399 2.6580327 1.4976798e-39
0.37815273 -0.48292217 2.6530006 1.4976798e-39
0.41775346 -0.48360115 2.6600006 1.4976798e-39
0.46024126 -0.48186582 2.6490002 1.4976798e-39
0.48186576 -0.48186576 2.6490002 1.4976798e-39
0.65089715 -0.48186576 2.6490002 1.4976798e-39
0.71396863 -0.48186576 2.6490002 1.4976798e-39
0.7354129 -0.48186576 2.6490002 1.4976798e-39
0.31015936 -0.46386164 2.6535459 1.4976798e-39
0.33978587 -0.45972714 2.6647902 1.4976798e-39
0.37968284 -0.46358079 2.6666925 1.4976798e-39
0.42398328 -0.46588892 2.6658747 1.4976798e-39
0.45913473 -0.46167114 2.6588259 1.4976798e-39
0.49845576 -0.46143872 2.6597948 1.4976798e-39
0.53918839 -0.4583303 2.6590004 1.4976798e-39
0.58065861 -0.46089819 2.6597698 1.4976798e-39
0.62127215 -0.45882681 2.6586304 1.4976798e-39
0.66085649 -0.46039653 2.659647 1.4976798e-39
0.70055455 -0.46052468 2.6580327 1.4976798e-39
0.7411651 -0.46192837 2.6607468 1.4976798e-39
0.78007829 -0.46128073 2.6578536 1.4976798e-39
0.81753999 -0.45575643 2.6561706 1.4976798e-39
0.84484178 -0.45411429 2.6490006 1.4976798e-39
0.3452397 -0.42029086 2.6587782 1.4976798e-39
0.36955386 -0.42058757 2.6689997 1.4976798e-39
0.43974954 -0.43974954 2.6690001 1.4976798e-39
0.46347398 -0.43974957 2.6690001 1.4976798e-39
0.49058762 -0.43974954 2.6690001 1.4976798e-39
0.5373587 -0.43669924 2.6690004 1.4976798e-39
0.59734762 -0.43974954 2.6690001 1.4976798e-39
0.60751528 -0.43974957 2.6690001 1.4976798e-39
0.67106289 -0.43847859 2.6690001 1.4976798e-39
0.70156574 -0.43720761 2.6689999 1.4976798e-39
0.73588151 -0.43636033 2.6690004 1.4976798e-39
0.7960698 -0.41635391 2.663286 1.4976798e-39
0.81272906 -0.42428502 2.6544175 1.4976798e-39
0.84179342 -0.43477243 2.6490002 1.4976798e-39
0.34689289 -0.39104289 2.6490002 1.4976798e-39
0.38069841 -0.38046995 2.6613402 1.4976798e-39
0.41899061 -0.3689999 2.6690004 1.4976798e-39
0.44483337 -0.37027082 2.6690001 1.4976798e-39
0.78556734 -0.3768532 2.6587782 1.4976798e-39
0.80595058 -0.39539719 2.6556671 1.4976798e-39
0.38935375 -0.34440738 2.6559236 1.4976798e-39
0.4192661 -0.33907679 2.6674311 1.4976798e-39
0.45921332 -0.33386114 2.6689994 1.4976798e-39
0.48042002 -0.34315717 2.6690001 1.4976798e-39
0.75494576 -0.32790571 2.6690001 1.4976798e-39
0.77729547 -0.3374837 2.6561892 1.4976798e-39
0.3960886 -0.31535718 2.6490002 1.4976798e-39
0.42106205 -0.29890364 2.6596465 1.4976798e-39
0.45869604 -0.29903489 2.6607866 1.4976798e-39
0.4867748 -0.29104811 2.6689999 1.4976798e-39
0.75169206 -0.2961916 2.6635454 1.4976798e-39
0.77655238 -0.30313802 2.6527748 1.4976798e-39
0.41922927 -0.26576999 2.6490014 1.4976798e-39
0.45921019 -0.26112416 2.657511 1.4976798e-39
0.49504891 -0.25756243 2.6689994 1.4976798e-39
0.52109051 -0.24656478 2.6690001 1.4976798e-39
0.75055206 -0.25897464 2.656369 1.4976798e-39
0.7701022 -0.25859287 2.6490006 1.4976798e-39
0.46807408 -0.22402978 2.6490014 1.4976798e-39
0.49889654 -0.21942899 2.6599438 1.4976798e-39
0.53577709 -0.20645913 2.6689999 1.4976798e-39
0.71935904 -0.20843619 2.6690001 1.4976798e-39
0.74317342 -0.21904223 2.6582079 1.4976798e-39
0.76978678 -0.22894931 2.6490006 1.4976798e-39
0.46862072 -0.18921432 2.6490006 1.4976798e-39
0.50018108 -0.18267424 2.6527219 1.4976798e-39
0.53997678 -0.18015121 2.6668184 1.4976798e-39
0.56303191 -0.17030762 2.6690004 1.4976798e-39
0.71822923 -0.17482658 2.6690004 1.4976798e-39
0.73811007 -0.18118764 2.6590014 1.4976798e-39
0.51718581 -0.15389429 2.6490002 1.4976798e-39
0.53870684 -0.14116853 2.6531522 1.4976798e-39
0.57712299 -0.13836801 2.6689992 1.4976798e-39
0.60243148 -0.12963715 2.6690001 1.4976798e-39
0.70986801 -0.13645598 2.6611052 1.4976798e-39
0.73141849 -0.14464381 2.6490011 1.4976798e-39
0.5455808 -0.106999 2.649668 1.4976798e-39
0.58124852 -0.10217977 2.6683106 1.4976798e-39
0.61472708 -0.099252477 2.6689992 1.4976798e-39
0.70389372 -0.10160702 2.6597948 1.4976798e-39
0.72730374 -0.1055996 2.6490006 1.4976798e-39
0.55502856 -0.075685717 2.6490002 1.4976798e-39
0.58081508 -0.061794318 2.6508884 1.4976798e-39
0.61871827 -0.060572162 2.6666925 1.4976798e-39
0.66547072 -0.048974026 2.6690001 1.4976798e-39
0.69695419 -0.060870416 2.6570005 1.4976798e-39
0.5887602 -0.024200745 2.6490014 1.4976798e-39
0.62022829 -0.019951118 2.6591825 1.4976798e-39
0.66097444 -0.019868452 2.6665769 1.4976798e-39
0.69345421 -0.024611754 2.658231 1.4976798e-39
0.59110558 0.016398573 2.6490009 1.4976798e-39
0.62133008 0.015138054 2.6499538 1.4976798e-39
0.66142237 0.019742342 2.6535478 1.4976798e-39
0.68520808 0.024724001 2.6490002 1.4976798e-39
0.6347509 0.060044002 2.6490002 1.4976798e-39
0.66098863 0.059978895 2.6490016 1.4976798e-39
0.68453526 0.052980006 2.6490002 1.4976798e-39
0.66956633 0.086281717 2.6490002 1.4976798e-39
0.3874169 -0.44662538 2.6900003 1.4976798e-39
0.42065313 -0.45284429 2.6910775 1.4976798e-39
0.45744306 -0.44377953 2.6935003 1.4976798e-39
0.49970347 -0.44367653 2.6957276 1.4976798e-39
0.53690207 -0.44394153 2.6900003 1.4976798e-39
0.57545286 -0.44500622 2.6962996 1.4976798e-39
0.63273233 -0.44345468 2.6960003 1.4976798e-39
0.65453571 -0.44278359 2.6952503 1.4976798e-39
0.75576186 -0.44320953 2.6900001 1.4976798e-39
0.7799651 -0.44435626 2.6970003 1.4976798e-39
0.39014155 -0.42234832 2.6900001 1.4976798e-39
0.41704974 -0.42120558 2.6998575 1.4976798e-39
0.4600243 -0.42229545 2.7035251 1.4976798e-39
0.49874929 -0.43072054 2.7069612 1.4976798e-39
0.53531247 -0.43395972 2.7051663 1.4976798e-39
0.5824883 -0.43500814 2.7063329 1.4976798e-39
0.61478543 -0.43544093 2.703588 1.4976798e-39
0.66375691 -0.43389615 2.700043 1.4976798e-39
0.6999386 -0.42837122 2.6996918 1.4976798e-39
0.73747629 -0.42820716 2.7004995 1.4976798e-39
0.78415251 -0.42238867 2.7017596 1.4976798e-39
0.39709523 -0.38428569 2.6900001 1.4976798e-39
0.42382818 -0.38317189 2.690001 1.4976798e-39
0.46167141 -0.38012919 2.6936529 1.4976798e-39
0.48599392 -0.37914285 2.7110002 1.4976798e-39
0.75511521 -0.37337324 2.7083752 1.4976798e-39
0.76956689 -0.38188195 2.6976366 1.4976798e-39
0.43482518 -0.34632292 2.6900005 1.4976798e-39
0.46472958 -0.35200575 2.6900001 1.4976798e-39
0.49845266 -0.33883831 2.7029996 1.4976798e-39
0.74906093 -0.33751506 2.7039998 1.4976798e-39
0.76324922 -0.34958193 2.6923337 1.4976798e-39
0.5058462 -0.30400461 2.7001815 1.4976798e-39
0.53616124 -0.29470131 2.7052062 1.4976798e-39
0.71518767 -0.28142765 2.7110002 1.4976798e-39
0.73728919 -0.29818633 2.7016664 1.4976798e-39
0.51266557 -0.27013865 2.6900003 1.4976798e-39
0.53803742 -0.26249903 2.6930006 1.4976798e-39
0.56543714 -0.25360042 2.7109997 1.4976798e-39
0.71389669 -0.26077241 2.7110002 1.4976798e-39
0.73347551 -0.26062298 2.7013078 1.4976798e-39
0.51494282 -0.22800952 2.6900001 1.4976798e-39
0.54013467 -0.22509098 2.6905532 1.4976798e-39
0.57461494 -0.21569619 2.7046998 1.4976798e-39
0.60674763 -0.20655239 2.7110002 1.4976798e-39
0.71632946 -0.21548095 2.6998 1.4976798e-39
0.72714263 -0.22908852 2.6991873 1.4976798e-39
0.58369654 -0.18024918 2.6987069 1.4976798e-39
0.60857016 -0.17632893 2.7109997 1.4976798e-39
0.71050334 -0.17873749 2.7018459 1.4976798e-39
0.72190738 -0.18456319 2.7040002 1.4976798e-39
0.5943619 -0.15371428 2.6900001 1.4976798e-39
0.61842239 -0.13811381 2.6970003 1.4976798e-39
0.66576266 -0.13167715 2.7109995 1.4976798e-39
0.69402343 -0.14270185 2.701 1.4976798e-39
0.63535237 -0.10439762 2.6900003 1.4976798e-39
0.66337186 -0.10043544 2.7038682 1.4976798e-39
0.68648368 -0.10010488 2.6949408 1.4976798e-39
0.6379143 -0.066609524 2.6900001 1.4976798e-39
0.66165698 -0.06523256 2.6912866 1.4976798e-39
0.68573654 -0.073441267 2.6900003 1.4976798e-39
0.64303809 -0.038428575 2.6900001 1.4976798e-39
0.43988284 -0.42426571 2.733 1.4976798e-39
0.45029432 -0.42114231 2.733 1.4976798e-39
0.50178862 -0.41652748 2.7330012 1.4976798e-39
0.54193336 -0.41554856 2.7450559 1.4976798e-39
0.5798136 -0.41732666 2.743938 1.4976798e-39
0.61789739 -0.41931468 2.7448127 1.4976798e-39
0.66136146 -0.41967711 2.7426598 1.4976798e-39
0.70023608 -0.41183886 2.7440255 1.4976798e-39
0.73817289 -0.41207093 2.7355618 1.4976798e-39
0.77200735 -0.41739416 2.7330008 1.4976798e-39
0.50725973 -0.38128141 2.733001 1.4976798e-39
0.54031444 -0.37902242 2.7461252 1.4976798e-39
0.56916004 -0.37664232 2.7539999 1.4976798e-39
0.60588002 -0.3960515 2.7540004 1.4976798e-39
0.67407435 -0.39605147 2.7540002 1.4976798e-39
0.70692903 -0.38749266 2.7540007 1.4976798e-39
0.73813468 -0.38070327 2.7396827 1.4976798e-39
0.76263714 -0.38782573 2.733 1.4976798e-39
0.5179686 -0.33837143 2.733 1.4976798e-39
0.5415684 -0.33869848 2.7369838 1.4976798e-39
0.5796352 -0.3405565 2.7518566 1.4976798e-39
0.60535544 -0.32890633 2.7539999 1.4976798e-39
0.71280605 -0.33457583 2.7516673 1.4976798e-39
0.73223364 -0.34125602 2.7378135 1.4976798e-39
0.54994655 -0.30936819 2.7330005 1.4976798e-39
0.57944524 -0.30015856 2.7405005 1.4976798e-39
0.61534786 -0.29280043 2.7539995 1.4976798e-39
0.66151649 -0.28891167 2.7539999 1.4976798e-39
0.70377403 -0.29716599 2.7484283 1.4976798e-39
0.72674519 -0.30261645 2.7330008 1.4976798e-39
0.58534533 -0.26214486 2.733001 1.4976798e-39
0.62101269 -0.25990245 2.753159 1.4976798e-39
0.65932071 -0.26474473 2.7539999 1.4976798e-39
0.69992399 -0.25955725 2.7422111 1.4976798e-39
0.72359431 -0.24987429 2.733 1.4976798e-39
0.59047669 -0.22867961 2.7330005 1.4976798e-39
0.62154347 -0.22073409 2.7393007 1.4976798e-39
0.66193712 -0.2209405 2.7529492 1.4976798e-39
0.69859004 -0.21967119 2.7394364 1.4976798e-39
0.62680054 -0.18268804 2.733001 1.4976798e-39
0.66346109 -0.18006192 2.7440727 1.4976798e-39
0.69349921 -0.18143347 2.7336574 1.4976798e-39
0.63639861 -0.15487 2.733 1.4976798e-39
0.65999115 -0.1467611 2.7330012 1.4976798e-39
0.68455142 -0.15877429 2.733 1.4976798e-39
0.57920289 -0.40464863 2.7770002 1.4976798e-39
0.63121653 -0.40817496 2.7770002 1.4976798e-39
0.65431607 -0.40620676 2.7839477 1.4976798e-39
0.68499339 -0.4046486 2.7770002 1.4976798e-39
0.58506936 -0.38586167 2.7825005 1.4976798e-39
0.61919671 -0.38085404 2.7875772 1.4976798e-39
0.66046822 -0.38388443 2.7954004 1.4976798e-39
0.70096469 -0.37924165 2.7882454 1.4976798e-39
0.62109405 -0.3413803 2.7775793 1.4976798e-39
0.65294766 -0.33961192 2.7990012 1.4976798e-39
0.70048863 -0.33981434 2.7895012 1.4976798e-39
0.62783831 -0.31021544 2.7792003 1.4976798e-39
0.66085476 -0.31025243 2.7859633 1.4976798e-39
0.69462317 -0.309183 2.7790005 1.4976798e-39
0.66868401 -0.2549991 2.7770002 1.4976798e-39
0.67536032 -0.36666808 2.8220003 1.4976798e-39
0.69286817 -0.36712876 2.8220003 1.4976798e-39
0.6740548 -0.3424027 2.8219995 1.4976798e-39
0.68974084 -0.34963483 2.8220005 1.4976798e-39
-0.79590863 0.27938572 1.4310001 1.465717e-38
-0.7896843 0.28552857 1.4288824 1.465717e-38
-0.8838824 0.2629945 1.4729998 1.465717e-38
-0.86922514 0.26711202 1.4720228 1.465717e-38
-0.80782765 0.28415334 1.4650002 1.465717e-38
-0.79764009 0.28290001 1.4490001 1.465717e-38
-0.80383724 0.33060664 1.473 1.465717e-38
-0.7982257 0.33247715 1.473 1.465717e-38
-0.75693715 0.35759717 1.4610001 1.465717e-38
-0.80103141 0.36754858 1.473 1.465717e-38
-0.7915231 0.36832789 1.4729998 1.465717e-38
-0.75523144 0.36656794 1.4610001 1.465717e-38
-0.6482724 0.63009262 1.4688748 1.465717e-38
-0.62306279 0.62427658 1.4683334 1.465717e-38
-0.65309811 0.64715791 1.4669997 1.465717e-38
-0.62105048 0.64808154 1.4719999 1.465717e-38
-0.90724081 0.11410584 1.5190003 1.465717e-38
-0.89588147 0.14125639 1.5130852 1.465717e-38
-0.87771195 0.15609334 1.5148001 1.465717e-38
-0.89027727 0.17988794 1.5001026 1.465717e-38
-0.86719465 0.18222207 1.5114478 1.465717e-38
-0.88596022 0.21734932 1.486529 1.465717e-38
-0.86037368 0.22062814 1.5026486 1.465717e-38
-0.83236587 0.22701521 1.5151691 1.465717e-38
-0.88489908 0.24680768 1.4799998 1.465717e-38
-0.85751992 0.25643098 1.4876758 1.465717e-38
-0.82258105 0.26280212 1.5061413 1.465717e-38
-0.79498905 0.27374434 1.5185002 1.465717e-38
-0.84433335 0.28239048 1.4900001 1.465717e-38
-0.81287134 0.29276606 1.5038396 1.465717e-38
-0.79208833 0.30281374 1.513435 1.465717e-38
-0.80725521 0.34082419 1.4908336 1.465717e-38
-0.77725041 0.34008503 1.5079041 1.465717e-38
-0.75567734 0.35082847 1.5169237 1.465717e-38
-0.80421805 0.3624694 1.4825715 1.465717e-38
-0.77127486 0.37380365 1.4927413 1.465717e-38
-0.74401397 0.38161668 1.5064549 1.465717e-38
-0.71604586 0.39435086 1.5181251 1.465717e-38
-0.76341736 0.40853959 1.4972503 1.465717e-38
-0.73783898 0.41636044 1.5015631 1.465717e-38
-0.70985395 0.42266807 1.5108331 1.465717e-38
-0.72484493 0.44560042 1.500167 1.465717e-38
-0.69750875 0.45480013 1.5069313 1.465717e-38
-0.67409736 0.4744381 1.5099621 1.465717e-38
-0.65554261 0.49485269 1.5121855 1.465717e-38
-0.63700223 0.51111633 1.5174445 1.465717e-38
-0.64415234 0.62582862 1.4799999 1.465717e-38
-0.6157276 0.63256073 1.4858934 1.465717e-38
-0.58511895 0.6337927 1.5024673 1.465717e-38
-0.55614007 0.63302004 1.5190002 1.465717e-38
-0.64266795 0.65631813 1.4820001 1.465717e-38
-0.61429417 0.65151376 1.4847234 1.465717e-38
-0.57894242 0.65705395 1.5000659 1.465717e-38
-0.55164492 0.66507757 1.5158068 1.465717e-38
-0.59024 0.68282676 1.5190001 1.465717e-38
-0.53882855 0.68258297 1.5180005 1.465717e-38
-0.92719197 0.023636641 1.5528822 1.465717e-38
-0.90881974 0.030410085 1.5526508 1.465717e-38
-0.92306471 0.054235168 1.54012 1.465717e-38
-0.90316415 0.062153835 1.5444527 1.465717e-38
-0.87707531 0.076910481 1.5530001 1.465717e-38
-0.92065907 0.080247618 1.5320001 1.465717e-38
-0.89671737 0.096613891 1.5334586 1.465717e-38
-0.86802965 0.10701691 1.5459412 1.465717e-38
-0.88637328 0.13090912 1.5261402 1.465717e-38
-0.86111033 0.14057201 1.5377551 1.465717e-38
-0.83419722 0.15109983 1.5487051 1.465717e-38
-0.85126483 0.17659606 1.5276961 1.465717e-38
-0.82556504 0.18327093 1.5420557 1.465717e-38
-0.85275525 0.21059524 1.525 1.465717e-38
-0.81528431 0.21958883 1.5346727 1.465717e-38
-0.79297537 0.23108937 1.5502374 1.465717e-38
-0.80673897 0.25014186 1.5280178 1.465717e-38
-0.78235382 0.26098701 1.5438035 1.465717e-38
-0.75410306 0.2778497 1.5530002 1.465717e-38
-0.77414316 0.29864717 1.5327933 1.465717e-38
-0.74929368 0.30385032 1.5466362 1.465717e-38
-0.76881361 0.32680288 1.5281117 1.465717e-38
-0.73785245 0.33970299 1.5385511 1.465717e-38
-0.71318465 0.35131061 1.5522504 1.465717e-38
-0.73146445 0.37368363 1.5319247 1.465717e-38
-0.7055909 0.38210639 1.543357 1.465717e-38
-0.69316769 0.41629151 1.533275 1.465717e-38
-0.66247106 0.42868236 1.5458938 1.465717e-38
-0.63549745 0.43188196 1.5530002 1.465717e-38
-0.6851089 0.4494082 1.5250003 1.465717e-38
-0.65971476 0.45790637 1.5337573 1.465717e-38
-0.62802082 0.46624094 1.5449343 1.465717e-38
-0.65502924 0.49596334 1.526722 1.465717e-38
-0.61960846 0.49953601 1.5406483 1.465717e-38
-0.59450036 0.51126599 1.5488304 1.465717e-38
-0.62185651 0.52353632 1.5368464 1.465717e-38
-0.58411992 0.52855748 1.5481457 1.465717e-38
-0.54428953 0.5516848 1.5530001 1.465717e-38
-0.56981748 0.63614291 1.5250001 1.465717e-38
-0.54189664 0.63391966 1.5300006 1.465717e-38
-0.50334364 0.61628991 1.5519443 1.465717e-38
-0.57060415 0.64612806 1.5249999 1.465717e-38
-0.53418893 0.65664744 1.5298448 1.465717e-38
-0.50440615 0.66442502 1.545567 1.465717e-38
-0.47674638 0.67789692 1.5530002 1.465717e-38
-0.52527779 0.68310326 1.5250001 1.465717e-38
-0.49826545 0.68837935 1.5440847 1.465717e-38
-0.47462639 0.69234222 1.5529999 1.465717e-38
-0.95540452 -0.12244444 1.596 1.465717e-38
-0.94069946 -0.09584745 1.5910431 1.465717e-38
-0.91738909 -0.085810922 1.5960001 1.465717e-38
-0.93425143 -0.059704993 1.5813088 1.465717e-38
-0.91447276 -0.054426026 1.5902687 1.465717e-38
-0.92988431 -0.02066258 1.5670003 1.465717e-38
-0.90135878 -0.018793643 1.5838115 1.465717e-38
-0.8769148 -0.022061482 1.5921111 1.465717e-38
-0.92956191 0.005249524 1.5600001 1.465717e-38
-0.89704049 0.015709799 1.5686575 1.465717e-38
-0.86814177 0.022012956 1.5868107 1.465717e-38
-0.88781255 0.054735385 1.5621002 1.465717e-38
-0.86046547 0.059966478 1.5765152 1.465717e-38
-0.83173746 0.065377071 1.5921375 1.465717e-38
-0.85360563 0.095422417 1.5655786 1.465717e-38
-0.82735151 0.10202785 1.583396 1.465717e-38
-0.84484661 0.12739155 1.5624233 1.465717e-38
-0.81810689 0.13904192 1.5758718 1.465717e-38
-0.79163104 0.14822216 1.5913062 1.465717e-38
-0.80915999 0.17366256 1.5663956 1.465717e-38
-0.78299546 0.18253633 1.5824665 1.465717e-38
-0.75541508 0.19600725 1.5954168 1.465717e-38
-0.80292249 0.20715104 1.5600001 1.465717e-38
-0.77586496 0.21840826 1.5684041 1.465717e-38
-0.75020641 0.22167638 1.589581 1.465717e-38
-0.76578033 0.25110996 1.5618534 1.465717e-38
-0.74184972 0.26057437 1.5773976 1.465717e-38
-0.71067423 0.26938447 1.5948952 1.465717e-38
-0.73138076 0.29741672 1.5683901 1.465717e-38
-0.70521832 0.30393612 1.5854684 1.465717e-38
-0.67716002 0.31236005 1.5960001 1.465717e-38
-0.72106671 0.33478099 1.5600002 1.465717e-38
-0.6985833 0.33927098 1.5732597 1.465717e-38
-0.66829044 0.34346932 1.586872 1.465717e-38
-0.68789512 0.37473056 1.5643531 1.465717e-38
-0.66031611 0.37995633 1.5752623 1.465717e-38
-0.63401538 0.38907909 1.588869 1.465717e-38
-0.68194288 0.41154286 1.5600002 1.465717e-38
-0.65779543 0.41153809 1.5662836 1.465717e-38
-0.62053859 0.4214609 1.5816543 1.465717e-38
-0.59736007 0.43168005 1.5960001 1.465717e-38
-0.61405122 0.45543811 1.5720066 1.465717e-38
-0.58552158 0.46613428 1.5866182 1.465717e-38
-0.60389882 0.49242052 1.5631113 1.465717e-38
-0.57957208 0.49939483 1.5769242 1.465717e-38
-0.55331403 0.50791693 1.5879458 1.465717e-38
-0.56755489 0.53411674 1.5682834 1.465717e-38
-0.54281497 0.54083908 1.5825418 1.465717e-38
-0.5156678 0.55642664 1.5893078 1.465717e-38
-0.56375837 0.56768221 1.5819002 1.465717e-38
-0.534343 0.56886101 1.5814621 1.465717e-38
-0.50867939 0.57671469 1.5885967 1.465717e-38
-0.52016956 0.63709527 1.5740001 1.465717e-38
-0.50325531 0.6251632 1.5781502 1.465717e-38
-0.46727794 0.63220513 1.5897553 1.465717e-38
-0.52083027 0.64379984 1.567 1.465717e-38
-0.49670282 0.65481001 1.5675629 1.465717e-38
-0.4616842 0.66346014 1.5797598 1.465717e-38
-0.43606424 0.67332834 1.5898502 1.465717e-38
-0.45703012 0.69489002 1.5745111 1.465717e-38
-0.42870265 0.70105386 1.5892048 1.465717e-38
-0.98429048 -0.2435438 1.6340001 1.465717e-38
-0.97477168 -0.21685377 1.6316925 1.465717e-38
-0.95600194 -0.20445146 1.6304445 1.465717e-38
-0.96605402 -0.18231998 1.6209195 1.465717e-38
-0.9495883 -0.17462482 1.6265258 1.465717e-38
-0.96496654 -0.14546001 1.6138159 1.465717e-38
-0.93861151 -0.13937412 1.6175076 1.465717e-38
-0.91114163 -0.13472179 1.6302035 1.465717e-38
-0.93031901 -0.1100047 1.6117157 1.465717e-38
-0.90289956 -0.097536765 1.6206969 1.465717e-38
-0.87924761 -0.085590482 1.6340002 1.465717e-38
-0.89783072 -0.061981872 1.6117533 1.465717e-38
-0.87363768 -0.055336934 1.6228682 1.465717e-38
-0.88496691 -0.02139912 1.6042311 1.465717e-38
-0.86238402 -0.018860953 1.6200294 1.465717e-38
-0.83221608 -0.0074351323 1.6339999 1.465717e-38
-0.85139596 0.017471641 1.6112918 1.465717e-38
-0.82869309 0.023022657 1.6242603 1.465717e-38
-0.84119338 0.056486666 1.603 1.465717e-38
-0.8169179 0.058980241 1.6153762 1.465717e-38
-0.79770321 0.065048769 1.6340001 1.465717e-38
-0.81044078 0.096670747 1.6090829 1.465717e-38
-0.78470886 0.10455384 1.6230599 1.465717e-38
-0.80251783 0.12162444 1.603 1.465717e-38
-0.77757084 0.13707918 1.6129246 1.465717e-38
-0.75001925 0.1438428 1.6250002 1.465717e-38
-0.76834357 0.17071781 1.607232 1.465717e-38
-0.74087197 0.18106498 1.6227303 1.465717e-38
-0.71666604 0.18715239 1.6331111 1.465717e-38
-0.73254335 0.21889886 1.6098613 1.465717e-38
-0.70217258 0.22250359 1.6267624 1.465717e-38
-0.67471975 0.23542942 1.6340001 1.465717e-38
-0.72669172 0.24613902 1.6069586 1.465717e-38
-0.69681007 0.25639984 1.6137087 1.465717e-38
-0.66828221 0.26529005 1.6274318 1.465717e-38
-0.69171697 0.29270411 1.606934 1.465717e-38
-0.66059458 0.29964823 1.616816 1.465717e-38
-0.63662243 0.31178308 1.6312002 1.465717e-38
-0.65300685 0.3364242 1.6065623 1.465717e-38
-0.62462592 0.34249213 1.6254014 1.465717e-38
-0.59913337 0.35481143 1.6340001 1.465717e-38
-0.64374453 0.36538225 1.603 1.465717e-38
-0.61729032 0.37838456 1.6129274 1.465717e-38
-0.58615136 0.38853797 1.6320106 1.465717e-38
-0.60773808 0.4074485 1.6033337 1.465717e-38
-0.58163333 0.41968396 1.6199348 1.465717e-38
-0.55555999 0.42795241 1.6340003 1.465717e-38
-0.57290781 0.45254776 1.6100531 1.465717e-38
-0.54334968 0.46273074 1.6270336 1.465717e-38
-0.51821142 0.46996951 1.6340001 1.465717e-38
-0.5602867 0.48395333 1.603 1.465717e-38
-0.53670001 0.49798369 1.6151518 1.465717e-38
-0.5093661 0.50800467 1.6326034 1.465717e-38
-0.52822036 0.53102458 1.6060154 1.465717e-38
-0.49969357 0.53959769 1.6203396 1.465717e-38
-0.47494176 0.54813313 1.6336524 1.465717e-38
-0.56786406 0.58097094 1.6202501 1.465717e-38
-0.55694574 0.57996005 1.6110001 1.465717e-38
-0.4911682 0.57825202 1.6095597 1.465717e-38
-0.46342206 0.58346415 1.6281027 1.465717e-38
-0.43728957 0.59498352 1.6340002 1.465717e-38
-0.49034745 0.61639696 1.6041991 1.465717e-38
-0.45699656 0.61874068 1.6170492 1.465717e-38
-0.42699444 0.62902886 1.6304052 1.465717e-38
-0.4470402 0.65168387 1.6035582 1.465717e-38
-0.42119876 0.65985167 1.619637 1.465717e-38
-0.38601717 0.6680972 1.6339997 1.465717e-38
-0.35792381 0.67383051 1.6340001 1.465717e-38
-0.41286063 0.69600499 1.6116 1.465717e-38
-0.38174874 0.70143646 1.6261015 1.465717e-38
-0.35272393 0.71104908 1.6334666 1.465717e-38
-0.37278053 0.72443283 1.6225482 1.465717e-38
-0.34753031 0.7264713 1.6319999 1.465717e-38
-1.0049102 -0.33938593 1.67063 1.465717e-38
-0.98659998 -0.33451995 1.6725882 1.465717e-38
-1.0016429 -0.31397146 1.6650002 1.465717e-38
-0.9799574 -0.29594398 1.66239 1.465717e-38
-0.9538092 -0.28819421 1.6730002 1.465717e-38
-0.97635651 -0.26203474 1.6540478 1.465717e-38
-0.94651091 -0.25665313 1.6658266 1.465717e-38
-0.96982646 -0.22804117 1.6419051 1.465717e-38
-0.93942136 -0.22007512 1.6557367 1.465717e-38
-0.91417223 -0.21359351 1.6718572 1.465717e-38
-0.96115714 -0.18441716 1.641 1.465717e-38
-0.93503928 -0.18320273 1.6430738 1.465717e-38
-0.90338725 -0.17770962 1.6630654 1.465717e-38
-0.86333507 -0.16612597 1.6730002 1.465717e-38
-0.92416954 -0.15680668 1.641 1.465717e-38
-0.89521074 -0.14173996 1.6520008 1.465717e-38
-0.86884069 -0.13645771 1.6669995 1.465717e-38
-0.88853645 -0.10860324 1.6428179 1.465717e-38
-0.86156273 -0.098609656 1.6566232 1.465717e-38
-0.83678979 -0.085315779 1.6730002 1.465717e-38
-0.79029334 -0.082853332 1.6730001 1.465717e-38
-0.85630649 -0.06148386 1.6467708 1.465717e-38
-0.82871693 -0.057822973 1.6636662 1.465717e-38
-0.78710675 -0.078073338 1.6730001 1.465717e-38
-0.84916264 -0.027709758 1.6423329 1.465717e-38
-0.81982058 -0.019760834 1.6556408 1.465717e-38
-0.79268336 -0.011252917 1.6730002 1.465717e-38
-0.81047881 0.016500495 1.6482205 1.465717e-38
-0.78693444 0.025010346 1.6630621 1.465717e-38
-0.80308539 0.053360414 1.641 1.465717e-38
-0.77922875 0.06000362 1.6512625 1.465717e-38
-0.74891543 0.064724743 1.6707263 1.465717e-38
-0.771415 0.09273424 1.6434996 1.465717e-38
-0.74478012 0.10074811 1.6599097 1.465717e-38
-0.71759623 0.10882857 1.6560001 1.465717e-38
-0.76548749 0.12096515 1.641 1.465717e-38
-0.73318321 0.13793758 1.6515324 1.465717e-38
-0.7060436 0.14835577 1.6641109 1.465717e-38
-0.67436171 0.15635833 1.6710001 1.465717e-38
-0.72532785 0.16624098 1.6426845 1.465717e-38
-0.69777441 0.18029721 1.6515398 1.465717e-38
-0.66502959 0.18267065 1.6703109 1.465717e-38
-0.63813007 0.19598001 1.6730001 1.465717e-38
-0.69511443 0.2072743 1.6414703 1.465717e-38
-0.66155928 0.21989202 1.6581758 1.465717e-38
-0.62874103 0.229424 1.672272 1.465717e-38
-0.6515888 0.2545768 1.6467783 1.465717e-38
-0.62411135 0.26279566 1.6640615 1.465717e-38
-0.59082323 0.27352226 1.6730002 1.465717e-38
-0.64476544 0.28635019 1.6409999 1.465717e-38
-0.61808497 0.29926801 1.6500605 1.465717e-38
-0.58564788 0.30330068 1.6714854 1.465717e-38
-0.60878193 0.32823482 1.6438442 1.465717e-38
-0.58219671 0.34025332 1.6608871 1.465717e-38
-0.55097377 0.35211906 1.6701068 1.465717e-38
-0.57461649 0.37259606 1.6450686 1.465717e-38
-0.54204017 0.38228235 1.6632679 1.465717e-38
-0.51200938 0.39025682 1.6730002 1.465717e-38
-0.56106579 0.40478 1.6410002 1.465717e-38
-0.53745168 0.41914701 1.6521069 1.465717e-38
-0.50340921 0.42291829 1.6681489 1.465717e-38
-0.52831256 0.44787976 1.6429458 1.465717e-38
-0.50233579 0.46050709 1.6575041 1.465717e-38
-0.47643718 0.46628904 1.6604288 1.465717e-38
-0.52199423 0.48761141 1.641 1.465717e-38
-0.49420932 0.49493927 1.6485126 1.465717e-38
-0.46824315 0.50512218 1.660256 1.465717e-38
-0.48396477 0.53085053 1.6410002 1.465717e-38
-0.45887318 0.53950071 1.6538578 1.465717e-38
-0.43237504 0.54979485 1.6673117 1.465717e-38
-0.44905192 0.56826222 1.645474 1.465717e-38
-0.42341599 0.58204073 1.6605905 1.465717e-38
-0.39378595 0.59392446 1.6694448 1.465717e-38
-0.41460988 0.61741263 1.6547065 1.465717e-38
-0.38311252 0.62366265 1.6656518 1.465717e-38
-0.34848279 0.6323548 1.6661434 1.465717e-38
-0.40373811 0.65587914 1.6410002 1.465717e-38
-0.37987679 0.65835446 1.650431 1.465717e-38
-0.3420046 0.66124701 1.6627647 1.465717e-38
-0.4079057 0.68296856 1.641 1.465717e-38
-0.37196004 0.68899673 1.6410003 1.465717e-38
-0.33699694 0.6974529 1.6520936 1.465717e-38
-0.31088084 0.70617002 1.6680477 1.465717e-38
-0.32811525 0.72907043 1.6485294 1.465717e-38
-0.30020911 0.73433656 1.6656827 1.465717e-38
-0.27605218 0.74216574 1.6720591 1.465717e-38
-1.0333555 -0.53900003 1.715 1.465717e-38
-1.0308156 -0.49163955 1.7135001 1.465717e-38
-1.0197549 -0.45698068 1.7110555 1.465717e-38
-0.99674171 -0.44794166 1.715 1.465717e-38
-1.0121827 -0.42153966 1.702158 1.465717e-38
-0.9891957 -0.4157964 1.7120746 1.465717e-38
-1.0075552 -0.38048533 1.6843029 1.465717e-38
-0.98119277 -0.37832603 1.7004219 1.465717e-38
-0.95509166 -0.36709169 1.715 1.465717e-38
-1.0037972 -0.3526462 1.681 1.465717e-38
-0.97277474 -0.34141162 1.6902481 1.465717e-38
-0.94645345 -0.33515805 1.706548 1.465717e-38
-0.97432381 -0.31285164 1.6812192 1.465717e-38
-0.93949318 -0.30063701 1.6958474 1.465717e-38
-0.90892667 -0.2942954 1.7112607 1.465717e-38
-0.93010873 -0.2638649 1.6851909 1.465717e-38
-0.90131843 -0.25938135 1.702962 1.465717e-38
-0.87373543 -0.24969149 1.7143574 1.465717e-38
-0.921615 -0.23747462 1.6810001 1.465717e-38
-0.89683062 -0.22231071 1.6914169 1.465717e-38
-0.86472321 -0.21606538 1.710528 1.465717e-38
-0.83147299 -0.21863015 1.71185 1.465717e-38
-0.88715631 -0.18834062 1.681 1.465717e-38
-0.8625468 -0.18292192 1.6940434 1.465717e-38
-0.85390252 -0.13823637 1.6842604 1.465717e-38
-0.83690685 -0.1274199 1.6959475 1.465717e-38
-0.84463072 -0.10838284 1.6828619 1.465717e-38
-0.82549971 -0.097953446 1.691342 1.465717e-38
-0.79780805 -0.087518744 1.6810001 1.465717e-38
-0.812051 -0.062327664 1.6870185 1.465717e-38
-0.78639644 -0.053268228 1.6939036 1.465717e-38
-0.75844008 -0.040428571 1.6980001 1.465717e-38
-0.80749589 -0.033127401 1.681 1.465717e-38
-0.77902478 -0.020777239 1.6954299 1.465717e-38
-0.75295472 -0.013532893 1.7049561 1.465717e-38
-0.77112418 0.016041279 1.6870794 1.465717e-38
-0.75001228 0.019728702 1.6964511 1.465717e-38
-0.76319683 0.042768303 1.6810001 1.465717e-38
-0.74490035 0.046541985 1.681 1.465717e-38
-0.73803908 0.081648573 1.6810001 1.465717e-38
-0.64763892 0.15340421 1.708842 1.465717e-38
-0.62471396 0.14873804 1.7083385 1.465717e-38
-0.65057719 0.17352445 1.6894939 1.465717e-38
-0.62276 0.18182911 1.7010725 1.465717e-38
-0.59139764 0.19306213 1.7071254 1.465717e-38
-0.64358294 0.21452764 1.6810001 1.465717e-38
-0.61787152 0.21672158 1.6907141 1.465717e-38
-0.58669627 0.22321559 1.7051735 1.465717e-38
-0.60607505 0.25369829 1.6814284 1.465717e-38
-0.57897884 0.25866747 1.6951576 1.465717e-38
-0.55217332 0.27017528 1.6987281 1.465717e-38
-0.57115138 0.29420587 1.6881876 1.465717e-38
-0.54712629 0.30211571 1.6948571 1.465717e-38
-0.56259906 0.32679737 1.683 1.465717e-38
-0.54103011 0.33775243 1.687717 1.465717e-38
-0.5268414 0.36841121 1.6809999 1.465717e-38
-0.51150429 0.39303383 1.681 1.465717e-38
-0.39383432 0.59715527 1.6810001 1.465717e-38
-0.32179144 0.66279435 1.681 1.465717e-38
-0.30768275 0.66883701 1.6845458 1.465717e-38
-0.2797657 0.67758286 1.6980001 1.465717e-38
-0.32179144 0.68040478 1.6810001 1.465717e-38
-0.29652068 0.69829696 1.6896156 1.465717e-38
-0.26260313 0.70490772 1.7036191 1.465717e-38
-0.23240624 0.70831174 1.71365 1.465717e-38
-0.28495693 0.72591376 1.6821249 1.465717e-38
-0.25712395 0.73927552 1.6963935 1.465717e-38
-0.23202959 0.74792874 1.7071174 1.465717e-38
-0.26036003 0.76167434 1.6980001 1.465717e-38
-0.22337101 0.76429045 1.7083079 1.465717e-38
-1.0020339 -0.49767274 1.7090007 1.465717e-38
-1.0464196 -0.65831506 1.7475452 1.465717e-38
-1.0383334 -0.6450001 1.7500002 1.465717e-38
-1.0471296 -0.62028515 1.7488754 1.465717e-38
-1.0330062 -0.60811883 1.7521722 1.465717e-38
-1.0444252 -0.58403361 1.7386175 1.465717e-38
-1.0299693 -0.57804704 1.7491316 1.465717e-38
-1.0418957 -0.552351 1.7365 1.465717e-38
-1.0235647 -0.53892243 1.7442071 1.465717e-38
-0.99373978 -0.52448308 1.7572001 1.465717e-38
-1.0408496 -0.51960003 1.7320001 1.465717e-38
-1.0191809 -0.50141597 1.7378638 1.465717e-38
-0.98992789 -0.49368396 1.75 1.465717e-38
-1.0111126 -0.47056133 1.7299751 1.465717e-38
-0.98116881 -0.45927435 1.7415822 1.465717e-38
-0.95275658 -0.45365864 1.7539375 1.465717e-38
-0.97443825 -0.42364982 1.7341224 1.465717e-38
-0.94687372 -0.41771886 1.7454998 1.465717e-38
-0.96443248 -0.39009914 1.7229998 1.465717e-38
-0.93983519 -0.3808639 1.7348473 1.465717e-38
-0.90896326 -0.37354401 1.7530445 1.465717e-38
-0.9320401 -0.34527913 1.7305152 1.465717e-38
-0.90230685 -0.33847499 1.7464873 1.465717e-38
-0.87676448 -0.32648382 1.758 1.465717e-38
-0.92177212 -0.31711739 1.7252501 1.465717e-38
-0.89419043 -0.30315468 1.7382247 1.465717e-38
-0.86751127 -0.29434747 1.7519761 1.465717e-38
-0.88518864 -0.27387241 1.7238181 1.465717e-38
-0.86106229 -0.261282 1.7363348 1.465717e-38
-0.83759403 -0.25797427 1.733059 1.465717e-38
-0.85205925 -0.22651155 1.7243166 1.465717e-38
-0.83840734 -0.22540791 1.7275002 1.465717e-38
-0.84509051 -0.19855523 1.723 1.465717e-38
-0.64817619 0.14604476 1.723 1.465717e-38
-0.60986036 0.17371967 1.7248749 1.465717e-38
-0.59785372 0.18105176 1.723 1.465717e-38
-0.58391947 0.22005334 1.732 1.465717e-38
-0.22033834 0.71602458 1.7254546 1.465717e-38
-0.21638128 0.73919231 1.7261782 1.465717e-38
-0.18621536 0.74407768 1.7450695 1.465717e-38
-0.20840096 0.76796573 1.7229998 1.465717e-38
-0.18124829 0.76757175 1.7353752 1.465717e-38
-0.98493826 -0.45087859 1.7127519 1.465717e-38
-1.0367357 -0.69279724 1.7878526 1.465717e-38
-1.0454266 -0.66087818 1.7744919 1.465717e-38
-1.0321232 -0.65802872 1.786658 1.465717e-38
-1.0440998 -0.63268703 1.7734001 1.465717e-38
-1.0245898 -0.61930567 1.7841204 1.465717e-38
-1.0131906 -0.58046067 1.7817403 1.465717e-38
-0.99139088 -0.57210112 1.7901138 1.465717e-38
-0.95733333 -0.56243336 1.7950001 1.465717e-38
-1.0058839 -0.54691726 1.7730629 1.465717e-38
-0.98043078 -0.54101872 1.7827324 1.465717e-38
-0.95339864 -0.53531593 1.7921195 1.465717e-38
-0.9761219 -0.5047496 1.7749822 1.465717e-38
-0.94842756 -0.49680871 1.7866132 1.465717e-38
-0.96426165 -0.47764072 1.768 1.465717e-38
-0.93787688 -0.46222115 1.7803963 1.465717e-38
-0.91126621 -0.45277596 1.7904079 1.465717e-38
-0.93212616 -0.42171091 1.7724996 1.465717e-38
-0.90013295 -0.42037383 1.7837484 1.465717e-38
-0.87469399 -0.41190514 1.7925453 1.465717e-38
-0.92441159 -0.39771581 1.768 1.465717e-38
-0.89417309 -0.38278866 1.7730515 1.465717e-38
-0.86895216 -0.37838581 1.7871574 1.465717e-38
-0.8856225 -0.34896231 1.7737275 1.465717e-38
-0.8638562 -0.34070686 1.7831956 1.465717e-38
-0.85794759 -0.30698854 1.7707793 1.465717e-38
-0.17230983 0.75415963 1.7679999 1.465717e-38
-0.16669716 0.76276577 1.7680001 1.465717e-38
-0.79208833 0.30281374 1.513435 1.465717e-38
-0.77448475 0.18340215 1.5893055 1.465717e-38
-0.89355993 -0.16203853 1.6553057 1.465717e-38
-1.0200571 -0.6808393 1.8126389 1.465717e-38
-1.0149289 -0.66153502 1.8156363 1.465717e-38
-0.99199408 -0.64923209 1.8260326 1.465717e-38
-1.0096241 -0.62320006 1.8109241 1.465717e-38
-0.98111248 -0.61731511 1.8185034 1.465717e-38
-1.0027951 -0.59560645 1.8040001 1.465717e-38
-0.97775072 -0.58609718 1.812922 1.465717e-38
-0.94701266 -0.57332683 1.8252596 1.465717e-38
-0.91591811 -0.5615381 1.8330001 1.465717e-38
-0.96442223 -0.54607576 1.8087622 1.465717e-38
-0.93791819 -0.53975409 1.8167263 1.465717e-38
-0.90544033 -0.53091842 1.8299322 1.465717e-38
-0.87723625 -0.52866191 1.8300002 1.465717e-38
-0.93306482 -0.50418556 1.8098141 1.465717e-38
-0.90029317 -0.499318 1.819729 1.465717e-38
-0.87015653 -0.4937295 1.8241489 1.465717e-38
-0.92171907 -0.47894955 1.8090001 1.465717e-38
-0.89653164 -0.46353096 1.8113635 1.465717e-38
-0.864393 -0.45841479 1.8230879 1.465717e-38
-0.83841676 -0.44595382 1.8315001 1.465717e-38
-0.88539183 -0.43582353 1.8040001 1.465717e-38
-0.85806775 -0.4210633 1.815613 1.465717e-38
-0.83214307 -0.41163129 1.8303245 1.465717e-38
-0.8511498 -0.38224423 1.8102071 1.465717e-38
-0.82997954 -0.38216421 1.8243023 1.465717e-38
-0.77858859 -0.36136284 1.8330001 1.465717e-38
-0.84821856 -0.34801725 1.8057147 1.465717e-38
-0.83492994 -0.355923 1.8151112 1.465717e-38
-0.77800679 -0.35350716 1.8330001 1.465717e-38
-0.89651984 -0.3695733 1.7649018 1.465717e-38
-0.91881192 -0.52170986 1.8178031 1.465717e-38
-1.0095931 -0.70464003 1.8502599 1.465717e-38
-0.98127919 -0.70129055 1.8667338 1.465717e-38
-0.95778388 -0.69828522 1.8722312 1.465717e-38
-1.0035359 -0.67382324 1.8498423 1.465717e-38
-0.97901762 -0.66154271 1.8563331 1.465717e-38
-0.95062184 -0.65612918 1.8638 1.465717e-38
-0.91687816 -0.64038765 1.8730001 1.465717e-38
-0.96692419 -0.6219514 1.8493264 1.465717e-38
-0.93934691 -0.6192649 1.8578435 1.465717e-38
-0.90177768 -0.61501133 1.8633136 1.465717e-38
-0.8782714 -0.61390287 1.863 1.465717e-38
-0.93382496 -0.58656555 1.8490558 1.465717e-38
-0.90330821 -0.58139926 1.8550682 1.465717e-38
-0.92220211 -0.55360216 1.8430001 1.465717e-38
-0.90246391 -0.54536235 1.8440723 1.465717e-38
-0.89692664 -0.51603997 1.8430001 1.465717e-38
-0.8411032 -0.44370827 1.8463334 1.465717e-38
-0.82911849 -0.44478402 1.8523754 1.465717e-38
-0.8407591 -0.43003336 1.8430001 1.465717e-38
-0.81805259 -0.42226762 1.8531696 1.465717e-38
-0.78519917 -0.4163329 1.8548595 1.465717e-38
-0.81380022 -0.38190955 1.8503598 1.465717e-38
-0.77817225 -0.38033104 1.8502126 1.465717e-38
-0.75228232 -0.36678284 1.855667 1.465717e-38
-0.77404153 -0.34345877 1.8466491 1.465717e-38
-0.7509973 -0.34585404 1.8489573 1.465717e-38
-0.50891471 0.46726009 1.6481249 1.465717e-38
-0.89707881 -0.54296196 1.8511571 1.465717e-38
-0.94178945 -0.73642695 1.9067736 1.465717e-38
-0.91663998 -0.73168004 1.904 1.465717e-38
-0.94201142 -0.70072806 1.8936267 1.465717e-38
-0.90534741 -0.69259793 1.9028522 1.465717e-38
-0.93760282 -0.66541851 1.8902643 1.465717e-38
-0.90060705 -0.65897834 1.9002067 1.465717e-38
-0.8713969 -0.65094292 1.9106669 1.465717e-38
-0.89714742 -0.6360907 1.8896153 1.465717e-38
-0.87765336 -0.63648003 1.904 1.465717e-38
-0.49420932 0.49493927 1.6485126 1.465717e-38
-0.71820241 -0.2023389 1.8221948 1.465717e-38
-0.83791471 -0.53370255 1.8802429 1.465717e-38
-0.87830287 -0.77014673 1.9580001 1.465717e-38
-0.92472696 -0.74245673 1.9318378 1.465717e-38
-0.89882869 -0.74132073 1.9426017 1.465717e-38
-0.86098516 -0.73805958 1.9536697 1.465717e-38
-0.83825374 -0.73062664 1.9483752 1.465717e-38
-0.89197361 -0.70300293 1.930806 1.465717e-38
-0.86289704 -0.69912142 1.9453157 1.465717e-38
-0.82485849 -0.69531792 1.9448264 1.465717e-38
-0.88590747 -0.67364818 1.9250001 1.465717e-38
-0.85939026 -0.66367251 1.934872 1.465717e-38
-0.81914777 -0.65936083 1.9427495 1.465717e-38
-0.78879434 -0.64446175 1.9580001 1.465717e-38
-0.80744189 -0.63812155 1.9580001 1.465717e-38
-0.77991766 -0.62810296 1.9551959 1.465717e-38
-0.7589581 -0.61537147 1.9580001 1.465717e-38
-0.91617417 -0.64154863 1.8817474 1.465717e-38
-0.87359732 -0.69246459 1.9283502 1.465717e-38
-0.82699627 -0.70149797 1.9528419 1.465717e-38
-0.79764009 0.28290001 1.4490001 1.465717e-38
-0.85417098 -0.74503219 1.9690002 1.465717e-38
-0.8201347 -0.73984128 1.9737755 1.465717e-38
-0.78935182 -0.73163956 1.9865146 1.465717e-38
-0.80930954 -0.70350289 1.9690013 1.465717e-38
-0.78708827 -0.70070964 1.9802469 1.465717e-38
-0.73798865 -0.68107432 1.9920001 1.465717e-38
-0.80537713 -0.6628592 1.9690005 1.465717e-38
-0.77940714 -0.66260105 1.972581 1.465717e-38
-0.74536055 -0.66077381 1.9839884 1.465717e-38
-0.71522284 -0.64313143 1.9920001 1.465717e-38
-0.8157286 -0.63945621 1.9690001 1.465717e-38
-0.76807553 -0.63239652 1.969 1.465717e-38
-0.74651611 -0.62896067 1.9754385 1.465717e-38
-0.79015428 -0.29187834 1.8045899 1.465717e-38
-0.73792547 -0.38940135 1.8773365 1.465717e-38
-0.66515458 -0.28995103 1.8724337 1.465717e-38
-0.67963612 -0.70310462 2.0051668 1.465717e-38
-0.67189908 -0.80394858 2.0389998 1.465717e-38
-0.70826203 -0.25744733 1.7532645 1.465717e-38
-0.80735075 -0.78062415 2.0142496 1.465717e-38
-0.77915066 -0.7796126 2.0242102 1.465717e-38
-0.74594176 -0.77541441 2.0327053 1.465717e-38
-0.70668101 -0.79770476 2.033 1.465717e-38
-0.66995716 -0.79618096 2.039 1.465717e-38
-0.77624005 -0.74428189 2.011699 1.465717e-38
-0.74149436 -0.7388714 2.02876 1.465717e-38
-0.70224136 -0.72602969 2.0389998 1.465717e-38
-0.77056849 -0.70505416 2.007551 1.465717e-38
-0.7388618 -0.70155185 2.0198877 1.465717e-38
-0.70398468 -0.69473624 2.0300002 1.465717e-38
-0.67616528 -0.70225525 2.0285003 1.465717e-38
-0.73049504 -0.6576404 2.004945 1.465717e-38
-0.70681292 -0.66332287 2.0106359 1.465717e-38
-0.74158692 -0.63189876 2.003 1.465717e-38
-0.71917236 -0.63905239 2.003 1.465717e-38
-0.72991323 -0.75726044 2.0370805 1.465717e-38
-0.70468074 -0.80653906 2.0573685 1.465717e-38
-0.73089683 -0.7855224 2.052876 1.465717e-38
-0.70192575 -0.78188074 2.0651257 1.465717e-38
-0.67650449 -0.7904489 2.0510004 1.465717e-38
-0.72696567 -0.74991721 2.0509999 1.465717e-38
-0.7017737 -0.74067211 2.0558705 1.465717e-38
-0.69648546 -0.7112574 2.0509996 1.465717e-38
-0.09538579 0.072231136 0.45867887 3.0546443e-39
-0.070752874 0.072885863 0.46907559 3.0546443e-39
-0.094187438 0.092090607 0.47119191 3.0546443e-39
-0.074332409 0.089015625 0.47510856 3.0546443e-39
-0.055623006 0.075310342 0.48679227 3.0546443e-39
-0.096800834 0.11162703 0.48472202 3.0546443e-39
-0.060280796 0.10228055 0.49501246 3.0546443e-39
-0.094148032 0.13845693 0.50216442 3.0546443e-39
-0.064447612 0.13766851 0.50659937 3.0546443e-39
-0.26828933 0.19819872 0.51385993 3.0546443e-39
-0.08963047 0.16303931 0.51695246 3.0546443e-39
-0.072552674 0.16350083 0.51712877 3.0546443e-39
-0.30964124 0.23114583 0.51622057 3.0546443e-39
-0.26923904 0.20140712 0.51454175 3.0546443e-39
-0.042521864 0.11231775 0.52791303 3.0546443e-39
-0.038508687 0.1135253 0.53258157 3.0546443e-39
-0.29957941 0.13973783 0.5410946 3.0546443e-39
-0.10895239 0.15401906 0.52000004 3.0546443e-39
-0.045877725 0.14409938 0.52771139 3.0546443e-39
-0.03380537 0.14315909 0.54681313 3.0546443e-39
-0.32141536 0.18360868 0.53194827 3.0546443e-39
-0.29873973 0.18490888 0.53615505 3.0546443e-39
-0.26759294 0.19317746 0.55168378 3.0546443e-39
-0.090016387 0.17818317 0.53055745 3.0546443e-39
-0.058371391 0.18022127 0.5371418 3.0546443e-39
-0.034781031 0.17246218 0.5520193 3.0546443e-39
-0.32523966 0.21318789 0.54403859 3.0546443e-39
-0.29868883 0.21961179 0.53507733 3.0546443e-39
-0.2712023 0.21390429 0.53368819 3.0546443e-39
-0.085069709 0.20360452 0.55533999 3.0546443e-39
-0.065717414 0.2046978 0.55596429 3.0546443e-39
-0.2813389 0.24125056 0.53472728 3.0546443e-39
-0.25944561 0.24505231 0.54503459 3.0546443e-39
-0.23639628 0.24928835 0.55400002 3.0546443e-39
-0.024736056 0.15070708 0.56114286 3.0546443e-39
-0.2486417 0.19537853 0.56357896 3.0546443e-39
-0.23533861 0.19820662 0.5713771 3.0546443e-39
-0.041464634 0.19893214 0.56128573 3.0546443e-39
-0.026405085 0.1851207 0.57301527 3.0546443e-39
-0.2505438 0.21865125 0.56970149 3.0546443e-39
-0.22446668 0.22239704 0.58343607 3.0546443e-39
-0.053888831 0.2179704 0.5724206 3.0546443e-39
-0.029151328 0.21493034 0.58722425 3.0546443e-39
-0.24387702 0.2408525 0.58037502 3.0546443e-39
-0.22980386 0.24143818 0.58294731 3.0546443e-39
-0.0095844716 0.18042299 0.62704533 3.0546443e-39
0.017224245 0.18525793 0.63124901 3.0546443e-39
0.04159569 0.19652846 0.63841182 3.0546443e-39
-0.24097238 0.22838001 0.60100001 3.0546443e-39
-0.20851175 0.23571049 0.60055554 3.0546443e-39
-0.19942857 0.23771429 0.60000002 3.0546443e-39
-0.041848995 0.23833008 0.60011107 3.0546443e-39
-0.011615785 0.2217803 0.60847354 3.0546443e-39
0.019217094 0.2185664 0.62534857 3.0546443e-39
0.042149104 0.21284622 0.63777792 3.0546443e-39
-0.041809168 0.24198276 0.60137504 3.0546443e-39
-0.018413503 0.24913442 0.61791831 3.0546443e-39
0.012307844 0.24689253 0.63162392 3.0546443e-39
0.19499764 0.27286714 0.63511086 3.0546443e-39
0.22111769 0.26271856 0.62684971 3.0546443e-39
0.25803596 0.26190835 0.62755853 3.0546443e-39
0.28558174 0.27112857 0.63577622 3.0546443e-39
0.19091754 0.28271988 0.63504624 3.0546443e-39
0.20374662 0.28067964 0.62653846 3.0546443e-39
0.274957 0.28092551 0.62733334 3.0546443e-39
0.28870854 0.28318673 0.63466674 3.0546443e-39
-0.011720696 0.15179665 0.65568715 3.0546443e-39
0.019603232 0.14949548 0.66261721 3.0546443e-39
0.05682601 0.15216778 0.67072958 3.0546443e-39
0.082799487 0.15872209 0.67872727 3.0546443e-39
-0.011139582 0.16318126 0.64157116 3.0546443e-39
0.024860365 0.16757476 0.64444315 3.0546443e-39
0.059767392 0.17937514 0.65546 3.0546443e-39
0.089571781 0.18235013 0.6735208 3.0546443e-39
0.038214061 0.23599403 0.64076203 3.0546443e-39
0.060932394 0.21968535 0.6532194 3.0546443e-39
0.089064322 0.21553004 0.67296946 3.0546443e-39
0.19554839 0.23677783 0.67600006 3.0546443e-39
0.22223459 0.23253995 0.66523987 3.0546443e-39
0.25861964 0.23045109 0.66303074 3.0546443e-39
0.28949922 0.23356897 0.67016488 3.0546443e-39
0.028005337 0.25607166 0.64944792 3.0546443e-39
0.057394583 0.25230029 0.66532415 3.0546443e-39
0.082184516 0.24371251 0.67733335 3.0546443e-39
0.15633601 0.27572709 0.67539734 3.0546443e-39
0.18153559 0.26084927 0.66026568 3.0546443e-39
0.21397659 0.24604873 0.6477055 3.0546443e-39
0.26416606 0.24466102 0.64322382 3.0546443e-39
0.30047804 0.25729007 0.65444547 3.0546443e-39
0.32776591 0.268637 0.67203671 3.0546443e-39
0.15075138 0.29067567 0.67195505 3.0546443e-39
0.17098384 0.28548411 0.65241575 3.0546443e-39
0.3087582 0.28612426 0.64893311 3.0546443e-39
0.32943302 0.29011065 0.66664207 3.0546443e-39
0.031164501 0.13679366 0.69164228 3.0546443e-39
0.061527662 0.13626269 0.69605875 3.0546443e-39
0.098564334 0.14487039 0.70014399 3.0546443e-39
0.13215858 0.15135521 0.71380287 3.0546443e-39
0.10832727 0.17702845 0.68616766 3.0546443e-39
0.13736388 0.17838785 0.70652962 3.0546443e-39
0.17986818 0.18157688 0.7115609 3.0546443e-39
0.21803775 0.18580243 0.71019024 3.0546443e-39
0.25539482 0.19214708 0.71236545 3.0546443e-39
0.28465411 0.19843571 0.71690905 3.0546443e-39
0.10740384 0.22225885 0.68913472 3.0546443e-39
0.14364442 0.22033338 0.70926481 3.0546443e-39
0.17949973 0.22012903 0.69556963 3.0546443e-39
0.2192765 0.21326843 0.69110757 3.0546443e-39
0.2605367 0.21076126 0.69345927 3.0546443e-39
0.29963395 0.219243 0.69901961 3.0546443e-39
0.32923993 0.23219633 0.70960397 3.0546443e-39
0.074001834 0.26416999 0.68655986 3.0546443e-39
0.096167594 0.25138521 0.69301802 3.0546443e-39
0.14301562 0.26170745 0.7009747 3.0546443e-39
0.16825829 0.24864627 0.68613249 3.0546443e-39
0.31611598 0.24205062 0.68273681 3.0546443e-39
0.33894581 0.25419089 0.6987586 3.0546443e-39
0.11331682 0.30247697 0.71160328 3.0546443e-39
0.13108692 0.29292691 0.69406825 3.0546443e-39
0.1039381 0.32070667 0.71800005 3.0546443e-39
0.07577467 0.11849916 0.74780005 3.0546443e-39
0.10358485 0.11512706 0.74827969 3.0546443e-39
0.13947849 0.11405821 0.74898458 3.0546443e-39
0.17581387 0.11579301 0.75322133 3.0546443e-39
0.069648564 0.12421156 0.7309652 3.0546443e-39
0.10184655 0.12561283 0.72890979 3.0546443e-39
0.14259958 0.13497062 0.72931796 3.0546443e-39
0.1797473 0.14026831 0.73314625 3.0546443e-39
0.21674733 0.14478815 0.74074954 3.0546443e-39
0.24997944 0.15467647 0.7502166 3.0546443e-39
0.15335846 0.18477972 0.72054076 3.0546443e-39
0.18162553 0.16196747 0.72056609 3.0546443e-39
0.22450174 0.16699082 0.72464567 3.0546443e-39
0.26168492 0.17394842 0.73416513 3.0546443e-39
0.29653192 0.18675406 0.7420212 3.0546443e-39
0.32669523 0.19577688 0.75263244 3.0546443e-39
0.13991486 0.22295509 0.72075301 3.0546443e-39
0.31056169 0.20523465 0.72794837 3.0546443e-39
0.34065443 0.21755153 0.7379939 3.0546443e-39
0.36712188 0.22895089 0.74895304 3.0546443e-39
0.11361912 0.27147526 0.73048478 3.0546443e-39
0.12629046 0.2553589 0.72342134 3.0546443e-39
0.35520354 0.24737884 0.72558188 3.0546443e-39
0.36446282 0.24813956 0.73355132 3.0546443e-39
0.099499427 0.29964042 0.73709941 3.0546443e-39
0.090765089 0.3265613 0.74371135 3.0546443e-39
0.39824003 -0.012920001 0.79800004 3.0546443e-39
0.38632086 0.024589129 0.79342109 3.0546443e-39
0.35886797 0.072213471 0.79740918 3.0546443e-39
0.37671688 0.060881503 0.78870994 3.0546443e-39
0.099147804 0.10957631 0.76347667 3.0546443e-39
0.14089727 0.10327961 0.77073574 3.0546443e-39
