# .PCD v0.7 - Point Cloud Data file format
VERSION 0.7
FIELDS x y z rgb
SIZE 4 4 4 4
TYPE F F F F
COUNT 1 1 1 1
WIDTH 1021
HEIGHT 1
VIEWPOINT 0 0 0 1 0 0 0
POINTS 1021
DATA ascii
-0.2630246 -0.49894273 2.2619081 5.2805691e-39
-0.23182487 -0.48852453 2.266 5.2805691e-39
1.0764855 -0.48982751 2.26 5.2805691e-39
1.0812057 -0.48341334 2.266 5.2805691e-39
1.1531591 -0.5163362 2.2590001 5.2805691e-39
-0.24733396 -0.4616386 2.2519999 5.2805691e-39
-0.22386578 -0.45872238 2.2637684 5.2805691e-39
-0.24407391 -0.43624458 2.2520001 5.2805691e-39
-0.2182751 -0.42131981 2.2599063 5.2805691e-39
-0.1904719 -0.41875049 2.2659998 5.2805691e-39
-0.21319056 -0.39040998 2.2583222 5.2805691e-39
-0.18134576 -0.37878206 2.2635157 5.2805691e-39
-0.15754095 -0.3604019 2.266 5.2805691e-39
-0.16979113 -0.34315246 2.2569184 5.2805691e-39
-0.14774205 -0.33263829 2.2659996 5.2805691e-39
-0.162287 -0.31170541 2.2520001 5.2805691e-39
-0.13891381 -0.30020988 2.2617636 5.2805691e-39
-0.11869524 -0.29350096 2.266 5.2805691e-39
-0.13404435 -0.26596966 2.2575343 5.2805691e-39
-0.10866218 -0.25446421 2.2637293 5.2805691e-39
-0.12396725 -0.23034744 2.2520001 5.2805691e-39
-0.098148555 -0.2230427 2.2572749 5.2805691e-39
-0.073449649 -0.21275841 2.2659996 5.2805691e-39
-0.089885034 -0.19361353 2.2520003 5.2805691e-39
-0.062224604 -0.17904469 2.2620804 5.2805691e-39
-0.053430662 -0.14160398 2.2603047 5.2805691e-39
-0.028638508 -0.13654326 2.2659996 5.2805691e-39
-0.047633335 -0.11462953 2.2566671 5.2805691e-39
-0.016647918 -0.10300208 2.2626669 5.2805691e-39
0.0041200006 -0.094367623 2.2660003 5.2805691e-39
-0.0079201479 -0.066675179 2.2530768 5.2805691e-39
0.006092588 -0.063598834 2.261739 5.2805691e-39
0.83636671 -0.72340292 2.2810001 5.2805691e-39
0.85157335 -0.72340292 2.2810001 5.2805691e-39
-0.32368478 -0.68430001 2.2810001 5.2805691e-39
-0.31282288 -0.68430001 2.2810001 5.2805691e-39
-0.25416857 -0.68430001 2.2810001 5.2805691e-39
-0.21651399 -0.68430007 2.2810001 5.2805691e-39
-0.17658357 -0.68430007 2.2810001 5.2805691e-39
-0.15028858 -0.68281859 2.2869999 5.2805691e-39
-0.08275751 -0.68548965 2.2868752 5.2805691e-39
-0.065636314 -0.68665242 2.2880003 5.2805691e-39
-0.017893907 -0.68317789 2.2897003 5.2805691e-39
0.021381604 -0.6866076 2.281842 5.2805691e-39
0.056171574 -0.68616205 2.2810001 5.2805691e-39
0.10101572 -0.68755853 2.2809997 5.2805691e-39
0.14174031 -0.68825066 2.2825992 5.2805691e-39
0.179097 -0.68585682 2.2819412 5.2805691e-39
0.22271834 -0.68309021 2.2870002 5.2805691e-39
0.26006052 -0.68331242 2.2850003 5.2805691e-39
0.29615006 -0.68579191 2.2827775 5.2805691e-39
0.34442168 -0.68934584 2.2822301 5.2805691e-39
0.37909335 -0.68515885 2.2868333 5.2805691e-39
0.41510284 -0.68649709 2.2820001 5.2805691e-39
0.46255699 -0.69101512 2.2883387 5.2805691e-39
0.49954963 -0.69062626 2.2853713 5.2805691e-39
0.54111648 -0.69169497 2.2877767 5.2805691e-39
0.57873225 -0.6890462 2.2892897 5.2805691e-39
0.61945027 -0.69025975 2.2950835 5.2805691e-39
0.66108239 -0.69436753 2.2872436 5.2805691e-39
0.70018017 -0.69280422 2.2890882 5.2805691e-39
0.74031556 -0.69353545 2.294421 5.2805691e-39
0.77969187 -0.69490576 2.2856245 5.2805691e-39
0.82224047 -0.69844717 2.2888052 5.2805691e-39
0.855878 -0.6976397 2.289088 5.2805691e-39
0.90249354 -0.69108641 2.296288 5.2805691e-39
0.93660957 -0.68808848 2.2897232 5.2805691e-39
0.97558552 -0.68472755 2.2906098 5.2805691e-39
1.0151705 -0.68597108 2.2810001 5.2805691e-39
1.0617924 -0.68394089 2.2824547 5.2805691e-39
1.1069583 -0.68733633 2.283 5.2805691e-39
1.1353034 -0.68622899 2.284692 5.2805691e-39
-0.32620019 -0.65983206 2.2809999 5.2805691e-39
-0.29989105 -0.66012239 2.2909291 5.2805691e-39
-0.26228201 -0.66892487 2.2971513 5.2805691e-39
-0.22030637 -0.66755086 2.2941587 5.2805691e-39
-0.17848237 -0.67099142 2.2920361 5.2805691e-39
-0.14038828 -0.67383528 2.2972906 5.2805691e-39
-0.098732837 -0.67323345 2.2962732 5.2805691e-39
-0.0601197 -0.67050004 2.2986302 5.2805691e-39
-0.01825517 -0.67418188 2.3005893 5.2805691e-39
0.020377029 -0.66784549 2.2954452 5.2805691e-39
0.059410408 -0.67178696 2.2921777 5.2805691e-39
0.099733777 -0.67019862 2.2914538 5.2805691e-39
0.14070204 -0.66962504 2.2962079 5.2805691e-39
0.18157625 -0.66984522 2.2962825 5.2805691e-39
0.21613027 -0.67096215 2.2970588 5.2805691e-39
0.25992113 -0.67361057 2.2950842 5.2805691e-39
0.30112678 -0.67173523 2.294615 5.2805691e-39
0.33851013 -0.67205185 2.2954502 5.2805691e-39
0.38179803 -0.67485994 2.3009739 5.2805691e-39
0.41892725 -0.67225844 2.2958465 5.2805691e-39
0.46005642 -0.67319232 2.2971385 5.2805691e-39
0.48695093 -0.67447394 2.2929411 5.2805691e-39
0.54790992 -0.67464882 2.3009603 5.2805691e-39
0.57147074 -0.67532241 2.3065717 5.2805691e-39
0.94120979 -0.67529172 2.3047144 5.2805691e-39
0.98873901 -0.67522603 2.293129 5.2805691e-39
1.0186666 -0.67323774 2.2924576 5.2805691e-39
1.058394 -0.67010403 2.2954912 5.2805691e-39
1.0999225 -0.67199069 2.2949989 5.2805691e-39
1.1419858 -0.66049129 2.2936034 5.2805691e-39
1.1641364 -0.65263551 2.2854288 5.2805691e-39
-0.32513306 -0.62685269 2.2810001 5.2805691e-39
-0.30107316 -0.61907238 2.2851627 5.2805691e-39
-0.26401588 -0.61089575 2.3022258 5.2805691e-39
-0.23560381 -0.60332191 2.312 5.2805691e-39
1.1514294 -0.61784172 2.2960334 5.2805691e-39
1.1646312 -0.62325633 2.2850428 5.2805691e-39
-0.28639224 -0.58871531 2.2810001 5.2805691e-39
-0.25599778 -0.58023721 2.2890792 5.2805691e-39
-0.23130953 -0.57540286 2.3114233 5.2805691e-39
1.1376257 -0.58068895 2.2922816 5.2805691e-39
1.1643963 -0.59740478 2.2810001 5.2805691e-39
-0.25102451 -0.544743 2.2814696 5.2805691e-39
-0.22173317 -0.53712267 2.2998559 5.2805691e-39
-0.19486856 -0.52515435 2.312 5.2805691e-39
1.1076519 -0.52808475 2.3000002 5.2805691e-39
1.1401867 -0.54433864 2.2888741 5.2805691e-39
1.1622241 -0.54237115 2.2810001 5.2805691e-39
-0.2464817 -0.5138517 2.2810001 5.2805691e-39
-0.21688898 -0.5018878 2.2849069 5.2805691e-39
-0.18428993 -0.49647585 2.3024724 5.2805691e-39
1.073555 -0.49094099 2.2913337 5.2805691e-39
1.0922556 -0.50825435 2.2940898 5.2805691e-39
1.1578791 -0.51919907 2.2810001 5.2805691e-39
-0.20451416 -0.46426886 2.2810001 5.2805691e-39
-0.18066311 -0.46040213 2.2946861 5.2805691e-39
-0.1537728 -0.44764307 2.3103335 5.2805691e-39
1.0721385 -0.46345833 2.2978466 5.2805691e-39
1.0860351 -0.47254428 2.3077145 5.2805691e-39
-0.17331484 -0.41956279 2.2816389 5.2805691e-39
-0.14742054 -0.416531 2.2987437 5.2805691e-39
-0.16785267 -0.38914591 2.2810004 5.2805691e-39
-0.13987875 -0.37990576 2.2935994 5.2805691e-39
-0.1140587 -0.37564498 2.312 5.2805691e-39
-0.13409591 -0.34598196 2.283488 5.2805691e-39
-0.1095804 -0.33858019 2.2994242 5.2805691e-39
-0.099916637 -0.29984525 2.2895687 5.2805691e-39
-0.071506798 -0.29465735 2.3072276 5.2805691e-39
-0.092060663 -0.26420981 2.2809989 5.2805691e-39
-0.061349656 -0.25802973 2.2962744 5.2805691e-39
-0.035964444 -0.24587938 2.3120003 5.2805691e-39
-0.054926891 -0.22216606 2.2860658 5.2805691e-39
-0.024769412 -0.21347961 2.3062611 5.2805691e-39
0.002201905 -0.20477717 2.312 5.2805691e-39
-0.043809682 -0.18211794 2.2810001 5.2805691e-39
-0.020205008 -0.18055435 2.2953103 5.2805691e-39
0.0045506032 -0.17571199 2.312 5.2805691e-39
-0.011752685 -0.14446363 2.2824535 5.2805691e-39
0.01933841 -0.13763791 2.3027484 5.2805691e-39
0.051844846 -0.12430753 2.3120003 5.2805691e-39
-0.0021723812 -0.11730857 2.2810001 5.2805691e-39
0.021821186 -0.099612251 2.281451 5.2805691e-39
0.048538104 -0.10420308 2.2903104 5.2805691e-39
0.022203352 -0.067555904 2.2816951 5.2805691e-39
0.50823337 -0.68200189 2.3284545 5.2805691e-39
0.52862495 -0.68218654 2.3302 5.2805691e-39
0.58950669 -0.68037051 2.3270001 5.2805691e-39
0.62348831 -0.68184793 2.3269999 5.2805691e-39
0.66021538 -0.68524581 2.3280325 5.2805691e-39
0.69897896 -0.68594092 2.3290002 5.2805691e-39
0.73577523 -0.68435967 2.3269999 5.2805691e-39
0.77488714 -0.68676054 2.3291335 5.2805691e-39
0.82091773 -0.68671525 2.3329141 5.2805691e-39
0.86411864 -0.68352598 2.3341722 5.2805691e-39
0.90237504 -0.68403214 2.3269999 5.2805691e-39
0.93301618 -0.68258667 2.3270001 5.2805691e-39
0.97512382 -0.68037051 2.3270001 5.2805691e-39
-0.28322914 -0.65466273 2.3270001 5.2805691e-39
-0.25738138 -0.65229851 2.3295279 5.2805691e-39
-0.21729238 -0.6495766 2.3317423 5.2805691e-39
-0.18108247 -0.65487891 2.3354452 5.2805691e-39
-0.13957669 -0.65398717 2.3358209 5.2805691e-39
-0.10068084 -0.65320158 2.3390498 5.2805691e-39
-0.059327111 -0.6517843 2.3363547 5.2805691e-39
-0.020475052 -0.65504473 2.3370004 5.2805691e-39
0.019865053 -0.64736903 2.3354223 5.2805691e-39
0.060259793 -0.6517815 2.3332703 5.2805691e-39
0.099116348 -0.65311766 2.3396454 5.2805691e-39
0.1403143 -0.65011871 2.339607 5.2805691e-39
0.17984082 -0.65032393 2.341789 5.2805691e-39
0.22206172 -0.65419573 2.3398004 5.2805691e-39
0.25904489 -0.65420717 2.3400569 5.2805691e-39
0.29933035 -0.65226901 2.339308 5.2805691e-39
0.3421306 -0.65364307 2.3394451 5.2805691e-39
0.38013461 -0.65615284 2.338902 5.2805691e-39
0.41996223 -0.6543079 2.3410614 5.2805691e-39
0.45991072 -0.66034967 2.3420458 5.2805691e-39
0.50188345 -0.66254514 2.3405004 5.2805691e-39
0.5393672 -0.65762442 2.3424144 5.2805691e-39
0.57880962 -0.65948451 2.3395998 5.2805691e-39
0.618545 -0.66415453 2.3427718 5.2805691e-39
0.65869212 -0.66416663 2.3445339 5.2805691e-39
0.69801623 -0.66546458 2.3455887 5.2805691e-39
0.73867291 -0.6659385 2.3420861 5.2805691e-39
0.77899396 -0.66331381 2.3414004 5.2805691e-39
0.81666398 -0.66570163 2.3486307 5.2805691e-39
0.85927725 -0.66859621 2.3473344 5.2805691e-39
0.90079206 -0.66549879 2.3430011 5.2805691e-39
0.93798387 -0.65931505 2.3394442 5.2805691e-39
0.98229694 -0.66251862 2.3430007 5.2805691e-39
1.021052 -0.65810126 2.3409722 5.2805691e-39
1.058664 -0.65264761 2.341223 5.2805691e-39
1.1008681 -0.65334171 2.3412931 5.2805691e-39
1.1315253 -0.64945167 2.334239 5.2805691e-39
-0.25629944 -0.62706232 2.3270009 5.2805691e-39
-0.21948929 -0.61919713 2.3369167 5.2805691e-39
-0.18532403 -0.62321872 2.353754 5.2805691e-39
-0.14424486 -0.63402587 2.3531818 5.2805691e-39
-0.055990979 -0.63508636 2.3514707 5.2805691e-39
-0.017178733 -0.63460875 2.3536675 5.2805691e-39
0.015095932 -0.63238126 2.3546369 5.2805691e-39
0.051514026 -0.63546658 2.3517277 5.2805691e-39
0.14872934 -0.63490802 2.3590002 5.2805691e-39
0.18968524 -0.63470215 2.3570004 5.2805691e-39
0.21193556 -0.62981558 2.3590002 5.2805691e-39
0.26735336 -0.63580668 2.3590002 5.2805691e-39
0.30910084 -0.63520783 2.354429 5.2805691e-39
0.33571345 -0.63370442 2.3551912 5.2805691e-39
0.37794116 -0.63587117 2.352143 5.2805691e-39
1.07166 -0.63356006 2.3590002 5.2805691e-39
1.1034133 -0.62014771 2.3486586 5.2805691e-39
1.1335822 -0.61894763 2.3301525 5.2805691e-39
-0.2136241 -0.57990402 2.3291554 5.2805691e-39
-0.18223603 -0.57806051 2.3455887 5.2805691e-39
-0.15591869 -0.56660938 2.3590002 5.2805691e-39
1.0792849 -0.56512856 2.3270001 5.2805691e-39
1.1020781 -0.57816875 2.341979 5.2805691e-39
1.1279519 -0.57856184 2.3281848 5.2805691e-39
-0.20647508 -0.54998469 2.3269999 5.2805691e-39
-0.17916323 -0.53967422 2.3327146 5.2805691e-39
-0.15033662 -0.5379281 2.3540008 5.2805691e-39
1.0760322 -0.53587145 2.3470001 5.2805691e-39
1.0975246 -0.54398417 2.3384876 5.2805691e-39
1.1302571 -0.55094498 2.3269999 5.2805691e-39
-0.1660396 -0.50512838 2.327842 5.2805691e-39
-0.14201488 -0.50071669 2.3442979 5.2805691e-39
-0.11401834 -0.4880884 2.3590002 5.2805691e-39
1.0660543 -0.49712434 2.3501844 5.2805691e-39
1.0897341 -0.49905062 2.3382735 5.2805691e-39
-0.16178192 -0.4742648 2.3270001 5.2805691e-39
-0.13782319 -0.46086797 2.3304789 5.2805691e-39
-0.10263772 -0.4592101 2.3490961 5.2805691e-39
-0.078633346 -0.45045671 2.3590002 5.2805691e-39
1.0584869 -0.4707078 2.3390002 5.2805691e-39
1.1045493 -0.47249183 2.3269999 5.2805691e-39
-0.12964717 -0.42412359 2.3270004 5.2805691e-39
-0.10021093 -0.42101327 2.3388524 5.2805691e-39
-0.076027632 -0.41575733 2.3578579 5.2805691e-39
1.0265472 -0.41665646 2.353323 5.2805691e-39
1.0409549 -0.41628477 2.3526003 5.2805691e-39
-0.095628925 -0.38057429 2.3303027 5.2805691e-39
-0.061399762 -0.37938255 2.35006 5.2805691e-39
-0.035333943 -0.37233397 2.3590004 5.2805691e-39
-0.089665875 -0.34171268 2.3270009 5.2805691e-39
-0.060202193 -0.33977577 2.3332009 5.2805691e-39
-0.03220021 -0.33634761 2.3555722 5.2805691e-39
-0.054048609 -0.3019256 2.3290756 5.2805691e-39
-0.021044411 -0.29905313 2.3457434 5.2805691e-39
0.0035261228 -0.29183039 2.354429 5.2805691e-39
-0.044570051 -0.27062148 2.3269999 5.2805691e-39
-0.018663434 -0.26077825 2.3316939 5.2805691e-39
0.0097691249 -0.25499424 2.3507423 5.2805691e-39
-0.012384593 -0.22696404 2.3270006 5.2805691e-39
0.018722335 -0.2185854 2.3400474 5.2805691e-39
0.044184446 -0.2104378 2.3590002 5.2805691e-39
0.023487765 -0.1804345 2.3308794 5.2805691e-39
0.053888235 -0.17941348 2.3487608 5.2805691e-39
0.086978108 -0.16978385 2.3590002 5.2805691e-39
0.031765398 -0.15513334 2.3270001 5.2805691e-39
0.060430843 -0.14267793 2.3381524 5.2805691e-39
0.084410481 -0.14988476 2.3590002 5.2805691e-39
-0.099535823 -0.64068049 2.3796923 5.2805691e-39
-0.076182865 -0.64020574 2.3880002 5.2805691e-39
-0.015840001 -0.64038861 2.3760002 5.2805691e-39
0.073333338 -0.64030737 2.3813338 5.2805691e-39
0.10296281 -0.64269692 2.3794782 5.2805691e-39
0.13026287 -0.64232111 2.3847275 5.2805691e-39
0.17424001 -0.64038861 2.3760002 5.2805691e-39
0.22604649 -0.64211971 2.3813334 5.2805691e-39
0.25764248 -0.64038861 2.3760004 5.2805691e-39
0.29700032 -0.64031887 2.3805718 5.2805691e-39
0.37991241 -0.64262104 2.378 5.2805691e-39
0.4233478 -0.64266765 2.3815653 5.2805691e-39
0.46130526 -0.64530814 2.3779995 5.2805691e-39
0.50084561 -0.64672202 2.383466 5.2805691e-39
0.53906733 -0.6429832 2.3776841 5.2805691e-39
0.58435816 -0.64370412 2.3842752 5.2805691e-39
0.61997938 -0.64680785 2.3835287 5.2805691e-39
0.65874183 -0.64769435 2.3862557 5.2805691e-39
0.70127481 -0.64808935 2.3847268 5.2805691e-39
0.73859268 -0.65032411 2.390358 5.2805691e-39
0.78185731 -0.64963436 2.3861811 5.2805691e-39
0.82276738 -0.65052909 2.3844204 5.2805691e-39
0.86006546 -0.65276307 2.3885083 5.2805691e-39
0.89722657 -0.65111142 2.386867 5.2805691e-39
0.93793935 -0.64478868 2.3849401 5.2805691e-39
0.98147476 -0.64635342 2.3838041 5.2805691e-39
1.0215729 -0.64415812 2.3819256 5.2805691e-39
1.0527716 -0.64222038 2.3810525 5.2805691e-39
1.1110629 -0.64944005 2.3760002 5.2805691e-39
-0.16915393 -0.61891669 2.382709 5.2805691e-39
-0.14093003 -0.62272584 2.388799 5.2805691e-39
-0.10266134 -0.62834394 2.3882782 5.2805691e-39
-0.059897423 -0.62715602 2.388088 5.2805691e-39
-0.022075875 -0.62721288 2.3879991 5.2805691e-39
0.022383964 -0.62701029 2.3890519 5.2805691e-39
0.061338611 -0.62505496 2.3881371 5.2805691e-39
0.10202762 -0.62949198 2.3904991 5.2805691e-39
0.13889755 -0.62547004 2.388217 5.2805691e-39
0.17923206 -0.62753713 2.385999 5.2805691e-39
0.21891488 -0.62610817 2.3862119 5.2805691e-39
0.25976053 -0.6291278 2.3836186 5.2805691e-39
0.29973012 -0.63071495 2.3878849 5.2805691e-39
0.33874747 -0.6267634 2.3887992 5.2805691e-39
0.38045043 -0.63202697 2.388705 5.2805691e-39
0.42194957 -0.62978607 2.3899992 5.2805691e-39
0.45769507 -0.62844741 2.3890517 5.2805691e-39
0.49989662 -0.63199306 2.3913326 5.2805691e-39
0.54091793 -0.63266963 2.3881373 5.2805691e-39
0.57718658 -0.63144654 2.3919997 5.2805691e-39
0.61533892 -0.63406986 2.3920002 5.2805691e-39
0.67051947 -0.63558859 2.3920002 5.2805691e-39
0.68570679 -0.63558859 2.3920002 5.2805691e-39
0.73696387 -0.63558859 2.3920002 5.2805691e-39
0.79961145 -0.63558859 2.3920002 5.2805691e-39
0.94540966 -0.63558859 2.3920002 5.2805691e-39
0.98272955 -0.63391423 2.3899999 5.2805691e-39
1.015322 -0.63361233 2.3909998 5.2805691e-39
1.0673834 -0.62677956 2.3877063 5.2805691e-39
1.0891911 -0.61475855 2.3819423 5.2805691e-39
-0.16456243 -0.59174311 2.3789091 5.2805691e-39
-0.13852353 -0.58030605 2.3883066 5.2805691e-39
-0.11488111 -0.57245284 2.3920002 5.2805691e-39
1.074384 -0.57764858 2.3884993 5.2805691e-39
1.0857537 -0.58652359 2.3819256 5.2805691e-39
-0.13181715 -0.54481077 2.3819528 5.2805691e-39
-0.10636951 -0.53698814 2.391999 5.2805691e-39
1.0709406 -0.53888363 2.3874865 5.2805691e-39
1.0845867 -0.55080765 2.3800001 5.2805691e-39
-0.12596573 -0.51517719 2.3760002 5.2805691e-39
-0.10040162 -0.5016802 2.3824515 5.2805691e-39
-0.074388161 -0.49163511 2.3911111 5.2805691e-39
1.0570048 -0.50204194 2.3842044 5.2805691e-39
1.0953432 -0.50891733 2.3792005 5.2805691e-39
-0.084857143 -0.47406861 2.3760002 5.2805691e-39
-0.06215531 -0.45806617 2.3852198 5.2805691e-39
1.0287328 -0.44841403 2.3880002 5.2805691e-39
1.0518979 -0.46149066 2.3862853 5.2805691e-39
-0.058194708 -0.4221203 2.3844206 5.2805691e-39
-0.028290253 -0.40947494 2.3904757 5.2805691e-39
1.0255038 -0.4287124 2.3769999 5.2805691e-39
1.0494554 -0.43520385 2.3800004 5.2805691e-39
-0.049028575 -0.39449143 2.3760002 5.2805691e-39
-0.01839162 -0.3809633 2.3871992 5.2805691e-39
0.0068342863 -0.36221716 2.3920002 5.2805691e-39
-0.013881905 -0.34271178 2.3809996 5.2805691e-39
0.015780682 -0.33642846 2.3902848 5.2805691e-39
-0.0037714287 -0.31755432 2.3760002 5.2805691e-39
0.022853728 -0.29981127 2.3866665 5.2805691e-39
0.046755198 -0.2960439 2.3919997 5.2805691e-39
0.027357584 -0.26288828 2.3832719 5.2805691e-39
0.052362584 -0.25807452 2.390358 5.2805691e-39
0.035235923 -0.23372082 2.3760004 5.2805691e-39
0.061684199 -0.2209467 2.3869205 5.2805691e-39
0.087603129 -0.21020608 2.3920002 5.2805691e-39
0.072411433 -0.18167509 2.3759999 5.2805691e-39
0.097132564 -0.17623235 2.3827994 5.2805691e-39
0.092777155 -0.15500574 2.3760002 5.2805691e-39
0.63551718 -0.64010572 2.4090002 5.2805691e-39
0.65616578 -0.64436656 2.4090002 5.2805691e-39
0.70893431 -0.64010572 2.4090002 5.2805691e-39
0.74768227 -0.64316481 2.4090002 5.2805691e-39
0.77398854 -0.64468348 2.4107895 5.2805691e-39
0.82364863 -0.64102346 2.4090002 5.2805691e-39
0.85806292 -0.64174449 2.4090002 5.2805691e-39
0.89906883 -0.64055419 2.4107003 5.2805691e-39
0.92551488 -0.64102346 2.4090002 5.2805691e-39
-0.13208531 -0.61191899 2.4090002 5.2805691e-39
-0.095936485 -0.61212891 2.4094038 5.2805691e-39
-0.060461178 -0.61122477 2.4089994 5.2805691e-39
-0.019307941 -0.61020881 2.4124761 5.2805691e-39
0.020597279 -0.61127687 2.414099 5.2805691e-39
0.059646882 -0.60807526 2.4117417 5.2805691e-39
0.098475434 -0.61327434 2.4114273 5.2805691e-39
0.13975334 -0.60875124 2.4140532 5.2805691e-39
0.18014021 -0.61236215 2.4140997 5.2805691e-39
0.21872394 -0.61267805 2.4190934 5.2805691e-39
0.26249641 -0.61626923 2.4165559 5.2805691e-39
0.30038893 -0.61358595 2.4127445 5.2805691e-39
0.34015489 -0.61037016 2.4147949 5.2805691e-39
0.37902468 -0.61331332 2.4119666 5.2805691e-39
0.41820326 -0.61382216 2.4102581 5.2805691e-39
0.46010119 -0.61567783 2.4149492 5.2805691e-39
0.50011522 -0.61899471 2.4126952 5.2805691e-39
0.53940773 -0.62069255 2.414063 5.2805691e-39
0.57879084 -0.62379622 2.4150712 5.2805691e-39
0.6193139 -0.62958241 2.418808 5.2805691e-39
0.66027462 -0.62822515 2.4178684 5.2805691e-39
0.69755745 -0.62545848 2.4163766 5.2805691e-39
0.73951602 -0.62873018 2.4155378 5.2805691e-39
0.77906066 -0.63258171 2.420769 5.2805691e-39
0.81903565 -0.63098615 2.4167271 5.2805691e-39
0.85674441 -0.63015717 2.4156969 5.2805691e-39
0.90142393 -0.63188684 2.4203329 5.2805691e-39
0.93927813 -0.62989879 2.4168468 5.2805691e-39
0.97929978 -0.62504542 2.4139106 5.2805691e-39
1.0198064 -0.62422305 2.4142895 5.2805691e-39
1.0605838 -0.61893189 2.413017 5.2805691e-39
-0.12503858 -0.59766144 2.4090002 5.2805691e-39
-0.097068891 -0.58146596 2.4092343 5.2805691e-39
-0.064811602 -0.58470541 2.4202204 5.2805691e-39
-0.029441804 -0.5980317 2.4203336 5.2805691e-39
0.025323493 -0.59854513 2.4203334 5.2805691e-39
0.048384003 -0.59857148 2.4192002 5.2805691e-39
0.11783429 -0.59841335 2.4260001 5.2805691e-39
0.12476572 -0.59841335 2.4260001 5.2805691e-39
0.29574096 -0.59841335 2.4260001 5.2805691e-39
0.34195048 -0.59841335 2.4260001 5.2805691e-39
0.38122857 -0.59841341 2.4260004 5.2805691e-39
0.41655546 -0.59857154 2.4192004 5.2805691e-39
1.0648667 -0.58114666 2.415652 5.2805691e-39
-0.088297218 -0.5430904 2.4089994 5.2805691e-39
-0.063081756 -0.53735882 2.4123383 5.2805691e-39
-0.039278094 -0.52447814 2.4260001 5.2805691e-39
1.0595709 -0.54190075 2.4139991 5.2805691e-39
1.0806086 -0.53915721 2.4090002 5.2805691e-39
-0.080300003 -0.51621431 2.4090002 5.2805691e-39
-0.056739453 -0.50183094 2.4089985 5.2805691e-39
-0.028852699 -0.49801034 2.4203334 5.2805691e-39
1.0393115 -0.4990072 2.4090002 5.2805691e-39
1.047812 -0.50009006 2.4124 5.2805691e-39
1.1081401 -0.51162577 2.4090002 5.2805691e-39
-0.048180006 -0.47440735 2.4090002 5.2805691e-39
-0.021566277 -0.45949137 2.4164505 5.2805691e-39
0.0023104763 -0.44823241 2.4260001 5.2805691e-39
1.0311372 -0.4592897 2.4170527 5.2805691e-39
1.0514488 -0.46612304 2.4109616 5.2805691e-39
-0.043591432 -0.43132573 2.4090002 5.2805691e-39
-0.018408954 -0.42486319 2.4108074 5.2805691e-39
0.013531049 -0.41165665 2.4191999 5.2805691e-39
1.0301344 -0.42536059 2.4090002 5.2805691e-39
-0.0022942859 -0.3900286 2.4090002 5.2805691e-39
0.020525565 -0.37977415 2.4154043 5.2805691e-39
0.05132715 -0.36903667 2.4217501 5.2805691e-39
0.034159366 -0.34541744 2.4090002 5.2805691e-39
0.053512175 -0.33842072 2.4164627 5.2805691e-39
0.062817343 -0.30042589 2.4153743 5.2805691e-39
0.084563427 -0.28603694 2.4260004 5.2805691e-39
0.070634514 -0.26310995 2.4103081 5.2805691e-39
0.096952848 -0.25825039 2.4184711 5.2805691e-39
0.075711429 -0.23172288 2.4090002 5.2805691e-39
0.10290997 -0.22201751 2.4119298 5.2805691e-39
0.12245524 -0.22134362 2.4260004 5.2805691e-39
0.10923389 -0.19027443 2.4154763 5.2805691e-39
0.12216921 -0.17289177 2.4203334 5.2805691e-39
-0.011636572 -0.60250819 2.4464002 5.2805691e-39
0.021010544 -0.60236055 2.4514999 5.2805691e-39
0.069024444 -0.60338223 2.4430001 5.2805691e-39
0.096636079 -0.60451436 2.4486668 5.2805691e-39
0.14813609 -0.60331851 2.4476368 5.2805691e-39
0.1794685 -0.60408622 2.4498003 5.2805691e-39
0.22233735 -0.60533768 2.4475775 5.2805691e-39
0.25887147 -0.60718954 2.4500837 5.2805691e-39
0.30080476 -0.60260671 2.4430001 5.2805691e-39
0.3406769 -0.60278934 2.4500835 5.2805691e-39
0.36188811 -0.60236049 2.4514999 5.2805691e-39
0.43408534 -0.60231125 2.4532001 5.2805691e-39
0.46158007 -0.60553974 2.4534998 5.2805691e-39
0.50042248 -0.60671842 2.4551461 5.2805691e-39
0.54203784 -0.60727161 2.4519999 5.2805691e-39
0.5824542 -0.61169052 2.4513109 5.2805691e-39
0.62094462 -0.6146912 2.4528031 5.2805691e-39
0.66027051 -0.61228621 2.4575689 5.2805691e-39
0.70127994 -0.60858971 2.4571598 5.2805691e-39
0.74032027 -0.61260033 2.459964 5.2805691e-39
0.77906877 -0.61535954 2.4594324 5.2805691e-39
0.81948936 -0.61633146 2.4670804 5.2805691e-39
0.85774344 -0.61468089 2.4616215 5.2805691e-39
0.89934719 -0.61680532 2.4634929 5.2805691e-39
0.94004726 -0.6141963 2.4626565 5.2805691e-39
0.9761408 -0.6105988 2.4575684 5.2805691e-39
1.0176066 -0.6096791 2.4568293 5.2805691e-39
1.052824 -0.61182517 2.4514999 5.2805691e-39
-0.049576093 -0.58078665 2.4471035 5.2805691e-39
-0.021182008 -0.58253396 2.4585831 5.2805691e-39
0.018979348 -0.58336389 2.4699144 5.2805691e-39
0.059734076 -0.58757192 2.4650307 5.2805691e-39
0.099226423 -0.59139305 2.4674037 5.2805691e-39
0.14044093 -0.58431435 2.4655795 5.2805691e-39
0.17957474 -0.5859828 2.4694576 5.2805691e-39
0.21966428 -0.58489215 2.4700155 5.2805691e-39
0.25998852 -0.58794403 2.4681165 5.2805691e-39
0.29913831 -0.58966005 2.4647262 5.2805691e-39
0.33914113 -0.58808738 2.4687576 5.2805691e-39
0.3792814 -0.58810645 2.4674671 5.2805691e-39
0.42003369 -0.58853024 2.4672241 5.2805691e-39
0.45901254 -0.58770955 2.4745374 5.2805691e-39
0.50204897 -0.58864516 2.4759533 5.2805691e-39
0.53864914 -0.58511823 2.4718122 5.2805691e-39
0.58137363 -0.59079021 2.4705355 5.2805691e-39
0.62000239 -0.59160417 2.4723153 5.2805691e-39
0.65439439 -0.59303427 2.4780004 5.2805691e-39
0.70297462 -0.59502095 2.4760005 5.2805691e-39
0.74211287 -0.59579277 2.4780006 5.2805691e-39
0.77785832 -0.59219187 2.4773083 5.2805691e-39
0.82269603 -0.59613609 2.4780004 5.2805691e-39
0.85710919 -0.59579277 2.4780006 5.2805691e-39
0.88028008 -0.59707999 2.4780002 5.2805691e-39
0.94378555 -0.59021467 2.4780006 5.2805691e-39
0.9758088 -0.59319603 2.4772179 5.2805691e-39
1.0240051 -0.58281392 2.4683475 5.2805691e-39
1.0529625 -0.58091527 2.4521072 5.2805691e-39
-0.047411434 -0.551148 2.4486668 5.2805691e-39
-0.020041514 -0.54253864 2.4552259 5.2805691e-39
0.015721271 -0.53882056 2.4733319 5.2805691e-39
1.0255524 -0.53952682 2.4691443 5.2805691e-39
1.0484838 -0.54159302 2.4527748 5.2805691e-39
-0.0090793762 -0.50407863 2.44769 5.2805691e-39
0.018365819 -0.49936634 2.4680455 5.2805691e-39
0.049402669 -0.49528545 2.4779999 5.2805691e-39
0.99828005 -0.49324006 2.4780002 5.2805691e-39
1.0210246 -0.49887165 2.4618745 5.2805691e-39
1.0458491 -0.50159562 2.446696 5.2805691e-39
-0.0023266668 -0.47231334 2.4430003 5.2805691e-39
0.022511378 -0.46108437 2.4567256 5.2805691e-39
0.057677943 -0.45894378 2.4698482 5.2805691e-39
0.084959999 -0.44132 2.4780002 5.2805691e-39
0.98792142 -0.45177889 2.4762862 5.2805691e-39
1.0233841 -0.46435264 2.4609087 5.2805691e-39
1.0429734 -0.467976 2.45 5.2805691e-39
-0.0023266666 -0.43741333 2.4430001 5.2805691e-39
0.026211292 -0.42806986 2.4478574 5.2805691e-39
0.060338773 -0.41913763 2.4673634 5.2805691e-39
0.09473902 -0.4159947 2.4775493 5.2805691e-39
0.9855361 -0.435184 2.4780004 5.2805691e-39
1.0342834 -0.43892714 2.4514999 5.2805691e-39
1.0506626 -0.43030524 2.4691002 5.2805691e-39
0.037226666 -0.39553332 2.4430001 5.2805691e-39
0.064808331 -0.38172176 2.4534316 5.2805691e-39
0.098926306 -0.37968856 2.4706361 5.2805691e-39
0.12440574 -0.3644515 2.4780004 5.2805691e-39
0.82884419 -0.36542043 2.4754291 5.2805691e-39
0.072085544 -0.34255049 2.448174 5.2805691e-39
0.098600142 -0.33867741 2.4630868 5.2805691e-39
0.13101821 -0.33828774 2.4775257 5.2805691e-39
0.82940841 -0.34987587 2.4747276 5.2805691e-39
0.84252006 -0.33748004 2.4780002 5.2805691e-39
0.076115236 -0.30678764 2.4430001 5.2805691e-39
0.10238573 -0.30079466 2.452445 5.2805691e-39
0.1407976 -0.30025762 2.471612 5.2805691e-39
0.16933003 -0.29244334 2.4780006 5.2805691e-39
0.11710888 -0.27144447 2.4430001 5.2805691e-39
0.14062898 -0.26037043 2.4549704 5.2805691e-39
0.17524201 -0.25807101 2.4776313 5.2805691e-39
0.14051837 -0.22002123 2.4465084 5.2805691e-39
0.17851955 -0.21944839 2.4650886 5.2805691e-39
0.21085379 -0.21671313 2.4779999 5.2805691e-39
0.13831827 -0.19019297 2.4587426 5.2805691e-39
0.17464097 -0.19395779 2.4669998 5.2805691e-39
0.20768002 -0.19588001 2.4780002 5.2805691e-39
0.66797715 -0.60141718 2.4960001 5.2805691e-39
0.80585146 -0.60141718 2.4960001 5.2805691e-39
0.90535682 -0.60189527 2.4980001 5.2805691e-39
0.9247086 -0.60141718 2.4960001 5.2805691e-39
0.02984635 -0.57025021 2.4960001 5.2805691e-39
0.057909362 -0.5700537 2.5044999 5.2805691e-39
0.1011738 -0.57875717 2.5065515 5.2805691e-39
0.13562088 -0.56928128 2.5046895 5.2805691e-39
0.17985474 -0.56943977 2.5049996 5.2805691e-39
0.22049236 -0.56999606 2.5064206 5.2805691e-39
0.25818518 -0.57620454 2.5032001 5.2805691e-39
0.30168036 -0.57423413 2.5025451 5.2805691e-39
0.33928123 -0.57217014 2.5062859 5.2805691e-39
0.38129729 -0.56974912 2.5050001 5.2805691e-39
0.41857013 -0.57267433 2.5055296 5.2805691e-39
0.46111846 -0.57187384 2.5049999 5.2805691e-39
0.49885941 -0.57441854 2.5062859 5.2805691e-39
0.53979766 -0.56938553 2.5026312 5.2805691e-39
0.57693958 -0.57971442 2.5049996 5.2805691e-39
0.62460613 -0.58231193 2.5098462 5.2805691e-39
0.66160607 -0.5812279 2.5067236 5.2805691e-39
0.69869798 -0.58758456 2.5056925 5.2805691e-39
0.73858213 -0.58737755 2.5034633 5.2805691e-39
0.78112549 -0.58506948 2.504571 5.2805691e-39
0.81768292 -0.59109116 2.5062859 5.2805691e-39
0.86251724 -0.5893591 2.5083427 5.2805691e-39
0.90048563 -0.5916099 2.5060589 5.2805691e-39
0.9384104 -0.58455396 2.5047803 5.2805691e-39
0.98252976 -0.57602328 2.5048368 5.2805691e-39
1.0122111 -0.57764643 2.5035791 5.2805691e-39
0.032883812 -0.54713905 2.4960003 5.2805691e-39
0.054439634 -0.537458 2.5081306 5.2805691e-39
0.083800003 -0.52674294 2.5140002 5.2805691e-39
0.14619601 -0.55761772 2.5086002 5.2805691e-39
0.16760001 -0.5578686 2.5140002 5.2805691e-39
0.99454236 -0.54306209 2.5088568 5.2805691e-39
1.0085216 -0.54110682 2.5005002 5.2805691e-39
0.035657145 -0.51583999 2.4960001 5.2805691e-39
0.067435376 -0.50495416 2.501838 5.2805691e-39
0.088796772 -0.49624178 2.5140002 5.2805691e-39
0.99383253 -0.49771425 2.5095 5.2805691e-39
1.0040786 -0.50255162 2.5019996 5.2805691e-39
0.075728983 -0.46388248 2.4960001 5.2805691e-39
0.098048449 -0.45807806 2.5021367 5.2805691e-39
0.12210857 -0.45252001 2.5140002 5.2805691e-39
0.9869712 -0.46383384 2.4995995 5.2805691e-39
1.0102857 -0.46187884 2.4959996 5.2805691e-39
0.078445718 -0.43026286 2.4960001 5.2805691e-39
0.10723954 -0.42854202 2.4974995 5.2805691e-39
0.13328314 -0.41007119 2.5077 5.2805691e-39
1.0538666 -0.4334324 2.4960003 5.2805691e-39
0.11648 -0.38272002 2.4960001 5.2805691e-39
0.13899353 -0.38238221 2.5030007 5.2805691e-39
0.16041715 -0.37829715 2.5140002 5.2805691e-39
0.85484648 -0.36594072 2.5072501 5.2805691e-39
0.1493943 -0.34249142 2.4959993 5.2805691e-39
0.17102015 -0.33121717 2.5122857 5.2805691e-39
0.83913141 -0.34706289 2.4960001 5.2805691e-39
0.85303706 -0.34759241 2.5079999 5.2805691e-39
0.15926857 -0.31616002 2.4960001 5.2805691e-39
0.18627635 -0.30237928 2.5055003 5.2805691e-39
0.19400857 -0.26570165 2.4972856 5.2805691e-39
0.2130743 -0.2521278 2.5075715 5.2805691e-39
0.24341905 -0.24341905 2.5140004 5.2805691e-39
0.22376519 -0.22319408 2.4970911 5.2805691e-39
0.24756916 -0.23511887 2.5140002 5.2805691e-39
0.15187302 -0.18356827 2.4960001 5.2805691e-39
0.9669829 -0.60044575 2.5320001 5.2805691e-39
0.073682547 -0.56561399 2.5319998 5.2805691e-39
0.10244107 -0.56775743 2.5320005 5.2805691e-39
0.1261981 -0.56347048 2.5320001 5.2805691e-39
0.18913896 -0.56344134 2.5371819 5.2805691e-39
0.2162203 -0.565162 2.5336528 5.2805691e-39
0.2618196 -0.56818563 2.5404994 5.2805691e-39
0.29781613 -0.56493533 2.5362225 5.2805691e-39
0.34026527 -0.56490886 2.5320003 5.2805691e-39
0.37748134 -0.56408882 2.5319998 5.2805691e-39
0.42165554 -0.5639298 2.5320001 5.2805691e-39
0.4624649 -0.56383801 2.5347145 5.2805691e-39
0.49849337 -0.56507975 2.5361304 5.2805691e-39
0.54016 -0.56507808 2.5320003 5.2805691e-39
0.58278865 -0.56800979 2.5347939 5.2805691e-39
0.61848259 -0.56896478 2.5359585 5.2805691e-39
0.66012657 -0.56549495 2.5355184 5.2805691e-39
0.70062447 -0.57102388 2.5404446 5.2805691e-39
0.74111503 -0.56991637 2.5354893 5.2805691e-39
0.78160661 -0.57242686 2.5411339 5.2805691e-39
0.82077336 -0.57301509 2.5392196 5.2805691e-39
0.85825235 -0.57502598 2.5408211 5.2805691e-39
0.89938289 -0.57450408 2.5401428 5.2805691e-39
0.9398731 -0.57089716 2.541702 5.2805691e-39
0.97274071 -0.56798965 2.5330558 5.2805691e-39
0.071860559 -0.54884118 2.5320003 5.2805691e-39
0.10270671 -0.54202056 2.5396605 5.2805691e-39
0.13953528 -0.54159796 2.5461059 5.2805691e-39
0.17496361 -0.55326748 2.5449545 5.2805691e-39
0.22071993 -0.54928249 2.5468292 5.2805691e-39
0.25839159 -0.55024815 2.5509999 5.2805691e-39
0.30236855 -0.54669231 2.5496435 5.2805691e-39
0.33889729 -0.55116528 2.5422704 5.2805691e-39
0.37989798 -0.55215216 2.5418065 5.2805691e-39
0.42171049 -0.5525192 2.5465293 5.2805691e-39
0.45896181 -0.55116314 2.5481215 5.2805691e-39
0.50371426 -0.55011547 2.5458655 5.2805691e-39
0.537916 -0.54676318 2.5449367 5.2805691e-39
0.57444155 -0.55386853 2.5487647 5.2805691e-39
0.62030113 -0.55409515 2.55 5.2805691e-39
0.65947574 -0.5519374 2.5488889 5.2805691e-39
0.69848818 -0.55433637 2.5510006 5.2805691e-39
0.7398594 -0.55243719 2.5485215 5.2805691e-39
0.77432406 -0.55393153 2.5510004 5.2805691e-39
0.81335062 -0.55420142 2.5510004 5.2805691e-39
0.86734003 -0.55636096 2.5510001 5.2805691e-39
0.95133221 -0.55497271 2.5510004 5.2805691e-39
0.98021954 -0.54084456 2.5400603 5.2805691e-39
1.0007429 -0.54064226 2.5320001 5.2805691e-39
0.10710269 -0.50269461 2.5319993 5.2805691e-39
0.13942358 -0.49969199 2.5485821 5.2805691e-39
0.16277811 -0.48995399 2.5510001 5.2805691e-39
0.94883728 -0.49253884 2.5476072 5.2805691e-39
0.97749382 -0.50116307 2.5344911 5.2805691e-39
1.0007429 -0.51845711 2.5320001 5.2805691e-39
0.1137756 -0.47373617 2.5319998 5.2805691e-39
0.1403528 -0.4607082 2.5403476 5.2805691e-39
0.16628741 -0.45971993 2.5509999 5.2805691e-39
0.94649559 -0.47274154 2.5356197 5.2805691e-39
0.97505766 -0.47145107 2.5356545 5.2805691e-39
1.0332971 -0.46661144 2.5320001 5.2805691e-39
1.0525904 -0.45884681 2.544667 5.2805691e-39
0.14300017 -0.42696378 2.535167 5.2805691e-39
0.17655578 -0.41963342 2.5457225 5.2805691e-39
1.0634401 -0.4364686 2.5320001 5.2805691e-39
0.15674286 -0.39065143 2.5320001 5.2805691e-39
0.17913526 -0.38046014 2.53844 5.2805691e-39
0.20812923 -0.3726427 2.5509999 5.2805691e-39
0.86806804 -0.38134381 2.546778 5.2805691e-39
0.1820986 -0.34731218 2.5324745 5.2805691e-39
0.21761173 -0.33885807 2.5448706 5.2805691e-39
0.24149466 -0.32992935 2.5510004 5.2805691e-39
0.85057545 -0.34534457 2.5358002 5.2805691e-39
0.21986406 -0.29959506 2.5367491 5.2805691e-39
0.25508222 -0.29629496 2.5494599 5.2805691e-39
0.22738354 -0.26554087 2.5319998 5.2805691e-39
0.26193962 -0.262418 2.5427248 5.2805691e-39
0.28654468 -0.26180607 2.5425558 5.2805691e-39
0.2604343 -0.23873143 2.5320001 5.2805691e-39
0.71225721 -0.56050479 2.5700002 5.2805691e-39
0.83463812 -0.56050479 2.5700002 5.2805691e-39
0.85688925 -0.56228495 2.5699999 5.2805691e-39
0.90439534 -0.56254458 2.5699999 5.2805691e-39
0.93254292 -0.56295246 2.5699999 5.2805691e-39
0.15699729 -0.52763683 2.5700002 5.2805691e-39
0.18241321 -0.53684032 2.5815935 5.2805691e-39
0.22187369 -0.53458309 2.5788665 5.2805691e-39
0.25932503 -0.53976971 2.5814002 5.2805691e-39
0.29803655 -0.53222126 2.5783122 5.2805691e-39
0.33924344 -0.53948998 2.5805557 5.2805691e-39
0.38258815 -0.54233307 2.5791721 5.2805691e-39
0.42015344 -0.53931284 2.5814993 5.2805691e-39
0.45976707 -0.5366028 2.5783825 5.2805691e-39
0.49663505 -0.53748649 2.579771 5.2805691e-39
0.54055113 -0.53070694 2.5811379 5.2805691e-39
0.58096272 -0.54640627 2.5782335 5.2805691e-39
0.62096357 -0.54459852 2.582 5.2805691e-39
0.66161042 -0.54013938 2.5794995 5.2805691e-39
0.70023721 -0.54434288 2.5775993 5.2805691e-39
0.74016798 -0.54328972 2.5798063 5.2805691e-39
0.77734864 -0.54448533 2.5779674 5.2805691e-39
0.81841975 -0.54981744 2.578517 5.2805691e-39
0.8604871 -0.5511921 2.5817933 5.2805691e-39
0.9052695 -0.54458821 2.5842493 5.2805691e-39
0.94181961 -0.54561281 2.5843649 5.2805691e-39
0.96591079 -0.53621209 2.5736537 5.2805691e-39
0.15787144 -0.5127762 2.5700002 5.2805691e-39
0.17434965 -0.49825317 2.5781429 5.2805691e-39
0.91736805 -0.50866383 2.5852003 5.2805691e-39
0.93716669 -0.50094903 2.5807176 5.2805691e-39
0.96354616 -0.51481593 2.5700002 5.2805691e-39
0.18684518 -0.46060786 2.5802701 5.2805691e-39
0.21564762 -0.45567992 2.5853224 5.2805691e-39
0.91478008 -0.44629431 2.5890005 5.2805691e-39
0.94308132 -0.45831779 2.5869453 5.2805691e-39
0.9721539 -0.46739161 2.5784447 5.2805691e-39
1.0573715 -0.46015239 2.5700002 5.2805691e-39
0.1972781 -0.42245904 2.5699999 5.2805691e-39
0.22062184 -0.42005682 2.578907 5.2805691e-39
0.24410574 -0.41670576 2.5890002 5.2805691e-39
0.87039721 -0.40314433 2.5890002 5.2805691e-39
0.89768457 -0.41571945 2.5890005 5.2805691e-39
0.93532771 -0.43560955 2.5890005 5.2805691e-39
0.22577007 -0.38409358 2.5764995 5.2805691e-39
0.24918702 -0.37062383 2.5847781 5.2805691e-39
0.86571586 -0.38684592 2.5763335 5.2805691e-39
0.89142287 -0.39308766 2.5700002 5.2805691e-39
0.92710865 -0.38958287 2.5890002 5.2805691e-39
0.23741907 -0.35735241 2.5700002 5.2805691e-39
0.25863934 -0.33849379 2.5781426 5.2805691e-39
0.2884886 -0.3230086 2.5890002 5.2805691e-39
0.83668292 -0.32142827 2.5763335 5.2805691e-39
0.85566491 -0.34413612 2.5842505 5.2805691e-39
0.26880616 -0.30825612 2.5699999 5.2805691e-39
0.29076174 -0.29969794 2.5847781 5.2805691e-39
0.83770531 -0.31691003 2.5795002 5.2805691e-39
0.84080863 -0.31807715 2.5890002 5.2805691e-39
0.29270226 -0.27303684 2.5826669 5.2805691e-39
0.2142417 -0.52870214 2.6090007 5.2805691e-39
0.26375282 -0.52978897 2.6125724 5.2805691e-39
0.29224065 -0.52662718 2.6148829 5.2805691e-39
0.34191206 -0.52913558 2.6114004 5.2805691e-39
0.37708864 -0.53056121 2.6112866 5.2805691e-39
0.41945153 -0.52783436 2.6090009 5.2805691e-39
0.4611426 -0.52720803 2.6090007 5.2805691e-39
0.50357848 -0.52759778 2.6090007 5.2805691e-39
0.53819942 -0.52577567 2.6090004 5.2805691e-39
0.58387709 -0.53193194 2.6158421 5.2805691e-39
0.62075263 -0.52980286 2.6171083 5.2805691e-39
0.65846241 -0.5291388 2.6144552 5.2805691e-39
0.70398098 -0.52961284 2.6125724 5.2805691e-39
0.73996311 -0.52967501 2.6137373 5.2805691e-39
0.78233147 -0.53048265 2.6158576 5.2805691e-39
0.82088184 -0.53369933 2.6180201 5.2805691e-39
0.86062175 -0.53499097 2.6128304 5.2805691e-39
0.8988055 -0.53580666 2.6142638 5.2805691e-39
0.94703698 -0.53662282 2.6090009 5.2805691e-39
0.96160299 -0.53919333 2.6090002 5.2805691e-39
0.19203661 -0.50369686 2.6090009 5.2805691e-39
0.21895756 -0.50258416 2.6124368 5.2805691e-39
0.25710616 -0.50248867 2.6264539 5.2805691e-39
0.30326614 -0.51310152 2.6252968 5.2805691e-39
0.33977944 -0.51143932 2.6263685 5.2805691e-39
0.38077334 -0.51163071 2.6250002 5.2805691e-39
0.41958508 -0.51200277 2.6199999 5.2805691e-39
0.46013328 -0.51153576 2.6226585 5.2805691e-39
0.50245684 -0.51452541 2.6206131 5.2805691e-39
0.5401482 -0.50993311 2.6227779 5.2805691e-39
0.57838005 -0.51578486 2.6290002 5.2805691e-39
0.6209448 -0.51578474 2.6290002 5.2805691e-39
0.66598034 -0.51743555 2.6247146 5.2805691e-39
0.69609803 -0.51524723 2.6232862 5.2805691e-39
0.74363148 -0.51445919 2.6290002 5.2805691e-39
0.78163046 -0.51534289 2.6290002 5.2805691e-39
0.82124966 -0.51614249 2.6290002 5.2805691e-39
0.85265285 -0.51434577 2.6254711 5.2805691e-39
0.90831405 -0.49844202 2.6256666 5.2805691e-39
0.92794257 -0.49276099 2.6175718 5.2805691e-39
0.19629622 -0.47955909 2.6090002 5.2805691e-39
0.22658667 -0.47056654 2.6090009 5.2805691e-39
0.25787389 -0.46066806 2.6240873 5.2805691e-39
0.28293049 -0.44567811 2.6290002 5.2805691e-39
0.87549889 -0.45235497 2.6289999 5.2805691e-39
0.9009397 -0.4607209 2.6244826 5.2805691e-39
0.9334839 -0.46832609 2.611001 5.2805691e-39
0.23605241 -0.40501621 2.6090002 5.2805691e-39
0.26166573 -0.41993847 2.6198766 5.2805691e-39
0.29187265 -0.41473824 2.6290004 5.2805691e-39
0.86470693 -0.41894817 2.6176364 5.2805691e-39
0.89934653 -0.42322877 2.6116676 5.2805691e-39
0.9351123 -0.42025876 2.6124048 5.2805691e-39
0.96396673 -0.43065527 2.6290002 5.2805691e-39
0.26436016 -0.3814373 2.6100008 5.2805691e-39
0.29891884 -0.3791503 2.6269648 5.2805691e-39
0.32966828 -0.36847734 2.6289999 5.2805691e-39
0.86059725 -0.38201803 2.6200006 5.2805691e-39
0.92681628 -0.39259243 2.6090002 5.2805691e-39
0.2745662 -0.35159382 2.6090002 5.2805691e-39
0.30099922 -0.34108794 2.6149259 5.2805691e-39
0.32989854 -0.34060445 2.6290002 5.2805691e-39
0.83512431 -0.33467358 2.6245561 5.2805691e-39
0.85852683 -0.34206748 2.6190007 5.2805691e-39
0.30911657 -0.29917607 2.6104825 5.2805691e-39
0.33825636 -0.29881606 2.6203332 5.2805691e-39
0.373624 -0.2851561 2.6289999 5.2805691e-39
0.83244199 -0.30726308 2.6270959 5.2805691e-39
0.846066 -0.30350471 2.6160593 5.2805691e-39
0.30983075 -0.26892772 2.6090007 5.2805691e-39
0.33486 -0.27322882 2.6140006 5.2805691e-39
0.3819955 -0.2735053 2.6250007 5.2805691e-39
0.40311337 -0.27041143 2.6290002 5.2805691e-39
0.87543148 -0.52223146 2.6490002 5.2805691e-39
0.89951164 -0.5260101 2.6574218 5.2805691e-39
0.27415052 -0.50793529 2.6490002 5.2805691e-39
0.29728574 -0.49684635 2.654201 5.2805691e-39
0.3363235 -0.49862549 2.6577499 5.2805691e-39
0.37967157 -0.49959952 2.6606674 5.2805691e-39
0.42277408 -0.49836951 2.6593709 5.2805691e-39
0.45926198 -0.49614739 2.6590009 5.2805691e-39
0.49867532 -0.50390166 2.6607242 5.2805691e-39
0.53945029 -0.49367163 2.6608756 5.2805691e-39
0.58120656 -0.50425953 2.6607955 5.2805691e-39
0.61945421 -0.5041334 2.6587439 5.2805691e-39
0.6620189 -0.50488698 2.6624696 5.2805691e-39
0.70067132 -0.50448221 2.660429 5.2805691e-39
0.73954254 -0.50708836 2.6565003 5.2805691e-39
0.7815699 -0.5054993 2.6586778 5.2805691e-39
0.81906301 -0.49965674 2.6590002 5.2805691e-39
0.858073 -0.50601488 2.6601107 5.2805691e-39
0.89121234 -0.50070518 2.6587145 5.2805691e-39
0.27499145 -0.4667286 2.6490002 5.2805691e-39
0.29371074 -0.4595035 2.6564291 5.2805691e-39
0.81595147 -0.47533622 2.6690001 5.2805691e-39
0.86757469 -0.45228323 2.6590002 5.2805691e-39
0.88308638 -0.4735074 2.6547146 5.2805691e-39
0.30788597 -0.42576692 2.6507399 5.2805691e-39
0.32924268 -0.41826519 2.6672606 5.2805691e-39
0.85301578 -0.41807967 2.6578238 5.2805691e-39
0.95616293 -0.4187943 2.6490002 5.2805691e-39
0.96356624 -0.42418814 2.6590002 5.2805691e-39
0.31535718 -0.3960886 2.6490002 5.2805691e-39
0.34293395 -0.38304532 2.6561799 5.2805691e-39
0.36887529 -0.37545428 2.6689999 5.2805691e-39
0.82579398 -0.37126288 2.6633999 5.2805691e-39
0.8537221 -0.3806816 2.6637616 5.2805691e-39
0.88047719 -0.36076862 2.6490002 5.2805691e-39
0.34942934 -0.34101817 2.6506677 5.2805691e-39
0.37257671 -0.33689439 2.6654704 5.2805691e-39
0.40416288 -0.32790574 2.6690001 5.2805691e-39
0.82830358 -0.34109089 2.6602502 5.2805691e-39
0.84768003 -0.35404098 2.6490002 5.2805691e-39
0.38183397 -0.3047021 2.6583028 5.2805691e-39
0.41252369 -0.29958266 2.6682587 5.2805691e-39
0.82871979 -0.31446892 2.6556668 5.2805691e-39
0.41687238 -0.27706763 2.6690001 5.2805691e-39
0.9128921 -0.52177465 2.6900003 5.2805691e-39
0.31340635 -0.48590797 2.6900001 5.2805691e-39
0.34161678 -0.49250409 2.6900001 5.2805691e-39
0.37876779 -0.49030906 2.6899998 5.2805691e-39
0.41736913 -0.48797742 2.6943448 5.2805691e-39
0.4611429 -0.48676193 2.6899998 5.2805691e-39
0.50100607 -0.49116823 2.6899996 5.2805691e-39
0.53475499 -0.48727426 2.6900001 5.2805691e-39
0.5849489 -0.48837534 2.6938179 5.2805691e-39
0.61893356 -0.48829544 2.6959059 5.2805691e-39
0.65873498 -0.48809382 2.6983998 5.2805691e-39
0.70394242 -0.48986179 2.6908073 5.2805691e-39
0.74116796 -0.49136102 2.6928 5.2805691e-39
0.78127635 -0.49278381 2.7004995 5.2805691e-39
0.81158954 -0.48811457 2.6928 5.2805691e-39
0.86176074 -0.49204588 2.6900003 5.2805691e-39
0.88385719 -0.49188572 2.6900001 5.2805691e-39
0.31212538 -0.46797463 2.6900003 5.2805691e-39
0.33943379 -0.46267343 2.692451 5.2805691e-39
0.37882102 -0.46140274 2.7027373 5.2805691e-39
0.4174141 -0.46946791 2.7085288 5.2805691e-39
0.45958024 -0.4688164 2.6979334 5.2805691e-39
0.50203437 -0.47137177 2.7063324 5.2805691e-39
0.53989553 -0.47251835 2.7014546 5.2805691e-39
0.57821566 -0.46999082 2.708729 5.2805691e-39
0.62025309 -0.47149557 2.7109995 5.2805691e-39
0.66152871 -0.46777204 2.7099745 5.2805691e-39
0.70027524 -0.47348371 2.7039998 5.2805691e-39
0.73596156 -0.47108188 2.7088993 5.2805691e-39
0.78909737 -0.46459988 2.7044373 5.2805691e-39
0.81886095 -0.46376207 2.6973505 5.2805691e-39
0.86141956 -0.4666127 2.6970003 5.2805691e-39
0.88513815 -0.47267142 2.6900001 5.2805691e-39
0.34709394 -0.42412773 2.6900001 5.2805691e-39
0.37767991 -0.41936851 2.6988847 5.2805691e-39
0.40505531 -0.41204166 2.7109997 5.2805691e-39
0.83149511 -0.40452796 2.6926253 5.2805691e-39
0.84286666 -0.40734288 2.6900001 5.2805691e-39
0.92484766 -0.43808573 2.6900001 5.2805691e-39
0.38611567 -0.38055268 2.6900005 5.2805691e-39
0.4186267 -0.37723151 2.7084994 5.2805691e-39
0.44408765 -0.37437621 2.7110002 5.2805691e-39
0.79264486 -0.38986763 2.7110002 5.2805691e-39
0.8188985 -0.38064069 2.7016664 5.2805691e-39
0.85311431 -0.39343536 2.6900003 5.2805691e-39
0.39083281 -0.3455725 2.6899998 5.2805691e-39
0.420046 -0.33818787 2.6917808 5.2805691e-39
0.45521429 -0.33436233 2.7074995 5.2805691e-39
0.48539811 -0.32273811 2.7110002 5.2805691e-39
0.79633325 -0.33085269 2.7110002 5.2805691e-39
0.81550175 -0.33912292 2.7002943 5.2805691e-39
0.43222991 -0.29754698 2.6899996 5.2805691e-39
0.46082428 -0.30064735 2.7017598 5.2805691e-39
0.49087176 -0.29361424 2.7109995 5.2805691e-39
0.43004209 -0.27398786 2.6964617 5.2805691e-39
0.46067807 -0.2731618 2.6949995 5.2805691e-39
0.49543187 -0.27037525 2.7004998 5.2805691e-39
0.55201131 -0.26541984 2.7110002 5.2805691e-39
0.56506836 -0.26003474 2.711 5.2805691e-39
0.78346002 -0.48413143 2.733 5.2805691e-39
0.42482027 -0.45549041 2.7384012 5.2805691e-39
0.4612076 -0.4527266 2.7445865 5.2805691e-39
0.50157064 -0.45453072 2.7424843 5.2805691e-39
0.53991628 -0.45757815 2.7414007 5.2805691e-39
0.58063936 -0.45557678 2.7410009 5.2805691e-39
0.61799055 -0.45722851 2.7415316 5.2805691e-39
0.66038227 -0.45184785 2.7435005 5.2805691e-39
0.7007072 -0.4545216 2.7464173 5.2805691e-39
0.73796856 -0.45771766 2.747483 5.2805691e-39
0.78202736 -0.46085197 2.7392557 5.2805691e-39
0.80428284 -0.44769144 2.733 5.2805691e-39
0.42486781 -0.42371851 2.7403791 5.2805691e-39
0.46562621 -0.40902764 2.7540007 5.2805691e-39
0.4852286 -0.41178858 2.7540002 5.2805691e-39
0.67407435 -0.43427023 2.7540002 5.2805691e-39
0.69243431 -0.43277144 2.7540002 5.2805691e-39
0.79647428 -0.43988287 2.733 5.2805691e-39
0.80784005 -0.40129718 2.7540002 5.2805691e-39
0.43542081 -0.39451882 2.7330003 5.2805691e-39
0.46528217 -0.38091192 2.7414007 5.2805691e-39
0.48942515 -0.37751663 2.7540004 5.2805691e-39
0.78960788 -0.37593225 2.7357106 5.2805691e-39
0.80916327 -0.38294542 2.7330005 5.2805691e-39
0.46933916 -0.35012874 2.7411673 5.2805691e-39
0.49959898 -0.34004733 2.7414896 5.2805691e-39
0.5238561 -0.33644107 2.7539999 5.2805691e-39
0.79218501 -0.34802076 2.7421312 5.2805691e-39
0.80428284 -0.35398859 2.733 5.2805691e-39
0.50708854 -0.30236232 2.736819 5.2805691e-39
0.53896362 -0.29478088 2.7508183 5.2805691e-39
0.5639143 -0.29376 2.7540002 5.2805691e-39
0.5179686 -0.27069715 2.733 5.2805691e-39
0.54061419 -0.268601 2.7402699 5.2805691e-39
0.46327418 -0.44387922 2.7770002 5.2805691e-39
0.49834874 -0.44469786 2.7770002 5.2805691e-39
0.54191172 -0.44617134 2.7770002 5.2805691e-39
0.57920289 -0.44696483 2.7770002 5.2805691e-39
0.62093139 -0.44549546 2.7770002 5.2805691e-39
0.65085196 -0.44552219 2.7770004 5.2805691e-39
0.70615149 -0.44167528 2.7770002 5.2805691e-39
0.73637742 -0.44734263 2.7770002 5.2805691e-39
0.77808899 -0.4511964 2.7770004 5.2805691e-39
0.46226662 -0.42750683 2.7770002 5.2805691e-39
0.50133091 -0.42148888 2.7779782 5.2805691e-39
0.5374794 -0.42173553 2.7895722 5.2805691e-39
0.58225751 -0.43033051 2.7898972 5.2805691e-39
0.62109208 -0.42589825 2.793885 5.2805691e-39
0.65973133 -0.42617571 2.7908707 5.2805691e-39
0.70279723 -0.42134151 2.7852509 5.2805691e-39
0.73043823 -0.42087579 2.7868624 5.2805691e-39
0.50788552 -0.38349047 2.7770002 5.2805691e-39
0.53809255 -0.37908146 2.7933733 5.2805691e-39
0.57409793 -0.36811092 2.799 5.2805691e-39
0.73573714 -0.39452571 2.799 5.2805691e-39
0.54582733 -0.33862251 2.7803853 5.2805691e-39
0.57613343 -0.34129369 2.7983541 5.2805691e-39
0.65665436 -0.33676857 2.7990003 5.2805691e-39
0.54519886 -0.30981502 2.7770002 5.2805691e-39
0.58183777 -0.30856192 2.7930002 5.2805691e-39
0.54482102 -0.25918669 2.7770002 5.2805691e-39
0.55633712 -0.40851811 2.822 5.2805691e-39
0.5749265 -0.41590902 2.8219995 5.2805691e-39
0.62083995 -0.40724498 2.8219995 5.2805691e-39
0.65968829 -0.40729651 2.8219995 5.2805691e-39
0.70293456 -0.41022843 2.8220005 5.2805691e-39
0.74485457 -0.4069823 2.822 5.2805691e-39
0.55633712 -0.39508 2.822 5.2805691e-39
0.57826805 -0.38174945 2.8219995 5.2805691e-39
0.62084001 -0.38522539 2.8220003 5.2805691e-39
0.65040386 -0.39508 2.822 5.2805691e-39
0.71759427 -0.37626666 2.822 5.2805691e-39
0.73694515 -0.38755465 2.8220003 5.2805691e-39
0.59145534 -0.34276107 2.822 5.2805691e-39
0.61631352 -0.34274217 2.8219995 5.2805691e-39
0.65524155 -0.33487734 2.8220003 5.2805691e-39
0.59396386 -0.31982666 2.822 5.2805691e-39
0.62352765 -0.31982666 2.822 5.2805691e-39
