# .PCD v0.7 - Point Cloud Data file format
VERSION 0.7
FIELDS x y z rgb
SIZE 4 4 4 4
TYPE F F F F
COUNT 1 1 1 1
WIDTH 1028
HEIGHT 1
VIEWPOINT 0 0 0 1 0 0 0
POINTS 1028
DATA ascii
0.41862097 -0.66379726 2.224596 2.1595115e-38
0.46242458 -0.6629256 2.2260225 2.1595115e-38
0.5000062 -0.65605968 2.2202573 2.1595115e-38
0.5394758 -0.66012442 2.2199922 2.1595115e-38
0.57743609 -0.66009748 2.2216194 2.1595115e-38
0.61989963 -0.66143477 2.2188199 2.1595115e-38
0.65940702 -0.65410817 2.2204416 2.1595115e-38
0.70007938 -0.65022618 2.2165084 2.1595115e-38
0.73832572 -0.64812058 2.2109778 2.1595115e-38
0.78132385 -0.65139169 2.2163553 2.1595115e-38
0.81513697 -0.64889503 2.2116585 2.1595115e-38
0.89431524 -0.64377475 2.2080002 2.1595115e-38
0.48574859 -0.63701236 2.237 2.1595115e-38
0.56457615 -0.63701236 2.237 2.1595115e-38
0.66257805 -0.63701236 2.237 2.1595115e-38
0.70090687 -0.63583034 2.2349997 2.1595115e-38
0.73638785 -0.63530499 2.2217035 2.1595115e-38
0.78104842 -0.63532943 2.2255833 2.1595115e-38
0.8154375 -0.63418055 2.2236667 2.1595115e-38
0.86461335 -0.62486535 2.2322123 2.1595115e-38
0.89631027 -0.62410909 2.2270498 2.1595115e-38
0.94043911 -0.61530554 2.2268162 2.1595115e-38
0.97957098 -0.61089933 2.224875 2.1595115e-38
1.0095075 -0.60619074 2.2216876 2.1595115e-38
0.88627803 -0.59866381 2.237 2.1595115e-38
0.94380093 -0.59866381 2.237 2.1595115e-38
0.96972179 -0.59511304 2.2369998 2.1595115e-38
1.0187932 -0.57951432 2.2211757 2.1595115e-38
1.0409143 -0.56777143 2.2080002 2.1595115e-38
1.0139838 -0.5400874 2.21907 2.1595115e-38
0.99540573 -0.50444943 2.2369998 2.1595115e-38
1.0121139 -0.50108796 2.2233448 2.1595115e-38
0.99166352 -0.45291463 2.2349999 2.1595115e-38
1.0083494 -0.46502158 2.2275624 2.1595115e-38
0.98466814 -0.4161638 2.2260666 2.1595115e-38
1.0114744 -0.43108577 2.2080002 2.1595115e-38
0.98603094 -0.38049889 2.226634 2.1595115e-38
1.0046402 -0.38797715 2.2080002 2.1595115e-38
0.95440131 -0.32903779 2.2325623 2.1595115e-38
0.97600001 -0.34125605 2.2268851 2.1595115e-38
0.95012128 -0.30002278 2.2326179 2.1595115e-38
0.96639907 -0.29849547 2.2216189 2.1595115e-38
0.94403851 -0.25914314 2.2271435 2.1595115e-38
0.964926 -0.26697755 2.2186666 2.1595115e-38
0.94291323 -0.22521093 2.223207 2.1595115e-38
0.18736869 0.23325521 2.2291248 2.1595115e-38
0.15771429 0.25865144 2.2080002 2.1595115e-38
0.18390138 0.25852066 2.2252796 2.1595115e-38
0.20730358 0.2662048 2.2347596 2.1595115e-38
0.19212812 0.2947005 2.211 2.1595115e-38
0.21732281 0.3029826 2.230232 2.1595115e-38
0.24372648 0.30678856 2.2369998 2.1595115e-38
0.22142541 0.33143705 2.2271998 2.1595115e-38
0.24074382 0.32809332 2.237 2.1595115e-38
0.021282639 -0.68879855 2.2520006 2.1595115e-38
0.0521328 -0.68692768 2.2540004 2.1595115e-38
0.030333063 -0.67805123 2.2520001 2.1595115e-38
0.047582585 -0.6786384 2.256 2.1595115e-38
0.3173632 -0.65836763 2.2566669 2.1595115e-38
0.33868015 -0.65233672 2.2589998 2.1595115e-38
0.3804678 -0.64833969 2.2585878 2.1595115e-38
0.42210674 -0.64640486 2.2574439 2.1595115e-38
0.45772818 -0.64754379 2.2570906 2.1595115e-38
0.50479573 -0.64191639 2.2555003 2.1595115e-38
0.53926057 -0.64256424 2.2559197 2.1595115e-38
0.58771557 -0.64722723 2.2561479 2.1595115e-38
0.61732984 -0.64852065 2.2613328 2.1595115e-38
0.65423346 -0.6443978 2.2566667 2.1595115e-38
0.68560886 -0.64271367 2.2520003 2.1595115e-38
0.76139051 -0.64128381 2.2520001 2.1595115e-38
0.83645713 -0.64128381 2.2520001 2.1595115e-38
0.84610862 -0.64235622 2.2520001 2.1595115e-38
0.41305944 -0.6366381 2.266 2.1595115e-38
0.47262284 -0.6366381 2.266 2.1595115e-38
0.50039083 -0.63213098 2.2635291 2.1595115e-38
0.53827357 -0.6265431 2.2650816 2.1595115e-38
0.57638055 -0.63371545 2.2629564 2.1595115e-38
0.62070143 -0.63531005 2.2660005 2.1595115e-38
0.66531152 -0.62855411 2.2619994 2.1595115e-38
0.70070404 -0.62539226 2.2600675 2.1595115e-38
0.73918694 -0.62671369 2.2625654 2.1595115e-38
0.77921283 -0.62465781 2.2605143 2.1595115e-38
0.82183307 -0.62339866 2.2603502 2.1595115e-38
0.85771942 -0.61622667 2.2588844 2.1595115e-38
0.90238249 -0.61022645 2.2563996 2.1595115e-38
0.93505323 -0.60810965 2.2547092 2.1595115e-38
0.98505855 -0.60512936 2.2520001 2.1595115e-38
1.0071189 -0.60512924 2.2520001 2.1595115e-38
0.87506288 -0.59838861 2.2520001 2.1595115e-38
0.8985346 -0.5947814 2.2582223 2.1595115e-38
0.94157833 -0.59302086 2.2610216 2.1595115e-38
0.98020452 -0.58099586 2.2585454 2.1595115e-38
1.0089704 -0.58346981 2.2598529 2.1595115e-38
0.99775934 -0.52945268 2.266 2.1595115e-38
1.0101895 -0.54257101 2.259567 2.1595115e-38
0.98918295 -0.49598348 2.2578042 2.1595115e-38
1.0072865 -0.49739215 2.2543333 2.1595115e-38
0.98331374 -0.46203062 2.2564206 2.1595115e-38
1.0050355 -0.47656614 2.2520001 2.1595115e-38
0.95870858 -0.42680764 2.2520001 2.1595115e-38
0.97423214 -0.42091143 2.2551692 2.1595115e-38
0.95067114 -0.37105799 2.2625 2.1595115e-38
0.96877009 -0.38006696 2.2567654 2.1595115e-38
0.95210922 -0.34222603 2.2575996 2.1595115e-38
0.96814549 -0.35002518 2.2520003 2.1595115e-38
0.93846869 -0.300551 2.2556663 2.1595115e-38
0.91581339 -0.27024001 2.2520001 2.1595115e-38
0.92832345 -0.2599532 2.2558496 2.1595115e-38
0.89560956 -0.20255266 2.266 2.1595115e-38
0.93213135 -0.22417012 2.2600603 2.1595115e-38
0.88913524 -0.19638668 2.266 2.1595115e-38
0.22126049 0.19762143 2.2555001 2.1595115e-38
0.19731811 0.22948954 2.2520001 2.1595115e-38
0.22011027 0.2248881 2.2616386 2.1595115e-38
0.22517817 0.25773773 2.2524583 2.1595115e-38
0.24955326 0.26358899 2.2632899 2.1595115e-38
0.23068105 0.28787473 2.2520001 2.1595115e-38
0.25910217 0.301054 2.2571108 2.1595115e-38
0.28271049 0.31508189 2.266 2.1595115e-38
0.23120534 0.34187505 2.2520001 2.1595115e-38
0.26168865 0.32727793 2.2621818 2.1595115e-38
0.28271049 0.32155618 2.266 2.1595115e-38
0.31716761 -0.64954197 2.2810001 2.1595115e-38
0.34025303 -0.6450085 2.2866209 2.1595115e-38
0.37607643 -0.64390701 2.2826002 2.1595115e-38
0.42622119 -0.64172137 2.2810001 2.1595115e-38
0.45518628 -0.6428799 2.2810004 2.1595115e-38
0.4822686 -0.64085239 2.2810001 2.1595115e-38
0.31100491 -0.6247443 2.3002579 2.1595115e-38
0.33980167 -0.62344611 2.2997556 2.1595115e-38
0.37957412 -0.62545365 2.2982128 2.1595115e-38
0.41832614 -0.62675369 2.2931604 2.1595115e-38
0.46191683 -0.62645894 2.3007762 2.1595115e-38
0.49956736 -0.61863703 2.2963996 2.1595115e-38
0.53908902 -0.61064225 2.2993627 2.1595115e-38
0.578866 -0.61878133 2.2993069 2.1595115e-38
0.61851776 -0.62149459 2.2913625 2.1595115e-38
0.66016519 -0.61521959 2.2942905 2.1595115e-38
0.70177764 -0.60826856 2.2846732 2.1595115e-38
0.74196035 -0.60856473 2.2893038 2.1595115e-38
0.77627772 -0.60709798 2.2893493 2.1595115e-38
0.82121611 -0.60852975 2.2906077 2.1595115e-38
0.8578226 -0.60474068 2.2958448 2.1595115e-38
0.88874912 -0.60165703 2.2906001 2.1595115e-38
0.66712368 -0.59618545 2.3075714 2.1595115e-38
0.69670349 -0.59227765 2.295382 2.1595115e-38
0.7417056 -0.59507275 2.3063755 2.1595115e-38
0.77981067 -0.59588063 2.2993894 2.1595115e-38
0.8147909 -0.59441799 2.3040528 2.1595115e-38
0.87071866 -0.59132284 2.3082004 2.1595115e-38
0.89816952 -0.58192462 2.3001249 2.1595115e-38
0.93766981 -0.57681102 2.298929 2.1595115e-38
0.97351623 -0.57075071 2.293108 2.1595115e-38
1.0014676 -0.56264669 2.2810001 2.1595115e-38
0.87897813 -0.55602068 2.3016667 2.1595115e-38
0.8886587 -0.55740809 2.3055716 2.1595115e-38
0.94715095 -0.54749876 2.3071465 2.1595115e-38
0.98215115 -0.54139596 2.3010173 2.1595115e-38
1.0066867 -0.54708606 2.2825234 2.1595115e-38
0.95429581 -0.48732722 2.3101251 2.1595115e-38
0.97848606 -0.50099373 2.2977419 2.1595115e-38
0.95149428 -0.45867002 2.310889 2.1595115e-38
0.97273749 -0.46142629 2.2974401 2.1595115e-38
0.91489148 -0.41285717 2.312 2.1595115e-38
0.94159919 -0.41891035 2.3051703 2.1595115e-38
0.96540856 -0.42134464 2.2896481 2.1595115e-38
0.94081551 -0.38062423 2.299037 2.1595115e-38
0.96420383 -0.39293656 2.2836668 2.1595115e-38
0.90970206 -0.33220232 2.311348 2.1595115e-38
0.93643284 -0.34072113 2.2960324 2.1595115e-38
0.90724581 -0.30045259 2.3089983 2.1595115e-38
0.92834103 -0.30108055 2.2885284 2.1595115e-38
0.87856001 -0.24220952 2.312 2.1595115e-38
0.90108973 -0.26046795 2.3064137 2.1595115e-38
0.92419082 -0.25928506 2.2927418 2.1595115e-38
0.87686104 -0.21584301 2.2983506 2.1595115e-38
0.89937609 -0.22184576 2.2870238 2.1595115e-38
0.93027401 -0.21982458 2.2875457 2.1595115e-38
0.8367238 -0.16514286 2.312 2.1595115e-38
0.85871929 -0.18007316 2.3104212 2.1595115e-38
0.88634557 -0.19700016 2.2947145 2.1595115e-38
0.78461206 -0.044772066 2.312 2.1595115e-38
0.23444329 0.19184606 2.2863336 2.1595115e-38
0.26094285 0.18790305 2.3056657 2.1595115e-38
0.23402473 0.21230087 2.2810001 2.1595115e-38
0.26117137 0.2194231 2.2975111 2.1595115e-38
0.29883185 0.22687371 2.3102348 2.1595115e-38
0.71375626 0.21742287 2.3060002 2.1595115e-38
0.72002286 0.21798858 2.312 2.1595115e-38
0.26776055 0.25633767 2.292021 2.1595115e-38
0.30047733 0.25946283 2.3049867 2.1595115e-38
0.33445022 0.26514614 2.3047986 2.1595115e-38
0.27154765 0.28639227 2.2810001 2.1595115e-38
0.30123535 0.29976523 2.2878318 2.1595115e-38
0.33990514 0.29949161 2.2980521 2.1595115e-38
0.37044367 0.30497533 2.3086669 2.1595115e-38
0.30189145 0.32158002 2.2970002 2.1595115e-38
0.30216947 -0.61543214 2.3329144 2.1595115e-38
0.33993116 -0.60680205 2.3382003 2.1595115e-38
0.38091797 -0.60716599 2.3333263 2.1595115e-38
0.42175207 -0.60914963 2.3342466 2.1595115e-38
0.45781931 -0.60927701 2.3363347 2.1595115e-38
0.49536198 -0.60657555 2.3352582 2.1595115e-38
0.54027528 -0.6032306 2.3277998 2.1595115e-38
0.5822705 -0.60472018 2.3288825 2.1595115e-38
0.61619484 -0.60563654 2.3321896 2.1595115e-38
0.6493541 -0.60647899 2.3278887 2.1595115e-38
0.68347907 -0.6003654 2.337667 2.1595115e-38
0.78453147 -0.60058767 2.3270001 2.1595115e-38
0.8281166 -0.60058773 2.3270001 2.1595115e-38
0.85500634 -0.60058767 2.3270001 2.1595115e-38
0.31678 -0.59761333 2.3590002 2.1595115e-38
0.33743635 -0.5911029 2.3586104 2.1595115e-38
0.38330898 -0.5918569 2.3558011 2.1595115e-38
0.42006493 -0.59049493 2.3575125 2.1595115e-38
0.46075594 -0.59178108 2.3568387 2.1595115e-38
0.50534421 -0.5886001 2.3493404 2.1595115e-38
0.5390895 -0.58956891 2.3457832 2.1595115e-38
0.57978421 -0.5877828 2.346797 2.1595115e-38
0.6205982 -0.59053922 2.3482099 2.1595115e-38
0.65778238 -0.59152943 2.3434336 2.1595115e-38
0.69725859 -0.58525115 2.3398006 2.1595115e-38
0.73759407 -0.58369333 2.3414526 2.1595115e-38
0.78080279 -0.58151561 2.3388925 2.1595115e-38
0.81945002 -0.57896346 2.3361144 2.1595115e-38
0.85987353 -0.57727408 2.3356743 2.1595115e-38
0.89838707 -0.56864721 2.337667 2.1595115e-38
0.92732096 -0.56316262 2.335 2.1595115e-38
0.83481282 -0.54980099 2.3563337 2.1595115e-38
0.87591147 -0.55836797 2.3483336 2.1595115e-38
0.90587604 -0.55040216 2.356334 2.1595115e-38
0.94474638 -0.54339474 2.3554704 2.1595115e-38
0.96740007 -0.53144163 2.3387334 2.1595115e-38
0.90630543 -0.48483071 2.3590002 2.1595115e-38
0.94263715 -0.49981901 2.3454235 2.1595115e-38
0.9709838 -0.50795817 2.3344669 2.1595115e-38
0.91573912 -0.45353898 2.3560007 2.1595115e-38
0.94003475 -0.46258396 2.346333 2.1595115e-38
0.96625912 -0.47204861 2.3270001 2.1595115e-38
0.91361135 -0.41989389 2.349401 2.1595115e-38
0.92645848 -0.42291197 2.3310001 2.1595115e-38
0.91225755 -0.3766984 2.3515344 2.1595115e-38
0.92772913 -0.3835974 2.3391087 2.1595115e-38
0.90322524 -0.34273317 2.341985 2.1595115e-38
0.92415148 -0.3568067 2.3270001 2.1595115e-38
0.89213574 -0.29984763 2.3400917 2.1595115e-38
0.87430334 -0.25523397 2.356334 2.1595115e-38
0.88497639 -0.26341334 2.3418965 2.1595115e-38
0.87004375 -0.21791846 2.3400178 2.1595115e-38
0.88141429 -0.23876287 2.3430002 2.1595115e-38
0.8399362 -0.16178192 2.3270001 2.1595115e-38
0.85717523 -0.18637803 2.3370476 2.1595115e-38
0.83544254 -0.13826811 2.3454249 2.1595115e-38
0.84342539 -0.14489658 2.3408668 2.1595115e-38
0.82516867 -0.11201239 2.3590002 2.1595115e-38
0.84250003 -0.11907334 2.3590002 2.1595115e-38
0.79368967 -0.054628171 2.3475718 2.1595115e-38
0.80366194 -0.064630859 2.3558004 2.1595115e-38
0.30779335 0.15726668 2.3590002 2.1595115e-38
0.32501781 0.15502001 2.3590002 2.1595115e-38
0.27480763 0.17397095 2.3270001 2.1595115e-38
0.30083475 0.18126781 2.3446841 2.1595115e-38
0.33899671 0.18491648 2.3527153 2.1595115e-38
0.36551544 0.18889283 2.3590007 2.1595115e-38
0.73915339 0.17598891 2.3590002 2.1595115e-38
0.30484352 0.21490887 2.3355591 2.1595115e-38
0.34052518 0.22068471 2.3401513 2.1595115e-38
0.37365833 0.22364879 2.357801 2.1595115e-38
0.71545678 0.22482513 2.3516159 2.1595115e-38
0.72466612 0.22328533 2.3501117 2.1595115e-38
0.34866256 0.25275329 2.3326771 2.1595115e-38
0.38055354 0.26058671 2.3480637 2.1595115e-38
0.40971038 0.26714915 2.3590009 2.1595115e-38
0.70962584 0.25258958 2.3590002 2.1595115e-38
0.72103727 0.24583082 2.353667 2.1595115e-38
0.38554516 0.29568362 2.3368189 2.1595115e-38
0.41736126 0.2996425 2.3584085 2.1595115e-38
0.36345524 0.32134762 2.3270001 2.1595115e-38
0.42462003 0.32127339 2.3590002 2.1595115e-38
0.34672931 -0.58042598 2.3794782 2.1595115e-38
0.38024738 -0.58432299 2.3852303 2.1595115e-38
0.41730976 -0.57714099 2.3881373 2.1595115e-38
0.46329954 -0.57611752 2.3800924 2.1595115e-38
0.49853492 -0.57543838 2.3832445 2.1595115e-38
0.54207176 -0.57308924 2.3835094 2.1595115e-38
0.57935166 -0.57044625 2.3825297 2.1595115e-38
0.61946791 -0.57386661 2.3833325 2.1595115e-38
0.65885031 -0.57559305 2.3835158 2.1595115e-38
0.69827127 -0.57382977 2.3839993 2.1595115e-38
0.7409634 -0.56928027 2.3774543 2.1595115e-38
0.7776562 -0.56825089 2.3789086 2.1595115e-38
0.81964964 -0.56547469 2.3810909 2.1595115e-38
0.85862857 -0.56496006 2.3760002 2.1595115e-38
0.88779438 -0.56345147 2.3760002 2.1595115e-38
0.4729372 -0.55892575 2.3760002 2.1595115e-38
0.50619256 -0.55506939 2.3833847 2.1595115e-38
0.5278672 -0.55227548 2.3920002 2.1595115e-38
0.57635814 -0.55813336 2.3920002 2.1595115e-38
0.66748196 -0.55813336 2.3920002 2.1595115e-38
0.71190333 -0.55493569 2.3858461 2.1595115e-38
0.7394529 -0.54995376 2.3879991 2.1595115e-38
0.78446805 -0.55488253 2.3886662 2.1595115e-38
0.82046741 -0.54868674 2.3856659 2.1595115e-38
0.86151111 -0.55192739 2.3837571 2.1595115e-38
0.90011477 -0.54115844 2.3823442 2.1595115e-38
0.93031013 -0.53576487 2.3771031 2.1595115e-38
0.91179758 -0.49777785 2.3807998 2.1595115e-38
0.92400008 -0.50461715 2.3759999 2.1595115e-38
0.9085542 -0.46140936 2.3803239 2.1595115e-38
0.92651433 -0.46790859 2.3760002 2.1595115e-38
0.90466356 -0.41948059 2.3796363 2.1595115e-38
0.87452346 -0.37311086 2.3888004 2.1595115e-38
0.89716458 -0.37919816 2.3867819 2.1595115e-38
0.87605417 -0.34551117 2.3920002 2.1595115e-38
0.88794386 -0.34050953 2.3809996 2.1595115e-38
0.86691868 -0.2945554 2.3902597 2.1595115e-38
0.88608766 -0.30344287 2.3791997 2.1595115e-38
0.85940969 -0.25890753 2.3836186 2.1595115e-38
0.88025147 -0.27833143 2.3760002 2.1595115e-38
0.83667719 -0.21903567 2.3851428 2.1595115e-38
0.85305756 -0.22107399 2.3799996 2.1595115e-38
0.88025153 -0.23307431 2.3760002 2.1595115e-38
0.83146256 -0.17711103 2.3878965 2.1595115e-38
0.84775126 -0.18378414 2.3822217 2.1595115e-38
0.82155138 -0.13937882 2.3834665 2.1595115e-38
0.7969538 -0.094161287 2.3920002 2.1595115e-38
0.81686503 -0.10331465 2.3816617 2.1595115e-38
0.7877658 -0.058312677 2.3877134 2.1595115e-38
0.80642623 -0.068675563 2.3777781 2.1595115e-38
0.75860578 -0.014124192 2.3920002 2.1595115e-38
0.77593428 -0.022558125 2.3858457 2.1595115e-38
0.80331433 -0.038468573 2.3760002 2.1595115e-38
0.75860584 0.02050286 2.3920002 2.1595115e-38
0.76666576 0.010812381 2.3870001 2.1595115e-38
0.74701679 0.06723278 2.389199 2.1595115e-38
0.76316202 0.058471121 2.3920002 2.1595115e-38
0.31453717 0.11993144 2.3760002 2.1595115e-38
0.33886665 0.11105713 2.3920002 2.1595115e-38
0.71434557 0.10641959 2.3920002 2.1595115e-38
0.7406376 0.10046078 2.3919988 2.1595115e-38
0.76316202 0.1025143 2.3920002 2.1595115e-38
0.30816558 0.14104681 2.3845575 2.1595115e-38
0.3399969 0.14037436 2.3881371 2.1595115e-38
0.36829203 0.14250752 2.3919995 2.1595115e-38
0.71441072 0.13873602 2.392 2.1595115e-38
0.73936689 0.13898776 2.3887584 2.1595115e-38
0.76316196 0.13212954 2.3920002 2.1595115e-38
0.30265719 0.16236003 2.3760002 2.1595115e-38
0.34492412 0.16863674 2.3759999 2.1595115e-38
0.37721318 0.17604499 2.3839993 2.1595115e-38
0.71345806 0.18183345 2.3919997 2.1595115e-38
0.73534119 0.17915425 2.3837714 2.1595115e-38
0.38803756 0.21302393 2.3815382 2.1595115e-38
0.40978745 0.22370395 2.3903992 2.1595115e-38
0.7135101 0.22041976 2.3818181 2.1595115e-38
0.7309677 0.20476189 2.3789999 2.1595115e-38
0.39600003 0.24212573 2.3760002 2.1595115e-38
0.42327705 0.25751102 2.3839993 2.1595115e-38
0.45865655 0.27489018 2.3920002 2.1595115e-38
0.49206859 0.27564955 2.3920002 2.1595115e-38
0.71029443 0.25947106 2.3822854 2.1595115e-38
0.72185147 0.25344002 2.3760002 2.1595115e-38
0.43617591 0.29495898 2.3774548 2.1595115e-38
0.45916775 0.29912296 2.3884697 2.1595115e-38
0.49083197 0.30142462 2.3919992 2.1595115e-38
0.52320266 0.30982098 2.3920002 2.1595115e-38
0.71304387 0.28020576 2.3920002 2.1595115e-38
0.43673146 0.32358861 2.3760002 2.1595115e-38
0.45825589 0.3231619 2.3883078 2.1595115e-38
0.49206859 0.32121146 2.3920002 2.1595115e-38
0.35220873 -0.56925893 2.4118338 2.1595115e-38
0.3790077 -0.57055396 2.4129457 2.1595115e-38
0.42352518 -0.56898296 2.4089999 2.1595115e-38
0.45253223 -0.57216132 2.4162858 2.1595115e-38
0.50474286 -0.56209999 2.4090002 2.1595115e-38
0.55215812 -0.56362951 2.4090004 2.1595115e-38
0.58045429 -0.56209999 2.4090002 2.1595115e-38
0.62124163 -0.56260985 2.4090002 2.1595115e-38
0.64731634 -0.563411 2.4090002 2.1595115e-38
0.69803649 -0.56324714 2.4090002 2.1595115e-38
0.35478267 -0.55262882 2.4158001 2.1595115e-38
0.37849805 -0.55304396 2.4259999 2.1595115e-38
0.41828409 -0.55292106 2.4190938 2.1595115e-38
0.44279718 -0.55751145 2.4090002 2.1595115e-38
0.50474286 -0.55751145 2.4090002 2.1595115e-38
0.54823554 -0.54697019 2.4155385 2.1595115e-38
0.57735056 -0.55531651 2.4186084 2.1595115e-38
0.6219883 -0.55061591 2.4191072 2.1595115e-38
0.65857404 -0.55190992 2.4191995 2.1595115e-38
0.69876468 -0.5496791 2.4149721 2.1595115e-38
0.73725224 -0.54414368 2.4210415 2.1595115e-38
0.77940083 -0.54712451 2.4153142 2.1595115e-38
0.82053715 -0.53828233 2.4180305 2.1595115e-38
0.85882825 -0.53900129 2.4226952 2.1595115e-38
0.90016353 -0.53625244 2.4214664 2.1595115e-38
0.85949719 -0.51985717 2.4260001 2.1595115e-38
0.91268522 -0.50470746 2.4243 2.1595115e-38
0.87104958 -0.4505429 2.4260001 2.1595115e-38
0.89735353 -0.45651364 2.4224591 2.1595115e-38
0.89916325 -0.41750163 2.4179811 2.1595115e-38
0.87412161 -0.37063822 2.4153752 2.1595115e-38
0.89371079 -0.3920342 2.4174998 2.1595115e-38
0.86576033 -0.33728433 2.416754 2.1595115e-38
0.88229722 -0.33038414 2.4146669 2.1595115e-38
0.85405207 -0.30341905 2.4136357 2.1595115e-38
0.83504337 -0.24475487 2.4211433 2.1595115e-38
0.84747386 -0.26309937 2.4175 2.1595115e-38
0.83276641 -0.22160344 2.4186335 2.1595115e-38
0.81740719 -0.17888123 2.4188073 2.1595115e-38
0.79711431 -0.12707619 2.4260001 2.1595115e-38
0.80826354 -0.1434945 2.4197366 2.1595115e-38
0.78780818 -0.093784153 2.4179721 2.1595115e-38
0.80153674 -0.11090167 2.4132502 2.1595115e-38
0.7734679 -0.062295355 2.4123995 2.1595115e-38
0.33224651 -0.0032346665 2.4260004 2.1595115e-38
0.75811428 -0.013541375 2.4146669 2.1595115e-38
0.76209778 -0.024437083 2.4214671 2.1595115e-38
0.33892876 0.016699046 2.4246922 2.1595115e-38
0.74955082 0.02804007 2.4233844 2.1595115e-38
0.76497531 0.022266759 2.4211431 2.1595115e-38
0.35132959 0.06002596 2.4237335 2.1595115e-38
0.37109643 0.062367138 2.4255004 2.1595115e-38
0.71855819 0.068544134 2.4260001 2.1595115e-38
0.73920518 0.058695279 2.4188423 2.1595115e-38
0.77120787 0.052768581 2.4090002 2.1595115e-38
0.34821546 0.098458432 2.4125178 2.1595115e-38
0.37745076 0.099871628 2.4206707 2.1595115e-38
0.40433335 0.11783429 2.4260001 2.1595115e-38
0.71586192 0.0918281 2.4107003 2.1595115e-38
0.7258389 0.081923969 2.4118335 2.1595115e-38
0.30055144 0.13765715 2.4090002 2.1595115e-38
0.34605479 0.12771526 2.4090004 2.1595115e-38
0.38592291 0.13771509 2.4119554 2.1595115e-38
0.41888088 0.14676811 2.4202201 2.1595115e-38
0.44130099 0.15480191 2.4260001 2.1595115e-38
0.71444064 0.13444516 2.4090002 2.1595115e-38
0.72728866 0.13995144 2.4090002 2.1595115e-38
0.7662915 0.12159715 2.4090002 2.1595115e-38
0.39566001 0.18124861 2.4090004 2.1595115e-38
0.41936848 0.18202196 2.4161205 2.1595115e-38
0.45174095 0.18663518 2.4259996 2.1595115e-38
0.70637149 0.18273936 2.4215002 2.1595115e-38
0.7227 0.17666002 2.4090002 2.1595115e-38
0.39691144 0.20419145 2.4090002 2.1595115e-38
0.42773733 0.21795708 2.4089992 2.1595115e-38
0.46022776 0.21913116 2.420013 2.1595115e-38
0.48553014 0.22378612 2.4260004 2.1595115e-38
0.67696959 0.2148743 2.4260001 2.1595115e-38
0.70160103 0.21846448 2.4196239 2.1595115e-38
0.43209049 0.2454886 2.4090002 2.1595115e-38
0.46148172 0.25766861 2.4097064 2.1595115e-38
0.49515396 0.26109645 2.4181895 2.1595115e-38
0.6769253 0.26978451 2.4211433 2.1595115e-38
0.69479781 0.25896311 2.4129219 2.1595115e-38
0.46482229 0.28953886 2.4090002 2.1595115e-38
0.50552654 0.30269209 2.409548 2.1595115e-38
0.5410071 0.31278983 2.4160001 2.1595115e-38
0.58045834 0.30995744 2.4191999 2.1595115e-38
0.67694741 0.29577729 2.4235718 2.1595115e-38
0.69285613 0.29603359 2.4145565 2.1595115e-38
0.47950572 0.32349432 2.4090002 2.1595115e-38
0.50153089 0.32441205 2.4090002 2.1595115e-38
0.54912323 0.32269651 2.4260001 2.1595115e-38
0.58103126 0.32209143 2.4192002 2.1595115e-38
0.38769379 -0.54260594 2.4589164 2.1595115e-38
0.40842587 -0.538737 2.4540801 2.1595115e-38
0.58316755 -0.53766924 2.4560418 2.1595115e-38
0.61830753 -0.5344339 2.457217 2.1595115e-38
0.66186911 -0.53380281 2.4596035 2.1595115e-38
0.70021701 -0.53377062 2.4594922 2.1595115e-38
0.73778898 -0.52987015 2.4480686 2.1595115e-38
0.78089011 -0.53073853 2.4470003 2.1595115e-38
0.81878155 -0.52875918 2.4435866 2.1595115e-38
0.8637408 -0.52979571 2.4430003 2.1595115e-38
0.89514631 -0.53079039 2.4430006 2.1595115e-38
0.59086949 -0.50740004 2.4780004 2.1595115e-38
0.62497771 -0.51091743 2.4763632 2.1595115e-38
0.66122913 -0.51212007 2.4780006 2.1595115e-38
0.70214921 -0.50674742 2.4735839 2.1595115e-38
0.73855644 -0.51157695 2.4674704 2.1595115e-38
0.78226072 -0.51198673 2.4666576 2.1595115e-38
0.81921953 -0.51093554 2.4613466 2.1595115e-38
0.86385256 -0.50565195 2.4567497 2.1595115e-38
0.89599985 -0.49994883 2.4441957 2.1595115e-38
0.86578089 -0.45751765 2.4611142 2.1595115e-38
0.89327484 -0.46518812 2.4447005 2.1595115e-38
0.86276168 -0.41977683 2.4577534 2.1595115e-38
0.88858187 -0.42830491 2.44363 2.1595115e-38
0.83181262 -0.36799398 2.4768753 2.1595115e-38
0.85997158 -0.38016525 2.4578078 2.1595115e-38
0.88180667 -0.39087999 2.4430001 2.1595115e-38
0.82903874 -0.33876607 2.470145 2.1595115e-38
0.84914029 -0.34223843 2.4503913 2.1595115e-38
0.79158646 -0.28711486 2.4730911 2.1595115e-38
0.82056904 -0.29815713 2.459796 2.1595115e-38
0.84574258 -0.30023167 2.4456844 2.1595115e-38
0.79182202 -0.25769183 2.4692566 2.1595115e-38
0.81930453 -0.26128402 2.4515467 2.1595115e-38
0.84716523 -0.27015185 2.4430001 2.1595115e-38
0.79061109 -0.21905531 2.4634085 2.1595115e-38
0.81748432 -0.2213158 2.4500611 2.1595115e-38
0.78427416 -0.17885014 2.4542258 2.1595115e-38
0.80661857 -0.18503128 2.4430003 2.1595115e-38
0.75756001 -0.14160001 2.4780004 2.1595115e-38
0.77898753 -0.13975267 2.4579129 2.1595115e-38
0.80336481 -0.14458571 2.4430001 2.1595115e-38
0.74846041 -0.088474885 2.4685264 2.1595115e-38
0.77462018 -0.1025297 2.4539709 2.1595115e-38
0.34310332 -0.05501309 2.4677999 2.1595115e-38
0.36579999 -0.052292638 2.4780004 2.1595115e-38
0.71980006 -0.061360002 2.4780002 2.1595115e-38
0.7434532 -0.059628867 2.4607031 2.1595115e-38
0.76562452 -0.064432107 2.4470801 2.1595115e-38
0.34259599 -0.022183994 2.4499824 2.1595115e-38
0.37932616 -0.017971842 2.4742918 2.1595115e-38
0.4087092 -0.0083672749 2.4780006 2.1595115e-38
0.74072379 -0.020954376 2.4458323 2.1595115e-38
0.7614848 -0.026922859 2.4430001 2.1595115e-38
0.35248995 0.015123336 2.4430003 2.1595115e-38
0.38024262 0.020041922 2.4679554 2.1595115e-38
0.41555673 0.020060003 2.4779987 2.1595115e-38
0.73771894 0.019038353 2.4463394 2.1595115e-38
0.76237106 0.0054288893 2.4430003 2.1595115e-38
0.38958856 0.055265326 2.4538522 2.1595115e-38
0.41922083 0.058558743 2.4714217 2.1595115e-38
0.44833264 0.06048343 2.4779994 2.1595115e-38
0.73314494 0.053513341 2.4430003 2.1595115e-38
0.39786002 0.090740003 2.4430001 2.1595115e-38
0.42081332 0.099737041 2.4536088 2.1595115e-38
0.45913333 0.10055351 2.4716835 2.1595115e-38
0.49009335 0.11013334 2.4780004 2.1595115e-38
0.4227868 0.12785429 2.4498003 2.1595115e-38
0.46197197 0.13730952 2.4659691 2.1595115e-38
0.49824893 0.14482698 2.4779987 2.1595115e-38
0.52425718 0.14328572 2.4780004 2.1595115e-38
0.72376812 0.15642905 2.4514999 2.1595115e-38
0.46470386 0.17388549 2.4448161 2.1595115e-38
0.49939144 0.17953706 2.469624 2.1595115e-38
0.52352679 0.18368667 2.4780006 2.1595115e-38
0.70963335 0.1745 2.4430001 2.1595115e-38
0.72359335 0.16054 2.4430001 2.1595115e-38
0.50338 0.2178438 2.4543827 2.1595115e-38
0.52470672 0.20217335 2.4780002 2.1595115e-38
0.6756686 0.23778288 2.4720001 2.1595115e-38
0.68852812 0.22684401 2.4507728 2.1595115e-38
0.49945781 0.24507557 2.4430001 2.1595115e-38
0.63838005 0.27258003 2.4780002 2.1595115e-38
0.66681778 0.26333812 2.4692373 2.1595115e-38
0.68525338 0.24722517 2.4529171 2.1595115e-38
0.55142003 0.31410003 2.4430001 2.1595115e-38
0.57379127 0.31291318 2.4458334 2.1595115e-38
0.62277091 0.29994002 2.4655759 2.1595115e-38
0.66153318 0.29851621 2.4662282 2.1595115e-38
0.68171334 0.30944666 2.4430001 2.1595115e-38
0.56538004 0.32806 2.4430001 2.1595115e-38
0.61631274 0.32216737 2.4549 2.1595115e-38
0.64428002 0.32332003 2.4780002 2.1595115e-38
0.38717717 -0.52802294 2.4959998 2.1595115e-38
0.38055432 -0.51009071 2.5072501 2.1595115e-38
0.62050861 -0.50143492 2.5095 2.1595115e-38
0.66117471 -0.50302416 2.5024285 2.1595115e-38
0.69930059 -0.49588647 2.5099092 2.1595115e-38
0.74763066 -0.49618244 2.5071895 2.1595115e-38
0.77983803 -0.49447757 2.5051486 2.1595115e-38
0.81862372 -0.49301866 2.5084288 2.1595115e-38
0.85820985 -0.4950653 2.5063739 2.1595115e-38
0.75420004 -0.4764629 2.5140002 2.1595115e-38
0.78192335 -0.47268245 2.5140002 2.1595115e-38
0.82443249 -0.46177796 2.5140004 2.1595115e-38
0.84925503 -0.46215874 2.506098 2.1595115e-38
0.8328051 -0.4189156 2.5120001 2.1595115e-38
0.84788126 -0.41956642 2.5058572 2.1595115e-38
0.82254803 -0.37886393 2.5065002 2.1595115e-38
0.84487313 -0.39431775 2.5032003 2.1595115e-38
0.79729718 -0.32562286 2.5140002 2.1595115e-38
0.8141095 -0.33971635 2.5081308 2.1595115e-38
0.78799695 -0.29770806 2.5080004 2.1595115e-38
0.80354357 -0.3111054 2.5020001 2.1595115e-38
0.77900708 -0.25738654 2.5060804 2.1595115e-38
0.75898862 -0.21309146 2.5140004 2.1595115e-38
0.77583349 -0.22030818 2.5083339 2.1595115e-38
0.75249469 -0.17716944 2.5097644 2.1595115e-38
0.76946801 -0.18345656 2.5013998 2.1595115e-38
0.75199693 -0.139809 2.4980574 2.1595115e-38
0.76425147 -0.13193144 2.4960001 2.1595115e-38
0.74935079 -0.10229059 2.5019994 2.1595115e-38
0.76464766 -0.11489525 2.4960001 2.1595115e-38
0.38623461 -0.058635842 2.498455 2.1595115e-38
0.41624129 -0.052802548 2.5024002 2.1595115e-38
0.73306215 -0.067466944 2.5037143 2.1595115e-38
0.39619049 -0.027733337 2.4960003 2.1595115e-38
0.42342788 -0.021434875 2.4996741 2.1595115e-38
0.44746432 -0.012768097 2.5125003 2.1595115e-38
0.43680003 0.01545143 2.4959998 2.1595115e-38
0.45413923 0.021451429 2.5036366 2.1595115e-38
0.49082857 0.035914287 2.5140002 2.1595115e-38
0.46998629 0.058903836 2.4970286 2.1595115e-38
0.50011086 0.060262188 2.5062873 2.1595115e-38
0.53142738 0.068393297 2.5140002 2.1595115e-38
0.47661716 0.089142859 2.4960001 2.1595115e-38
0.50118476 0.097925343 2.4966674 2.1595115e-38
0.53495902 0.099675827 2.5055511 2.1595115e-38
0.50583094 0.12824057 2.4959996 2.1595115e-38
0.52931046 0.13549712 2.4959993 2.1595115e-38
0.52851814 0.16560762 2.4960001 2.1595115e-38
0.66480768 0.2543543 2.4960001 2.1595115e-38
0.63086683 -0.48914906 2.5319998 2.1595115e-38
0.66218346 -0.49108696 2.5326335 2.1595115e-38
0.69572347 -0.48901629 2.5335839 2.1595115e-38
0.73672307 -0.48903564 2.5396004 2.1595115e-38
0.83435428 -0.48469713 2.5320001 2.1595115e-38
0.84158862 -0.48469713 2.5320001 2.1595115e-38
0.63005918 -0.47331354 2.5396004 2.1595115e-38
0.66174501 -0.47187299 2.5456409 2.1595115e-38
0.69874692 -0.47575805 2.5472 2.1595115e-38
0.7447592 -0.47331795 2.541852 2.1595115e-38
0.78063405 -0.4619669 2.5377004 2.1595115e-38
0.81931108 -0.45862448 2.5354824 2.1595115e-38
0.84158862 -0.46829945 2.5320001 2.1595115e-38
0.79169208 -0.41068956 2.5499444 2.1595115e-38
0.81739545 -0.42096207 2.5383329 2.1595115e-38
0.79039711 -0.37898278 2.5380003 2.1595115e-38
0.80956483 -0.38399586 2.5320005 2.1595115e-38
0.78256947 -0.3395344 2.539916 2.1595115e-38
0.80493492 -0.34917486 2.5319998 2.1595115e-38
0.75959998 -0.28213716 2.5320001 2.1595115e-38
0.77303499 -0.30106264 2.5399165 2.1595115e-38
0.75553852 -0.25802284 2.5320003 2.1595115e-38
0.76709789 -0.26469541 2.5350006 2.1595115e-38
0.75452405 -0.21760345 2.5339656 2.1595115e-38
0.76442289 -0.226192 2.5320001 2.1595115e-38
0.74217641 -0.17974836 2.5442941 2.1595115e-38
0.70907396 -0.13084722 2.5510004 2.1595115e-38
0.73855329 -0.13826726 2.5420377 2.1595115e-38
0.71564215 -0.11297064 2.5415001 2.1595115e-38
0.73567969 -0.10463977 2.5348291 2.1595115e-38
0.4364686 -0.055462856 2.5320001 2.1595115e-38
0.45895016 -0.047799882 2.5407088 2.1595115e-38
0.73387814 -0.077969521 2.5320001 2.1595115e-38
0.46537882 -0.021872839 2.539238 2.1595115e-38
0.49587864 -0.013554187 2.5510006 2.1595115e-38
0.52396739 -0.0040492071 2.5510001 2.1595115e-38
0.47388351 0.016346669 2.5409415 2.1595115e-38
0.50098574 0.018645043 2.5485077 2.1595115e-38
0.52837741 0.021002796 2.5434003 2.1595115e-38
0.51363432 0.040994287 2.5320001 2.1595115e-38
0.53584969 0.047605511 2.5360715 2.1595115e-38
0.63556516 -0.46096826 2.5700002 2.1595115e-38
0.66074604 -0.45859218 2.5798275 2.1595115e-38
0.70351446 -0.46271572 2.5815146 2.1595115e-38
0.73943365 -0.45969978 2.5787961 2.1595115e-38
0.77671379 -0.45039597 2.5777943 2.1595115e-38
0.80159527 -0.4479143 2.5700002 2.1595115e-38
0.78082192 -0.42139831 2.5786359 2.1595115e-38
0.80453295 -0.43186373 2.5715833 2.1595115e-38
0.77852905 -0.38204172 2.5774999 2.1595115e-38
0.76691437 -0.33945271 2.5795002 2.1595115e-38
0.74711144 -0.28355715 2.5890002 2.1595115e-38
0.76503062 -0.30195424 2.5847783 2.1595115e-38
0.7452932 -0.25763521 2.5773406 2.1595115e-38
0.76162732 -0.26995379 2.5814004 2.1595115e-38
0.71752292 -0.20712002 2.5890002 2.1595115e-38
0.74292082 -0.22059177 2.5813994 2.1595115e-38
0.76120961 -0.23741907 2.5700002 2.1595115e-38
0.71303988 -0.17327248 2.5890007 2.1595115e-38
0.72911775 -0.18114203 2.5785947 2.1595115e-38
0.71251744 -0.14692192 2.5852003 2.1595115e-38
0.72752243 -0.1497367 2.5730002 2.1595115e-38
0.63858384 -0.44477242 2.6090002 2.1595115e-38
0.65905541 -0.45027748 2.6098006 2.1595115e-38
0.70176786 -0.4492687 2.6090009 2.1595115e-38
0.73631781 -0.44725713 2.6090007 2.1595115e-38
0.76779151 -0.44477242 2.6090002 2.1595115e-38
0.63858384 -0.43980289 2.6090002 2.1595115e-38
0.66402048 -0.43227983 2.6178896 2.1595115e-38
0.70020616 -0.43206427 2.6164293 2.1595115e-38
0.7441352 -0.42889687 2.6215 2.1595115e-38
0.76987237 -0.42171553 2.6238575 2.1595115e-38
0.7476514 -0.37904456 2.6276042 2.1595115e-38
0.76897871 -0.3812288 2.6197145 2.1595115e-38
0.74782991 -0.33887121 2.6228459 2.1595115e-38
0.76473349 -0.34079468 2.6090007 2.1595115e-38
0.71859342 -0.28793812 2.6290002 2.1595115e-38
0.73964882 -0.29918686 2.6155658 2.1595115e-38
0.76392639 -0.30231273 2.6090004 2.1595115e-38
0.70288771 -0.25038096 2.6290007 2.1595115e-38
0.73019773 -0.25996244 2.6152861 2.1595115e-38
0.70967203 -0.21637423 2.6254709 2.1595115e-38
0.72815686 -0.22695906 2.6135464 2.1595115e-38
0.67853248 -0.19279335 2.6290002 2.1595115e-38
0.70247895 -0.18282886 2.6173019 2.1595115e-38
0.72306573 -0.1776605 2.6090002 2.1595115e-38
0.70318764 -0.15654002 2.6090002 2.1595115e-38
0.63801813 -0.40924668 2.6690001 2.1595115e-38
0.6598025 -0.41820249 2.6614132 2.1595115e-38
0.705284 -0.41773763 2.6618574 2.1595115e-38
0.74230915 -0.41819075 2.6601765 2.1595115e-38
0.76002955 -0.42195618 2.6690001 2.1595115e-38
0.71808803 -0.39526621 2.6690001 2.1595115e-38
0.73388624 -0.38180482 2.6570003 2.1595115e-38
0.71834224 -0.32892248 2.6690004 2.1595115e-38
0.73283887 -0.33998552 2.6607244 2.1595115e-38
0.71253538 -0.29625094 2.6635945 2.1595115e-38
0.72469079 -0.30085075 2.6490002 2.1595115e-38
0.67686152 -0.25314575 2.6618574 2.1595115e-38
0.6988582 -0.2637732 2.6532869 2.1595115e-38
0.72658288 -0.26994574 2.6490002 2.1595115e-38
0.67392421 -0.21959965 2.6615005 2.1595115e-38
0.69488978 -0.22435579 2.6545327 2.1595115e-38
0.67696667 -0.19762382 2.6490002 2.1595115e-38
0.69176745 -0.18215029 2.6490002 2.1595115e-38
0.63779181 -0.40429908 2.7040002 2.1595115e-38
0.65994364 -0.40481344 2.6954777 2.1595115e-38
0.69854605 -0.40862381 2.6899996 2.1595115e-38
0.73462623 -0.41118568 2.6900003 2.1595115e-38
0.63463229 -0.3852202 2.7110002 2.1595115e-38
0.66595 -0.38900676 2.7074995 2.1595115e-38
0.70359421 -0.38133365 2.703897 2.1595115e-38
0.72741908 -0.37288785 2.6916156 2.1595115e-38
0.5912562 -0.32893473 2.7110002 2.1595115e-38
0.67645907 -0.32532001 2.7110002 2.1595115e-38
0.7050159 -0.33891925 2.7001379 2.1595115e-38
0.72867894 -0.35171291 2.6900003 2.1595115e-38
0.59082592 -0.30939829 2.7110002 2.1595115e-38
0.61796421 -0.29608262 2.7095995 2.1595115e-38
0.66822189 -0.29516658 2.7096868 2.1595115e-38
0.69520646 -0.30291271 2.6975 2.1595115e-38
0.6228416 -0.26712939 2.7043178 2.1595115e-38
0.66421187 -0.2581391 2.7033267 2.1595115e-38
0.68402863 -0.27668571 2.6900001 2.1595115e-38
0.66609496 -0.2296613 2.6973495 2.1595115e-38
0.63522387 -0.37172666 2.7423334 2.1595115e-38
0.65971404 -0.37362382 2.7346165 2.1595115e-38
0.68845928 -0.36510003 2.73825 2.1595115e-38
0.62204695 -0.34013736 2.7400007 2.1595115e-38
0.66088092 -0.34052733 2.7428639 2.1595115e-38
0.68975711 -0.34618002 2.7330005 2.1595115e-38
0.62009978 -0.30750901 2.7330008 2.1595115e-38
0.65559 -0.30281919 2.7336574 2.1595115e-38
0.63770002 -0.26288855 2.733 2.1595115e-38
0.64984667 -0.26838353 2.7330008 2.1595115e-38
0.62680864 -0.36973771 2.7770002 2.1595115e-38
-0.61271197 0.65904564 1.4692222 2.0871819e-38
-0.90252894 0.26217422 1.5190001 2.0871819e-38
-0.89198005 0.28145 1.5155001 2.0871819e-38
-0.8448534 0.29222667 1.5190001 2.0871819e-38
-0.81702656 0.28999326 1.4883002 2.0871819e-38
-0.65256441 0.63390684 1.4937176 2.0871819e-38
-0.62195706 0.63658738 1.5112861 2.0871819e-38
-0.59747338 0.63798004 1.5190001 2.0871819e-38
-0.68352348 0.66570854 1.5084001 2.0871819e-38
-0.65454954 0.65576982 1.4965874 2.0871819e-38
-0.62244159 0.65655077 1.5097946 2.0871819e-38
-0.64569563 0.68234444 1.5190001 2.0871819e-38
-0.60908508 0.68305504 1.5155003 2.0871819e-38
-0.92573589 0.15219401 1.5529999 2.0871819e-38
-0.91671371 0.1517503 1.5530003 2.0871819e-38
-0.92477065 0.1750982 1.5493164 2.0871819e-38
-0.90382421 0.18502642 1.5485054 2.0871819e-38
-0.87648374 0.19612172 1.5530001 2.0871819e-38
-0.92193431 0.20226857 1.539 2.0871819e-38
-0.89759767 0.21985979 1.5370419 2.0871819e-38
-0.87114036 0.23099926 1.5458605 2.0871819e-38
-0.89331347 0.25983548 1.5274239 2.0871819e-38
-0.86197424 0.26165244 1.5415437 2.0871819e-38
-0.82628047 0.27480716 1.5530006 2.0871819e-38
-0.89358306 0.2834 1.5259999 2.0871819e-38
-0.85432613 0.28898165 1.5386988 2.0871819e-38
-0.82020527 0.30304649 1.5503588 2.0871819e-38
-0.78833234 0.31277519 1.5530006 2.0871819e-38
-0.81408554 0.32938737 1.5460002 2.0871819e-38
-0.78603232 0.34254986 1.5474825 2.0871819e-38
-0.77668077 0.37952954 1.542944 2.0871819e-38
-0.74878806 0.39037791 1.5514452 2.0871819e-38
-0.77011675 0.41534504 1.5310079 2.0871819e-38
-0.74087113 0.42078111 1.5446548 2.0871819e-38
-0.7142157 0.432868 1.553 2.0871819e-38
-0.73397636 0.45190388 1.5400442 2.0871819e-38
-0.70685732 0.46409571 1.5482861 2.0871819e-38
-0.72177523 0.48512763 1.5530001 2.0871819e-38
-0.69223404 0.49211046 1.5472354 2.0871819e-38
-0.66416705 0.50455946 1.5469208 2.0871819e-38
-0.66040969 0.52418858 1.5488824 2.0871819e-38
-0.6189959 0.52941769 1.5464118 2.0871819e-38
-0.60643089 0.66421574 1.5292007 2.0871819e-38
-0.58084583 0.66190779 1.5399859 2.0871819e-38
-0.54816949 0.66277987 1.5454271 2.0871819e-38
-0.60536301 0.68364286 1.52675 2.0871819e-38
-0.5804413 0.68787855 1.5386273 2.0871819e-38
-0.54368216 0.69006318 1.5435721 2.0871819e-38
-0.95050263 0.02762373 1.5957946 2.0871819e-38
-0.93604165 0.060231514 1.5887759 2.0871819e-38
-0.91512936 0.06811785 1.5919172 2.0871819e-38
-0.92981941 0.099039361 1.5692871 2.0871819e-38
-0.9028151 0.10163686 1.58442 2.0871819e-38
-0.87615412 0.11434223 1.5913333 2.0871819e-38
-0.93005836 0.13158421 1.5647123 2.0871819e-38
-0.90006959 0.14017072 1.5747268 2.0871819e-38
-0.86845881 0.1473898 1.5892526 2.0871819e-38
-0.89090639 0.17221558 1.5647852 2.0871819e-38
-0.86343139 0.18180986 1.5813069 2.0871819e-38
-0.83012068 0.19206175 1.5914656 2.0871819e-38
-0.88230211 0.2150041 1.5600002 2.0871819e-38
-0.85791767 0.21809483 1.5696187 2.0871819e-38
-0.8237161 0.22198275 1.5832064 2.0871819e-38
-0.79322296 0.23733719 1.5960001 2.0871819e-38
-0.84673858 0.24852675 1.5655193 2.0871819e-38
-0.81835318 0.25903377 1.571985 2.0871819e-38
-0.78632838 0.2632145 1.5863274 2.0871819e-38
-0.84834284 0.30457145 1.5600001 2.0871819e-38
-0.81167537 0.29076043 1.5649 2.0871819e-38
-0.77780592 0.29878837 1.5775851 2.0871819e-38
-0.75400287 0.30474013 1.5908908 2.0871819e-38
-0.82655239 0.33527622 1.5600002 2.0871819e-38
-0.76866734 0.33614016 1.5675778 2.0871819e-38
-0.74308777 0.34310138 1.5850338 2.0871819e-38
-0.71895999 0.35568002 1.5960001 2.0871819e-38
-0.7617746 0.36508217 1.5670002 2.0871819e-38
-0.73707271 0.37749186 1.5719697 2.0871819e-38
-0.70721143 0.38521302 1.5911608 2.0871819e-38
-0.67579204 0.39915201 1.5960001 2.0871819e-38
-0.72346884 0.40946439 1.567824 2.0871819e-38
-0.69836986 0.41871911 1.5756313 2.0871819e-38
-0.67046249 0.42860159 1.5900894 2.0871819e-38
-0.69255555 0.45368856 1.5630487 2.0871819e-38
-0.66082084 0.46038115 1.5774697 2.0871819e-38
-0.63440454 0.4668766 1.590483 2.0871819e-38
-0.6528632 0.49451706 1.5664079 2.0871819e-38
-0.62342262 0.50311095 1.5841309 2.0871819e-38
-0.64724547 0.52962947 1.5667933 2.0871819e-38
-0.61388057 0.52807474 1.5732161 2.0871819e-38
-0.58052206 0.5407933 1.5860269 2.0871819e-38
-0.55784005 0.55480003 1.5960001 2.0871819e-38
-0.56604809 0.56270403 1.596 2.0871819e-38
-0.53364164 0.57588255 1.5928969 2.0871819e-38
-0.51015538 0.57759774 1.5672001 2.0871819e-38
-0.50012034 0.61615425 1.5693338 2.0871819e-38
-0.53059793 0.66553426 1.5630256 2.0871819e-38
-0.50221384 0.66970998 1.5812291 2.0871819e-38
-0.47197166 0.67568678 1.5943203 2.0871819e-38
-0.52954477 0.69054788 1.5615555 2.0871819e-38
-0.49820742 0.69459414 1.5737484 2.0871819e-38
-0.46503559 0.70110303 1.5912942 2.0871819e-38
-0.43928 0.71440005 1.5960001 2.0871819e-38
-0.96940392 -0.060018253 1.6287442 2.0871819e-38
-0.94969058 -0.054465365 1.6309147 2.0871819e-38
-0.96557826 -0.021866681 1.6156415 2.0871819e-38
-0.94314629 -0.017910494 1.6229589 2.0871819e-38
-0.91564697 -0.01458466 1.6309726 2.0871819e-38
-0.96309918 0.0065435506 1.6114547 2.0871819e-38
-0.93693924 0.018962409 1.6117083 2.0871819e-38
-0.90824306 0.023233887 1.6236963 2.0871819e-38
-0.92457277 0.04548052 1.604231 2.0871819e-38
-0.89971334 0.059793849 1.6149884 2.0871819e-38
-0.86595023 0.07084538 1.6310003 2.0871819e-38
-0.88663113 0.092062898 1.6117607 2.0871819e-38
-0.86005318 0.10096356 1.621618 2.0871819e-38
-0.83484191 0.11159909 1.6296592 2.0871819e-38
-0.88088673 0.13282001 1.603 2.0871819e-38
-0.85775548 0.13615133 1.6083798 2.0871819e-38
-0.82540911 0.14270969 1.6232016 2.0871819e-38
-0.79832572 0.14939429 1.6340001 2.0871819e-38
-0.84840643 0.16902283 1.6034214 2.0871819e-38
-0.81627762 0.17763634 1.6129457 2.0871819e-38
-0.79231054 0.18906808 1.6295327 2.0871819e-38
-0.80909282 0.21581228 1.6044044 2.0871819e-38
-0.78254807 0.22141026 1.618884 2.0871819e-38
-0.7547524 0.23602222 1.6340001 2.0871819e-38
-0.77058285 0.25661334 1.6102175 2.0871819e-38
-0.74576622 0.26420823 1.6280717 2.0871819e-38
-0.71304637 0.27071494 1.6340001 2.0871819e-38
-0.76180667 0.28243336 1.603 2.0871819e-38
-0.73723155 0.29789647 1.6150755 2.0871819e-38
-0.70438689 0.304822 1.629361 2.0871819e-38
-0.73204929 0.3298499 1.6042405 2.0871819e-38
-0.69985712 0.33891812 1.6148967 2.0871819e-38
-0.6712479 0.3471981 1.6297348 2.0871819e-38
-0.69508117 0.37470189 1.6048912 2.0871819e-38
-0.66274005 0.38118064 1.6201811 2.0871819e-38
-0.63502228 0.38931423 1.6334999 2.0871819e-38
-0.65507501 0.41690582 1.6090108 2.0871819e-38
-0.62577325 0.42256644 1.6275671 2.0871819e-38
-0.64516938 0.44242802 1.603 2.0871819e-38
-0.61778939 0.45756796 1.6160909 2.0871819e-38
-0.58462304 0.46773502 1.6294299 2.0871819e-38
-0.60935986 0.49149907 1.6089021 2.0871819e-38
-0.58102864 0.50037861 1.6163007 2.0871819e-38
-0.55275548 0.50416243 1.6274998 2.0871819e-38
-0.68811834 0.55189621 1.6106001 2.0871819e-38
-0.6030333 0.52059329 1.603 2.0871819e-38
-0.57418865 0.53155786 1.6061425 2.0871819e-38
-0.54130203 0.54150712 1.6216432 2.0871819e-38
-0.51385403 0.55013466 1.6314051 2.0871819e-38
-0.57008976 0.57961941 1.6242309 2.0871819e-38
-0.53663892 0.57216758 1.609192 2.0871819e-38
-0.50761271 0.58263522 1.6262133 2.0871819e-38
-0.49601772 0.61790282 1.625219 2.0871819e-38
-0.46931252 0.63343227 1.627116 2.0871819e-38
-0.48776823 0.65239215 1.6205806 2.0871819e-38
-0.45903978 0.66080713 1.6196406 2.0871819e-38
-0.43419781 0.67009133 1.6264633 2.0871819e-38
-0.44935688 0.69650841 1.6084244 2.0871819e-38
-0.4243705 0.70246255 1.6171054 2.0871819e-38
-0.41215345 0.72350717 1.6189585 2.0871819e-38
-0.39825082 0.72814101 1.6313334 2.0871819e-38
-1.0053934 -0.20235334 1.6730001 2.0871819e-38
-1.0026764 -0.18234459 1.6706003 2.0871819e-38
-0.98627383 -0.17412724 1.6715738 2.0871819e-38
-1.0019274 -0.15366033 1.6690001 2.0871819e-38
-0.97730982 -0.13961525 1.6610757 2.0871819e-38
-0.95592147 -0.12878431 1.6666005 2.0871819e-38
-0.9752661 -0.10168111 1.6475046 2.0871819e-38
-0.94434452 -0.096291743 1.6612786 2.0871819e-38
-0.91616666 -0.084446669 1.6730001 2.0871819e-38
-0.97125572 -0.077301323 1.6410003 2.0871819e-38
-0.93466008 -0.062512785 1.6510007 2.0871819e-38
-0.90465289 -0.056719366 1.666664 2.0871819e-38
-0.87510008 -0.046164766 1.671667 2.0871819e-38
-0.93229526 -0.03300447 1.6421995 2.0871819e-38
-0.89871508 -0.020597933 1.6552351 2.0871819e-38
-0.86864799 -0.018740389 1.6679779 2.0871819e-38
-0.83968675 -0.0031866669 1.6730001 2.0871819e-38
-0.89198327 0.017660366 1.6470935 2.0871819e-38
-0.86039472 0.020422501 1.6621554 2.0871819e-38
-0.83413106 0.03015637 1.6722503 2.0871819e-38
-0.88610625 0.050810002 1.6416668 2.0871819e-38
-0.85682893 0.057092585 1.6459886 2.0871819e-38
-0.82567501 0.062783681 1.6673378 2.0871819e-38
-0.85772437 0.086525463 1.6410002 2.0871819e-38
-0.81855363 0.098227292 1.6566101 2.0871819e-38
-0.78974652 0.10776585 1.6718048 2.0871819e-38
-0.80939418 0.13084465 1.6476173 2.0871819e-38
-0.78132159 0.14252211 1.661572 2.0871819e-38
-0.75152224 0.15402223 1.6730002 2.0871819e-38
-0.80330861 0.16722572 1.641 2.0871819e-38
-0.77650416 0.17752805 1.6506276 2.0871819e-38
-0.7423678 0.18128388 1.6666381 2.0871819e-38
-0.71696699 0.19625929 1.6720002 2.0871819e-38
-0.76645428 0.2124684 1.6425648 2.0871819e-38
-0.73925251 0.2193563 1.6502548 2.0871819e-38
-0.70673591 0.2231093 1.667519 2.0871819e-38
-0.73396003 0.25297716 1.6422796 2.0871819e-38
-0.69784254 0.25924712 1.6573144 2.0871819e-38
-0.67273867 0.27259764 1.6691908 2.0871819e-38
-0.72985429 0.28756571 1.641 2.0871819e-38
-0.68877542 0.29538265 1.6479678 2.0871819e-38
-0.66276741 0.30064577 1.6652468 2.0871819e-38
-0.63733339 0.30910671 1.6730001 2.0871819e-38
-0.65535259 0.33566615 1.6509283 2.0871819e-38
-0.62706864 0.34679121 1.6673868 2.0871819e-38
-0.64973736 0.36431023 1.6410004 2.0871819e-38
-0.61957198 0.37890747 1.6554167 2.0871819e-38
-0.58733964 0.38575712 1.6648455 2.0871819e-38
-0.60877275 0.41424435 1.6481898 2.0871819e-38
-0.57973599 0.42107573 1.6563916 2.0871819e-38
-0.55049598 0.43440384 1.6698426 2.0871819e-38
-0.5744952 0.45395273 1.6466526 2.0871819e-38
-0.54168963 0.46224642 1.6605557 2.0871819e-38
-0.51783335 0.47959337 1.6730001 2.0871819e-38
-0.53559077 0.49798828 1.6519556 2.0871819e-38
-0.50844735 0.50886208 1.6649123 2.0871819e-38
-0.5298546 0.52750695 1.6444997 2.0871819e-38
-0.49855879 0.53785092 1.6541845 2.0871819e-38
-0.46501979 0.54848212 1.6688296 2.0871819e-38
-0.5844565 0.593117 1.6530001 2.0871819e-38
-0.49095747 0.57576817 1.6474472 2.0871819e-38
-0.45889315 0.57932204 1.6562278 2.0871819e-38
-0.43297035 0.58689773 1.6704397 2.0871819e-38
-0.48370352 0.60658443 1.6421428 2.0871819e-38
-0.46001762 0.61901867 1.6474268 2.0871819e-38
-0.42434412 0.6228081 1.6619041 2.0871819e-38
-0.39992669 0.63892668 1.6730001 2.0871819e-38
-0.44333047 0.64337623 1.6410002 2.0871819e-38
-0.41648901 0.65834308 1.6483327 2.0871819e-38
-0.38703623 0.66604882 1.6693181 2.0871819e-38
-0.3585 0.67557335 1.6730001 2.0871819e-38
-0.41039377 0.69591069 1.64235 2.0871819e-38
-0.37922966 0.69744557 1.6536725 2.0871819e-38
-0.34571633 0.70379239 1.6721504 2.0871819e-38
-0.31707337 0.69628668 1.6730001 2.0871819e-38
-0.40399855 0.72125858 1.641 2.0871819e-38
-0.37817842 0.7295509 1.6484231 2.0871819e-38
-0.34005991 0.73343503 1.6664542 2.0871819e-38
-0.30899483 0.74255657 1.6717696 2.0871819e-38
-1.0252352 -0.32646018 1.7146251 2.0871819e-38
-1.0140193 -0.29925108 1.7085913 2.0871819e-38
-0.99469995 -0.28583336 1.715 2.0871819e-38
-1.0082383 -0.26271105 1.696764 2.0871819e-38
-0.98529041 -0.25719687 1.70937 2.0871819e-38
-1.0051227 -0.22211909 1.6823332 2.0871819e-38
-0.9816249 -0.21925078 1.6982768 2.0871819e-38
-0.94390869 -0.21329923 1.7149978 2.0871819e-38
-0.91956669 -0.2009 1.715 2.0871819e-38
-1.0005953 -0.19691716 1.6810001 2.0871819e-38
-0.97117174 -0.18497388 1.6858286 2.0871819e-38
-0.94076777 -0.17866564 1.7033488 2.0871819e-38
-0.91010928 -0.17145966 1.7146251 2.0871819e-38
-0.96297294 -0.15209049 1.681 2.0871819e-38
-0.93894017 -0.14017116 1.6933835 2.0871819e-38
-0.90308815 -0.13881993 1.7096565 2.0871819e-38
-0.87709999 -0.1225 1.715 2.0871819e-38
-0.92973226 -0.10807443 1.684409 2.0871819e-38
-0.89993256 -0.099800408 1.696144 2.0871819e-38
-0.87142038 -0.096385829 1.7096618 2.0871819e-38
-0.89197904 -0.067458823 1.6834931 2.0871819e-38
-0.86113304 -0.058665372 1.6993945 2.0871819e-38
-0.83589959 -0.050057538 1.7081765 2.0871819e-38
-0.85263819 -0.02186875 1.6903619 2.0871819e-38
-0.82616389 -0.015830919 1.70771 2.0871819e-38
-0.79706669 -0.0016333334 1.715 2.0871819e-38
-0.84253085 0.012285398 1.684 2.0871819e-38
-0.8191784 0.018506005 1.6973954 2.0871819e-38
-0.793446 0.02352537 1.7119994 2.0871819e-38
-0.80694354 0.055007752 1.6882501 2.0871819e-38
-0.78323966 0.062218066 1.7045375 2.0871819e-38
-0.75140238 0.064136304 1.7137989 2.0871819e-38
-0.80367815 0.081648573 1.6810001 2.0871819e-38
-0.7756846 0.096985765 1.6936289 2.0871819e-38
-0.74266112 0.10484072 1.7040076 2.0871819e-38
-0.71703333 0.11923333 1.715 2.0871819e-38
-0.76577586 0.12896985 1.6858886 2.0871819e-38
-0.73876399 0.13928047 1.692564 2.0871819e-38
-0.7085495 0.14416422 1.706764 2.0871819e-38
-0.72815847 0.17010228 1.6850246 2.0871819e-38
-0.70062876 0.18024367 1.7011194 2.0871819e-38
-0.67044789 0.1853478 1.7149993 2.0871819e-38
-0.69059616 0.21599536 1.6901242 2.0871819e-38
-0.66414487 0.22273907 1.7034371 2.0871819e-38
