# .PCD v0.7 - Point Cloud Data file format
VERSION 0.7
FIELDS x y z rgb
SIZE 4 4 4 4
TYPE F F F F
COUNT 1 1 1 1
WIDTH 1020
HEIGHT 1
VIEWPOINT 0 0 0 1 0 0 0
POINTS 1020
DATA ascii
0.088414669 0.1884129 2.1914001 7.2574116e-39
0.072885059 0.21300687 2.1670001 7.2574116e-39
0.097095415 0.22251476 2.1842239 7.2574116e-39
0.12784088 0.23079741 2.1940002 7.2574116e-39
0.10843817 0.25557497 2.1773207 7.2574116e-39
0.13403653 0.26209041 2.1928396 7.2574116e-39
0.11307905 0.29641545 2.1675184 7.2574116e-39
0.1387448 0.30072078 2.1860552 7.2574116e-39
0.16692972 0.30808869 2.194 7.2574116e-39
0.20477334 0.30924952 2.194 7.2574116e-39
0.11763714 0.3260819 2.1670001 7.2574116e-39
0.13929121 0.33624265 2.1792386 7.2574116e-39
0.16576889 0.33014476 2.1940002 7.2574116e-39
-0.48543656 -0.7290445 2.2080002 7.2574116e-39
-0.46068984 -0.73032045 2.2158363 7.2574116e-39
-0.41931012 -0.73151165 2.2185988 7.2574116e-39
-0.37930658 -0.73167032 2.220428 7.2574116e-39
-0.34171906 -0.72698176 2.21615 7.2574116e-39
-0.3028678 -0.72559768 2.2105002 7.2574116e-39
-0.26325777 -0.72468472 2.2080002 7.2574116e-39
-0.22921145 -0.72128004 2.2080002 7.2574116e-39
-0.17579888 -0.72254181 2.2080002 7.2574116e-39
-0.13806741 -0.72456026 2.2086821 7.2574116e-39
-0.10093715 -0.72548604 2.2080002 7.2574116e-39
-0.076123439 -0.72464466 2.2080002 7.2574116e-39
-0.48533949 -0.70550865 2.2080002 7.2574116e-39
-0.45950496 -0.70119637 2.2265213 7.2574116e-39
-0.42360809 -0.70409763 2.2365553 7.2574116e-39
-0.38058051 -0.71506542 2.2369998 7.2574116e-39
-0.33697426 -0.70663071 2.228714 7.2574116e-39
-0.30128562 -0.71185613 2.2221251 7.2574116e-39
-0.25705194 -0.70784718 2.2224195 7.2574116e-39
-0.22278371 -0.70537871 2.2264159 7.2574116e-39
-0.18164928 -0.70885789 2.2237694 7.2574116e-39
-0.13828953 -0.71068448 2.2271802 7.2574116e-39
-0.10005339 -0.71039689 2.2230165 7.2574116e-39
-0.060778402 -0.70363498 2.2213736 7.2574116e-39
-0.019292045 -0.70194668 2.2223516 7.2574116e-39
0.019320717 -0.69720405 2.2191 7.2574116e-39
0.060480509 -0.69339788 2.2198391 7.2574116e-39
0.098614998 -0.69598383 2.2174578 7.2574116e-39
0.14203493 -0.69387627 2.2194598 7.2574116e-39
0.18098915 -0.6917572 2.2176235 7.2574116e-39
0.22376044 -0.68787336 2.2136924 7.2574116e-39
0.25915253 -0.6888656 2.2154167 7.2574116e-39
0.30182108 -0.68998587 2.2191799 7.2574116e-39
0.34073699 -0.68768799 2.2194781 7.2574116e-39
0.38079372 -0.68947875 2.2196078 7.2574116e-39
0.41930544 -0.68904632 2.217 7.2574116e-39
0.46001029 -0.68815035 2.2233498 7.2574116e-39
0.49472854 -0.68557918 2.2128 7.2574116e-39
0.5421142 -0.68648255 2.2120001 7.2574116e-39
0.56146294 -0.68342859 2.2080002 7.2574116e-39
0.62382561 -0.68642759 2.2116208 7.2574116e-39
0.66016269 -0.69192427 2.211 7.2574116e-39
0.70273513 -0.68678272 2.2201178 7.2574116e-39
0.74148011 -0.68838233 2.2212856 7.2574116e-39
0.77319294 -0.6864267 2.2106087 7.2574116e-39
0.81682515 -0.68489867 2.2105 7.2574116e-39
-0.48155436 -0.67501724 2.2080002 7.2574116e-39
-0.45989349 -0.66198093 2.2161 7.2574116e-39
-0.4253659 -0.65809494 2.2316363 7.2574116e-39
-0.39584246 -0.64553428 2.237 7.2574116e-39
0.17622082 -0.67901313 2.237 7.2574116e-39
0.21602824 -0.67510629 2.2302499 7.2574116e-39
0.26033062 -0.67606801 2.2334998 7.2574116e-39
0.29504931 -0.67580116 2.2344642 7.2574116e-39
0.3445498 -0.6784817 2.2342 7.2574116e-39
0.37864578 -0.67592788 2.2360666 7.2574116e-39
0.41873166 -0.6747725 2.236517 7.2574116e-39
0.46515399 -0.67962188 2.237 7.2574116e-39
0.50103319 -0.66929507 2.2305143 7.2574116e-39
0.53790569 -0.66798353 2.2329712 7.2574116e-39
0.57863396 -0.66945779 2.2260013 7.2574116e-39
0.62043375 -0.67282975 2.2321222 7.2574116e-39
0.65837473 -0.67436004 2.2284789 7.2574116e-39
0.70205802 -0.6716671 2.2360663 7.2574116e-39
0.74097896 -0.66809374 2.2350612 7.2574116e-39
0.77925634 -0.66626036 2.2215765 7.2574116e-39
0.82157785 -0.66904849 2.2233932 7.2574116e-39
0.85906863 -0.65863645 2.2190251 7.2574116e-39
0.89891058 -0.66118515 2.2193387 7.2574116e-39
0.93981284 -0.65850747 2.2201686 7.2574116e-39
0.97967827 -0.65075517 2.2121887 7.2574116e-39
1.0137186 -0.65119314 2.2168365 7.2574116e-39
1.0535315 -0.64137149 2.2080002 7.2574116e-39
1.091383 -0.64137149 2.2080002 7.2574116e-39
-0.44737345 -0.6264199 2.2088335 7.2574116e-39
-0.42054901 -0.62043977 2.2211823 7.2574116e-39
-0.39119953 -0.61394429 2.2369998 7.2574116e-39
0.91397429 -0.63701236 2.237 7.2574116e-39
0.95483142 -0.63620138 2.223 7.2574116e-39
0.98038882 -0.63492703 2.2291198 7.2574116e-39
1.0283685 -0.6243214 2.2162778 7.2574116e-39
1.0593705 -0.62059808 2.2123148 7.2574116e-39
1.0855201 -0.62366259 2.2110834 7.2574116e-39
-0.413082 -0.58541459 2.2163541 7.2574116e-39
-0.37961635 -0.5776335 2.2266762 7.2574116e-39
-0.3430067 -0.56535095 2.2369998 7.2574116e-39
1.0666424 -0.58290201 2.221688 7.2574116e-39
1.0828326 -0.58560753 2.2098751 7.2574116e-39
-0.40404898 -0.53712988 2.2080002 7.2574116e-39
-0.37913355 -0.54122126 2.2149339 7.2574116e-39
-0.33934325 -0.5394218 2.2265718 7.2574116e-39
-0.31239918 -0.53066796 2.2315214 7.2574116e-39
1.0362691 -0.52343035 2.2251668 7.2574116e-39
1.0603898 -0.54039705 2.2190399 7.2574116e-39
-0.37335277 -0.51672947 2.2080002 7.2574116e-39
-0.33951452 -0.50118661 2.2116165 7.2574116e-39
-0.30225253 -0.49926004 2.2277634 7.2574116e-39
-0.27909237 -0.48574859 2.237 7.2574116e-39
1.0368311 -0.50458735 2.2168636 7.2574116e-39
1.0531973 -0.50026447 2.2112336 7.2574116e-39
-0.33089969 -0.46728486 2.2080002 7.2574116e-39
-0.29967007 -0.45997122 2.2154436 7.2574116e-39
-0.26926035 -0.45669907 2.2288046 7.2574116e-39
1.031534 -0.45068663 2.2259667 7.2574116e-39
1.049401 -0.46745124 2.2163181 7.2574116e-39
-0.29393026 -0.42535681 2.2083335 7.2574116e-39
-0.26414266 -0.41874647 2.220026 7.2574116e-39
1.0290695 -0.41966915 2.2195668 7.2574116e-39
1.0434378 -0.4159452 2.2080002 7.2574116e-39
-0.28528762 -0.39603814 2.2080002 7.2574116e-39
-0.2617901 -0.38786417 2.2120638 7.2574116e-39
1.0245641 -0.37841913 2.2270141 7.2574116e-39
1.0183347 -0.33918998 2.2271435 7.2574116e-39
0.99262697 -0.2880874 2.2277389 7.2574116e-39
1.0094416 -0.30459982 2.2170677 7.2574116e-39
0.99091244 -0.26329353 2.2259309 7.2574116e-39
1.0092268 -0.26463696 2.2113113 7.2574116e-39
-0.1287729 -0.21225691 2.2292757 7.2574116e-39
-0.10961219 -0.20902145 2.2348998 7.2574116e-39
1.0014086 -0.23923714 2.223 7.2574116e-39
1.0689526 -0.23552004 2.2080002 7.2574116e-39
1.0874168 -0.23017874 2.2119336 7.2574116e-39
-0.13629478 -0.17889011 2.224905 7.2574116e-39
-0.10430296 -0.17902549 2.2262669 7.2574116e-39
-0.13306791 -0.14794104 2.2115295 7.2574116e-39
-0.10065864 -0.1406685 2.2191737 7.2574116e-39
-0.065633252 -0.13513929 2.231596 7.2574116e-39
-0.094364449 -0.10230158 2.2102883 7.2574116e-39
-0.060514994 -0.10095597 2.2157693 7.2574116e-39
-0.030229593 -0.092894591 2.2265334 7.2574116e-39
-0.085376002 -0.075282298 2.2080002 7.2574116e-39
-0.058115344 -0.066526785 2.2080002 7.2574116e-39
-0.022105716 -0.059265599 2.2220249 7.2574116e-39
0.0042609521 -0.051131435 2.2369998 7.2574116e-39
-0.014636649 -0.026557773 2.211261 7.2574116e-39
0.01723926 -0.016085323 2.2257729 7.2574116e-39
0.043870926 -0.011503683 2.2360666 7.2574116e-39
0.023392634 0.019434279 2.2111595 7.2574116e-39
0.049698077 0.020616559 2.2283587 7.2574116e-39
0.032189898 0.053218469 2.2080002 7.2574116e-39
0.060151089 0.060835131 2.220063 7.2574116e-39
0.085800089 0.069530994 2.2369998 7.2574116e-39
0.066490814 0.098716259 2.2119184 7.2574116e-39
0.093855485 0.10208272 2.2278595 7.2574116e-39
0.070270486 0.13248003 2.2080002 7.2574116e-39
0.097547233 0.14097649 2.2137065 7.2574116e-39
0.12613571 0.15699762 2.2352498 7.2574116e-39
0.1039921 0.17864487 2.2114298 7.2574116e-39
0.13393004 0.18334924 2.228941 7.2574116e-39
0.11189412 0.20995367 2.2080002 7.2574116e-39
0.14309806 0.21908422 2.223069 7.2574116e-39
0.17112382 0.23155525 2.2306361 7.2574116e-39
0.15066358 0.255559 2.2080002 7.2574116e-39
0.17696019 0.26156625 2.2255533 7.2574116e-39
0.20949683 0.27767205 2.237 7.2574116e-39
0.15771429 0.29440004 2.2080002 7.2574116e-39
0.18133955 0.30068743 2.2121992 7.2574116e-39
0.2184439 0.30367863 2.2310331 7.2574116e-39
0.24216413 0.31104952 2.237 7.2574116e-39
0.1783924 0.32734486 2.2080002 7.2574116e-39
0.20608002 0.32173717 2.2080002 7.2574116e-39
-0.40957856 -0.69552916 2.2565291 7.2574116e-39
-0.38195425 -0.70514327 2.2612393 7.2574116e-39
-0.33841318 -0.69442767 2.2594111 7.2574116e-39
-0.29915488 -0.69751084 2.260247 7.2574116e-39
-0.26378018 -0.69317335 2.2575994 7.2574116e-39
-0.2172565 -0.69025213 2.2597363 7.2574116e-39
-0.17884143 -0.69519329 2.2594111 7.2574116e-39
-0.14212912 -0.69470763 2.2593555 7.2574116e-39
-0.10174055 -0.69493175 2.2606537 7.2574116e-39
-0.060856361 -0.69060612 2.2558177 7.2574116e-39
-0.020237593 -0.68958181 2.2543328 7.2574116e-39
0.022690019 -0.68640625 2.2544348 7.2574116e-39
0.057116918 -0.68621588 2.2533333 7.2574116e-39
0.1010136 -0.68730664 2.2566664 7.2574116e-39
0.14081086 -0.68718845 2.2540739 7.2574116e-39
0.18016002 -0.68560886 2.2520001 7.2574116e-39
0.46034393 -0.68573886 2.2520003 7.2574116e-39
-0.40943828 -0.66855335 2.2536798 7.2574116e-39
-0.38621438 -0.65764719 2.2617729 7.2574116e-39
-0.34333333 -0.6639086 2.266 7.2574116e-39
-0.30860761 -0.67980003 2.266 7.2574116e-39
-0.25289854 -0.67981285 2.2639999 7.2574116e-39
-0.22120476 -0.67872095 2.266 7.2574116e-39
-0.19638668 -0.67116761 2.266 7.2574116e-39
-0.13020508 -0.67908067 2.266 7.2574116e-39
-0.088481903 -0.67980003 2.266 7.2574116e-39
-0.054362506 -0.67799681 2.2637897 7.2574116e-39
-0.022093808 -0.67846239 2.2642503 7.2574116e-39
0.021670258 -0.67157012 2.2644086 7.2574116e-39
0.060700655 -0.66814524 2.2624536 7.2574116e-39
0.10030886 -0.66608286 2.2653735 7.2574116e-39
0.14042313 -0.66883415 2.2648132 7.2574116e-39
0.17961657 -0.66909105 2.2601488 7.2574116e-39
0.22050937 -0.66146219 2.2554333 7.2574116e-39
0.25966218 -0.6630348 2.2548563 7.2574116e-39
0.30225697 -0.66405249 2.2538142 7.2574116e-39
0.33963889 -0.66573709 2.2549691 7.2574116e-39
0.38153559 -0.66325116 2.2563915 7.2574116e-39
0.41901141 -0.66227794 2.254905 7.2574116e-39
0.46134925 -0.66828179 2.2558382 7.2574116e-39
0.49798375 -0.6546976 2.2572496 7.2574116e-39
0.5413751 -0.65579808 2.255733 7.2574116e-39
0.5818187 -0.6546669 2.2558181 7.2574116e-39
0.62013251 -0.66249579 2.257185 7.2574116e-39
0.66203642 -0.66745591 2.2534738 7.2574116e-39
0.70218974 -0.65968287 2.2562773 7.2574116e-39
0.74120599 -0.65803277 2.2607503 7.2574116e-39
0.78041899 -0.65004998 2.2642496 7.2574116e-39
0.8199333 -0.65070331 2.2628064 7.2574116e-39
0.85992122 -0.64904612 2.2652814 7.2574116e-39
0.90083158 -0.64528376 2.2594113 7.2574116e-39
0.94314694 -0.64662117 2.2573845 7.2574116e-39
0.96411175 -0.64394158 2.2613335 7.2574116e-39
1.0248061 -0.64111906 2.2590001 7.2574116e-39
-0.37379226 -0.622527 2.2602618 7.2574116e-39
-0.34345016 -0.61720669 2.2629447 7.2574116e-39
0.78051108 -0.6366381 2.2660003 7.2574116e-39
0.82223433 -0.6366381 2.2660003 7.2574116e-39
0.87294948 -0.63340092 2.266 7.2574116e-39
0.89897066 -0.63435984 2.2650671 7.2574116e-39
0.93848765 -0.63136286 2.2633328 7.2574116e-39
0.97882694 -0.62721288 2.2618239 7.2574116e-39
1.024613 -0.62567747 2.2637494 7.2574116e-39
1.0463324 -0.61246204 2.2595384 7.2574116e-39
-0.36544785 -0.59440839 2.2572501 7.2574116e-39
-0.33782721 -0.58544165 2.2572823 7.2574116e-39
-0.30506763 -0.57628465 2.264703 7.2574116e-39
1.0545934 -0.57886678 2.2561994 7.2574116e-39
-0.29630479 -0.54275709 2.2570906 7.2574116e-39
-0.27309176 -0.5369398 2.2654998 7.2574116e-39
1.0371288 -0.53365391 2.2620006 7.2574116e-39
1.0471234 -0.54628313 2.2576871 7.2574116e-39
-0.28257242 -0.50455528 2.2520001 7.2574116e-39
-0.26284897 -0.49780151 2.2618434 7.2574116e-39
-0.23667109 -0.49060702 2.266 7.2574116e-39
1.0375043 -0.49690145 2.266 7.2574116e-39
1.04436 -0.49955431 2.2609997 7.2574116e-39
-0.25241199 -0.46338338 2.2579994 7.2574116e-39
-0.23135887 -0.45624337 2.2659996 7.2574116e-39
1.0297894 -0.4591065 2.2617998 7.2574116e-39
1.0439725 -0.47331432 2.2590001 7.2574116e-39
-0.24529307 -0.4250015 2.2520001 7.2574116e-39
-0.22054297 -0.41992274 2.2640703 7.2574116e-39
-0.1907424 -0.41252825 2.2660005 7.2574116e-39
1.0265607 -0.42098647 2.2616439 7.2574116e-39
-0.24450287 -0.39678097 2.2520001 7.2574116e-39
-0.23592383 -0.39678097 2.2520001 7.2574116e-39
-0.19422857 -0.39708954 2.266 7.2574116e-39
1.0131289 -0.37869388 2.2605708 7.2574116e-39
0.99344331 -0.33101073 2.266 7.2574116e-39
1.008725 -0.34269565 2.2606466 7.2574116e-39
0.98477095 -0.2985718 2.2638271 7.2574116e-39
1.0052092 -0.31109181 2.258364 7.2574116e-39
-0.12742911 -0.24919775 2.2609093 7.2574116e-39
-0.10697986 -0.25360698 2.2659996 7.2574116e-39
-0.064742856 -0.25033906 2.266 7.2574116e-39
0.95603621 -0.26544571 2.266 7.2574116e-39
0.97506601 -0.26083452 2.2577269 7.2574116e-39
1.008038 -0.24450287 2.2520001 7.2574116e-39
-0.12825677 -0.23377906 2.2520003 7.2574116e-39
-0.097619854 -0.22436447 2.2606668 7.2574116e-39
-0.058313034 -0.21632354 2.2648132 7.2574116e-39
-0.033035457 -0.2080072 2.2660005 7.2574116e-39
1.1092609 -0.22803873 2.266 7.2574116e-39
-0.17166644 -0.17114636 2.2631998 7.2574116e-39
-0.15689208 -0.17696318 2.2566669 7.2574116e-39
-0.087538436 -0.18446298 2.2534738 7.2574116e-39
-0.060080115 -0.17955686 2.2571583 7.2574116e-39
-0.030213332 -0.17012984 2.2660003 7.2574116e-39
-0.16729143 -0.15656763 2.2520001 7.2574116e-39
-0.050885562 -0.14479846 2.2523885 7.2574116e-39
-0.020872146 -0.13896444 2.2605135 7.2574116e-39
0.008324082 -0.12486123 2.266 7.2574116e-39
-0.040750477 -0.11796191 2.2520001 7.2574116e-39
-0.014220703 -0.10396574 2.2532957 7.2574116e-39
0.016257204 -0.097959757 2.265533 7.2574116e-39
0.042442542 -0.089201272 2.266 7.2574116e-39
-0.0068632388 -0.075066671 2.2520003 7.2574116e-39
0.021654656 -0.061503094 2.255949 7.2574116e-39
0.05187048 -0.055322919 2.2654393 7.2574116e-39
0.027595941 -0.032743368 2.2520006 7.2574116e-39
0.061896585 -0.02107507 2.2585883 7.2574116e-39
0.084165715 -0.0021580954 2.266 7.2574116e-39
0.069428414 0.01761825 2.2543328 7.2574116e-39
0.091657758 0.022498993 2.2651994 7.2574116e-39
0.076675236 0.045576192 2.2520001 7.2574116e-39
0.10118141 0.060665488 2.2585881 7.2574116e-39
0.12763593 0.072142042 2.2660005 7.2574116e-39
0.11296032 0.097260378 2.2541537 7.2574116e-39
0.13568532 0.10433964 2.2624993 7.2574116e-39
0.16185714 0.11869524 2.266 7.2574116e-39
0.11581714 0.13083048 2.2520003 7.2574116e-39
0.14049008 0.13889213 2.2574539 7.2574116e-39
0.16849743 0.14708249 2.2659998 7.2574116e-39
0.1494479 0.17440675 2.252424 7.2574116e-39
0.17769216 0.18107015 2.2625442 7.2574116e-39
0.2021416 0.18727472 2.266 7.2574116e-39
0.15370797 0.2137613 2.2520003 7.2574116e-39
0.18307623 0.21647772 2.2543328 7.2574116e-39
0.21537523 0.22474802 2.2628384 7.2574116e-39
0.24602285 0.23739047 2.266 7.2574116e-39
0.19746111 0.2566565 2.2520006 7.2574116e-39
0.22143956 0.25970948 2.2556746 7.2574116e-39
0.24961831 0.26137021 2.2594113 7.2574116e-39
0.19946286 0.28310859 2.2520001 7.2574116e-39
0.22454007 0.2869032 2.2519999 7.2574116e-39
0.2534923 0.29545128 2.2588286 7.2574116e-39
-0.37885311 -0.69511145 2.2809989 7.2574116e-39
-0.34975335 -0.68755853 2.2810001 7.2574116e-39
-0.29858172 -0.68430001 2.2810001 7.2574116e-39
-0.27372003 -0.68430001 2.2810001 7.2574116e-39
-0.220376 -0.68526554 2.2810001 7.2574116e-39
-0.17654389 -0.68479741 2.2863331 7.2574116e-39
-0.15369383 -0.6828717 2.2890003 7.2574116e-39
-0.099951886 -0.68362653 2.2885234 7.2574116e-39
-0.076033339 -0.68647242 2.2810001 7.2574116e-39
-0.02625143 -0.68034959 2.2970002 7.2574116e-39
-0.36975959 -0.66594356 2.2819135 7.2574116e-39
-0.33873406 -0.66175771 2.2810001 7.2574116e-39
-0.30131263 -0.66211313 2.2933462 7.2574116e-39
-0.26068127 -0.67198247 2.2915177 7.2574116e-39
-0.21860608 -0.67184782 2.2938321 7.2574116e-39
-0.182734 -0.67236203 2.296999 7.2574116e-39
-0.13853987 -0.67519182 2.296299 7.2574116e-39
-0.097832248 -0.67550725 2.2981496 7.2574116e-39
-0.059659559 -0.66148591 2.2966657 7.2574116e-39
-0.019548943 -0.66113824 2.3011534 7.2574116e-39
0.018187916 -0.65533096 2.2978663 7.2574116e-39
0.059153359 -0.65208322 2.3071685 7.2574116e-39
0.099810377 -0.65177149 2.303658 7.2574116e-39
0.13883348 -0.65330458 2.2931523 7.2574116e-39
0.17982291 -0.64903092 2.2935879 7.2574116e-39
0.22027679 -0.6498723 2.2997105 7.2574116e-39
0.25914007 -0.6500504 2.2971239 7.2574116e-39
0.29904309 -0.65040374 2.2924709 7.2574116e-39
0.34028181 -0.6489439 2.2978761 7.2574116e-39
0.37949386 -0.65001214 2.2979209 7.2574116e-39
0.42280456 -0.64899361 2.2974606 7.2574116e-39
0.45998898 -0.65028358 2.2979202 7.2574116e-39
0.49540141 -0.64671022 2.2901943 7.2574116e-39
0.5440076 -0.64561111 2.2834237 7.2574116e-39
0.57937443 -0.64731157 2.285521 7.2574116e-39
0.620161 -0.64951479 2.2862403 7.2574116e-39
0.66207266 -0.65422666 2.2879488 7.2574116e-39
0.69775826 -0.64950502 2.286128 7.2574116e-39
0.74177879 -0.64861321 2.2865503 7.2574116e-39
0.77091289 -0.64685094 2.289 7.2574116e-39
0.81464291 -0.64085245 2.2810001 7.2574116e-39
0.85181475 -0.64230067 2.2810001 7.2574116e-39
-0.32782263 -0.62430102 2.2809997 7.2574116e-39
-0.30190304 -0.61921722 2.2896075 7.2574116e-39
-0.26720053 -0.60912168 2.3096001 7.2574116e-39
-0.068259053 -0.63635051 2.312 7.2574116e-39
0.033028573 -0.63635051 2.312 7.2574116e-39
0.17835429 -0.63635051 2.312 7.2574116e-39
0.2245943 -0.63635051 2.312 7.2574116e-39
0.26321459 -0.63309383 2.3091872 7.2574116e-39
0.30093241 -0.63279635 2.3064282 7.2574116e-39
0.34135923 -0.6299963 2.3115826 7.2574116e-39
0.37864608 -0.63145727 2.312 7.2574116e-39
0.41806716 -0.63391632 2.3087394 7.2574116e-39
0.4601981 -0.63488263 2.3120003 7.2574116e-39
0.50652713 -0.62830895 2.2994301 7.2574116e-39
0.53893149 -0.6281724 2.2995789 7.2574116e-39
0.58124942 -0.63273215 2.3051817 7.2574116e-39
0.61866868 -0.63065803 2.3057795 7.2574116e-39
0.65402627 -0.63133842 2.3061934 7.2574116e-39
0.70132619 -0.63255888 2.3030267 7.2574116e-39
0.74148971 -0.63310653 2.3065453 7.2574116e-39
0.78248084 -0.62751085 2.2961442 7.2574116e-39
0.81899321 -0.62701488 2.2954187 7.2574116e-39
0.86075431 -0.62634522 2.2914217 7.2574116e-39
0.90219462 -0.62328303 2.2934675 7.2574116e-39
0.93856817 -0.61522615 2.2919843 7.2574116e-39
0.97784495 -0.61178583 2.2916594 7.2574116e-39
1.0171551 -0.60989779 2.2864711 7.2574116e-39
1.0470877 -0.60392195 2.2810001 7.2574116e-39
-0.28721985 -0.58545661 2.2809994 7.2574116e-39
-0.2587561 -0.5791598 2.2989068 7.2574116e-39
-0.22795507 -0.56913447 2.312 7.2574116e-39
0.98259747 -0.59564841 2.2826002 7.2574116e-39
1.0310524 -0.58423537 2.3002439 7.2574116e-39
1.0459974 -0.58269894 2.284199 7.2574116e-39
-0.25505579 -0.54187024 2.2849288 7.2574116e-39
-0.22060123 -0.53869718 2.2991729 7.2574116e-39
-0.19596952 -0.53616381 2.312 7.2574116e-39
1.0324157 -0.54013044 2.2941129 7.2574116e-39
1.0411867 -0.53788453 2.2867274 7.2574116e-39
-0.24799445 -0.5100522 2.2809999 7.2574116e-39
-0.21999383 -0.50073165 2.2926242 7.2574116e-39
-0.18244192 -0.49196482 2.3055706 7.2574116e-39
1.0285101 -0.49871966 2.298912 7.2574116e-39
1.0414395 -0.50312346 2.2810001 7.2574116e-39
-0.21184602 -0.46180272 2.2817101 7.2574116e-39
-0.18011433 -0.4604573 2.2984815 7.2574116e-39
-0.15339938 -0.44772065 2.3120003 7.2574116e-39
0.99526101 -0.44258285 2.312 7.2574116e-39
1.0157274 -0.46030855 2.2932971 7.2574116e-39
-0.20203143 -0.43664858 2.2810001 7.2574116e-39
-0.17746443 -0.42044973 2.2826085 7.2574116e-39
-0.14808032 -0.41723669 2.2999992 7.2574116e-39
0.99438435 -0.41554448 2.3018482 7.2574116e-39
1.0109547 -0.42160538 2.2872531 7.2574116e-39
-0.17968695 -0.39351138 2.2810001 7.2574116e-39
-0.15641144 -0.39754575 2.2810001 7.2574116e-39
0.98402959 -0.37824094 2.2925651 7.2574116e-39
1.0052198 -0.38194409 2.2809997 7.2574116e-39
-0.062754281 -0.3284508 2.3120003 7.2574116e-39
0.98256356 -0.34115192 2.2934713 7.2574116e-39
1.0021918 -0.35120159 2.2810001 7.2574116e-39
-0.095241584 -0.29083499 2.2958152 7.2574116e-39
-0.058764562 -0.29878446 2.3074429 7.2574116e-39
0.95366335 -0.29407716 2.3054287 7.2574116e-39
0.97062415 -0.30283672 2.2922029 7.2574116e-39
-0.12584984 -0.26693517 2.282778 7.2574116e-39
-0.093039379 -0.26415625 2.2813544 7.2574116e-39
-0.058350943 -0.26057872 2.2898729 7.2574116e-39
-0.020886196 -0.25776193 2.3109112 7.2574116e-39
0.0022019048 -0.25542092 2.312 7.2574116e-39
0.91819429 -0.25101715 2.312 7.2574116e-39
0.94347483 -0.25670141 2.3051045 7.2574116e-39
0.96557689 -0.26221082 2.2956004 7.2574116e-39
-0.080378108 -0.22810002 2.2810001 7.2574116e-39
-0.062636994 -0.2277379 2.2809997 7.2574116e-39
-0.018177429 -0.22101426 2.2974904 7.2574116e-39
0.0083662849 -0.20762447 2.3110001 7.2574116e-39
1.1100867 -0.22810002 2.2810001 7.2574116e-39
-0.17328918 -0.18498662 2.2810001 7.2574116e-39
-0.017684491 -0.18237256 2.2870283 7.2574116e-39
0.018466914 -0.17935631 2.3076503 7.2574116e-39
0.044038098 -0.16514286 2.3120003 7.2574116e-39
-0.0034137417 -0.15175635 2.2810001 7.2574116e-39
0.020620203 -0.14280732 2.2862463 7.2574116e-39
0.054034058 -0.13281351 2.3090639 7.2574116e-39
0.028654743 -0.11203278 2.2809997 7.2574116e-39
0.06057154 -0.099608213 2.3009982 7.2574116e-39
0.081470475 -0.085874282 2.312 7.2574116e-39
0.067671612 -0.064642467 2.2872422 7.2574116e-39
0.094379358 -0.056924384 2.3021679 7.2574116e-39
0.076033339 -0.017379049 2.2810001 7.2574116e-39
0.099212073 -0.019730495 2.2936258 7.2574116e-39
0.13378268 -0.016276546 2.3117044 7.2574116e-39
0.10732503 0.016639668 2.2844586 7.2574116e-39
0.13712053 0.020964697 2.3077414 7.2574116e-39
0.16073905 0.033028573 2.312 7.2574116e-39
0.11561894 0.048999261 2.2810001 7.2574116e-39
0.14216453 0.057212554 2.298408 7.2574116e-39
0.17361172 0.064193986 2.3119991 7.2574116e-39
0.20771304 0.071928896 2.3120003 7.2574116e-39
0.15073901 0.092449427 2.2851286 7.2574116e-39
0.18011452 0.099197648 2.308053 7.2574116e-39
0.2128076 0.10530288 2.3119993 7.2574116e-39
0.18526234 0.1373094 2.2940691 7.2574116e-39
0.21815595 0.1394175 2.3063955 7.2574116e-39
0.24411787 0.14694045 2.312 7.2574116e-39
0.19507982 0.16553544 2.2810001 7.2574116e-39
0.22203636 0.18040964 2.2961152 7.2574116e-39
0.2528792 0.18133457 2.3088405 7.2574116e-39
0.22841984 0.21187249 2.2870686 7.2574116e-39
0.26081273 0.21942909 2.2995627 7.2574116e-39
0.28656217 0.23120001 2.312 7.2574116e-39
0.26938835 0.25774533 2.2922189 7.2574116e-39
0.29987821 0.26212505 2.3094981 7.2574116e-39
0.32588187 0.2708343 2.312 7.2574116e-39
0.27232289 0.29711682 2.2858698 7.2574116e-39
0.29940766 0.29357567 2.3014705 7.2574116e-39
0.32563725 0.29187471 2.312 7.2574116e-39
-0.28367242 -0.65200329 2.3269999 7.2574116e-39
-0.25840449 -0.65557903 2.33303 7.2574116e-39
-0.22094288 -0.65345258 2.3345432 7.2574116e-39
-0.1798449 -0.6538083 2.3389523 7.2574116e-39
-0.1404366 -0.65504885 2.3370671 7.2574116e-39
-0.10054664 -0.65409964 2.3368878 7.2574116e-39
-0.059544478 -0.64470726 2.3297825 7.2574116e-39
-0.01926381 -0.64184296 2.3269999 7.2574116e-39
0.018489841 -0.64158225 2.3283334 7.2574116e-39
0.061848491 -0.64125538 2.3342729 7.2574116e-39
0.099473156 -0.64207751 2.3306363 7.2574116e-39
0.14189245 -0.64368033 2.3333035 7.2574116e-39
0.1762754 -0.64149284 2.3294616 7.2574116e-39
0.20921895 -0.64293879 2.3340001 7.2574116e-39
0.48534575 -0.64491147 2.3270001 7.2574116e-39
-0.2814562 -0.63604671 2.3270001 7.2574116e-39
-0.25666374 -0.62403369 2.3283348 7.2574116e-39
-0.22005141 -0.61870164 2.3398008 7.2574116e-39
-0.18797114 -0.62147093 2.3590009 7.2574116e-39
-0.12627271 -0.63585687 2.353667 7.2574116e-39
-0.11682668 -0.63580668 2.3590002 7.2574116e-39
-0.058073804 -0.63102102 2.3430004 7.2574116e-39
-0.018171646 -0.63194847 2.3451827 7.2574116e-39
0.018572962 -0.63134134 2.3457837 7.2574116e-39
0.057450484 -0.63101077 2.3535266 7.2574116e-39
0.1024378 -0.63352025 2.348 7.2574116e-39
0.14101581 -0.62915438 2.3547561 7.2574116e-39
0.18133207 -0.63241124 2.346513 7.2574116e-39
0.22380243 -0.62460625 2.3468099 7.2574116e-39
0.25779262 -0.62099814 2.3418972 7.2574116e-39
0.30002293 -0.61827308 2.3461049 7.2574116e-39
0.33807173 -0.61715055 2.3488674 7.2574116e-39
0.38171208 -0.61853737 2.3490963 7.2574116e-39
0.41819009 -0.62176853 2.3474309 7.2574116e-39
0.4608264 -0.62220722 2.3449998 7.2574116e-39
0.49902916 -0.61720169 2.341789 7.2574116e-39
0.54085755 -0.61131966 2.338923 7.2574116e-39
0.5797165 -0.6162641 2.3417029 7.2574116e-39
0.61832201 -0.61433083 2.3417311 7.2574116e-39
0.65870988 -0.61583525 2.3446233 7.2574116e-39
0.69795936 -0.61853135 2.3450007 7.2574116e-39
0.73896521 -0.61672014 2.3434319 7.2574116e-39
0.77934921 -0.61461961 2.3459296 7.2574116e-39
0.82005531 -0.60845202 2.332761 7.2574116e-39
0.86039674 -0.60925531 2.3337107 7.2574116e-39
0.90273738 -0.6086815 2.3380771 7.2574116e-39
0.93621135 -0.60557014 2.335649 7.2574116e-39
0.98335326 -0.60429162 2.3302 7.2574116e-39
1.0088582 -0.60042095 2.335 7.2574116e-39
-0.24304223 -0.59467781 2.3270001 7.2574116e-39
-0.21574384 -0.58263803 2.3288839 7.2574116e-39
-0.1826124 -0.57947993 2.3470008 7.2574116e-39
-0.15951334 -0.5639134 2.3590002 7.2574116e-39
0.39166892 -0.59836221 2.3590002 7.2574116e-39
0.40215337 -0.59761333 2.3590002 7.2574116e-39
0.51448679 -0.59761333 2.3590002 7.2574116e-39
0.54348916 -0.59904307 2.3590004 7.2574116e-39
0.58053869 -0.59941071 2.3590004 7.2574116e-39
0.62187737 -0.59896135 2.3590004 7.2574116e-39
0.6597712 -0.59936076 2.3590004 7.2574116e-39
0.70320678 -0.5987367 2.3590002 7.2574116e-39
0.73016673 -0.59817505 2.3590002 7.2574116e-39
0.77510005 -0.59817505 2.3590002 7.2574116e-39
0.81760937 -0.59618801 2.35479 7.2574116e-39
0.86464602 -0.59551442 2.3534353 7.2574116e-39
0.89872575 -0.59264821 2.3509998 7.2574116e-39
0.94314599 -0.5921343 2.3508143 7.2574116e-39
0.98005497 -0.58883041 2.3456054 7.2574116e-39
1.0191576 -0.57934695 2.3419785 7.2574116e-39
-0.20489691 -0.5405491 2.3269999 7.2574116e-39
-0.17965917 -0.53896272 2.3343151 7.2574116e-39
-0.15095437 -0.5350067 2.3570006 7.2574116e-39
0.99826902 -0.52497119 2.3590002 7.2574116e-39
1.0180211 -0.53898948 2.3345399 7.2574116e-39
-0.20167334 -0.51415622 2.3270001 7.2574116e-39
-0.17400798 -0.50830865 2.3280325 7.2574116e-39
-0.14247561 -0.50077081 2.3457048 7.2574116e-39
-0.11557853 -0.48802599 2.3590004 7.2574116e-39
0.98910815 -0.49512309 2.3468528 7.2574116e-39
1.0108558 -0.50327575 2.3311613 7.2574116e-39
-0.13870054 -0.46034706 2.3316939 7.2574116e-39
-0.10079844 -0.45951146 2.3496287 7.2574116e-39
-0.074140012 -0.44259337 2.3590002 7.2574116e-39
0.98334575 -0.46040949 2.3447595 7.2574116e-39
1.0072587 -0.46567705 2.3269999 7.2574116e-39
-0.12916885 -0.4218986 2.3274853 7.2574116e-39
-0.1005634 -0.42039642 2.3379371 7.2574116e-39
-0.066852383 -0.41653061 2.3586199 7.2574116e-39
-0.031203704 -0.40514892 2.3590004 7.2574116e-39
0.98263001 -0.42202374 2.34341 7.2574116e-39
-0.12272858 -0.39942575 2.3430002 7.2574116e-39
-0.095355436 -0.38188627 2.3326013 7.2574116e-39
-0.060204946 -0.38008359 2.3440819 7.2574116e-39
-0.032105595 -0.37910694 2.3590009 7.2574116e-39
0.94803911 -0.37534553 2.3524704 7.2574116e-39
0.96980065 -0.38196647 2.3374498 7.2574116e-39
-0.089829989 -0.34048817 2.3290009 7.2574116e-39
-0.059188087 -0.34236792 2.3311853 7.2574116e-39
-0.022778094 -0.33772895 2.3532076 7.2574116e-39
0.0022466669 -0.32801336 2.3590002 7.2574116e-39
0.94382787 -0.33788785 2.3427751 7.2574116e-39
0.96951634 -0.34222418 2.333262 7.2574116e-39
-0.092847742 -0.31012204 2.3279998 7.2574116e-39
-0.061736751 -0.30615088 2.3270001 7.2574116e-39
-0.020347338 -0.29916468 2.3302407 7.2574116e-39
0.013747025 -0.2922354 2.3535008 7.2574116e-39
0.91626567 -0.29244113 2.3590007 7.2574116e-39
0.93574131 -0.29989532 2.3356018 7.2574116e-39
0.97069144 -0.31691524 2.3270001 7.2574116e-39
-0.0071410579 -0.2632342 2.3269999 7.2574116e-39
0.019710507 -0.25925666 2.336298 7.2574116e-39
0.047874238 -0.25165758 2.3581586 7.2574116e-39
0.91061622 -0.26237068 2.3504672 7.2574116e-39
0.93801743 -0.26791921 2.3338583 7.2574116e-39
0.96827382 -0.25566781 2.3269999 7.2574116e-39
-0.0022161906 -0.23270002 2.3270001 7.2574116e-39
0.022921989 -0.22235297 2.3299546 7.2574116e-39
0.052263681 -0.21815993 2.3510008 7.2574116e-39
0.035902288 -0.19369505 2.3270001 7.2574116e-39
0.061238606 -0.1813983 2.3401897 7.2574116e-39
0.090707414 -0.17351951 2.3524816 7.2574116e-39
0.066958554 -0.14728017 2.327915 7.2574116e-39
0.095807865 -0.13949886 2.3440495 7.2574116e-39
0.12806001 -0.12356667 2.3590002 7.2574116e-39
0.075350486 -0.10637715 2.3270001 7.2574116e-39
0.10062811 -0.10043886 2.3315129 7.2574116e-39
0.13138779 -0.099096745 2.3539722 7.2574116e-39
0.11152408 -0.066147193 2.3291817 7.2574116e-39
0.1407157 -0.06019726 2.3486006 7.2574116e-39
0.16382128 -0.053871751 2.3563337 7.2574116e-39
0.11745811 -0.037675239 2.3270001 7.2574116e-39
0.14814669 -0.026029216 2.3286002 7.2574116e-39
0.17324939 -0.013357472 2.3498576 7.2574116e-39
0.15418355 0.0072817691 2.3270001 7.2574116e-39
0.18154602 0.019551894 2.3438206 7.2574116e-39
0.2195033 0.023530873 2.3590007 7.2574116e-39
0.24039336 0.038193338 2.3590002 7.2574116e-39
0.1859545 0.054114796 2.330693 7.2574116e-39
0.21996056 0.059607692 2.3395221 7.2574116e-39
0.25110823 0.064980522 2.3590009 7.2574116e-39
0.28083336 0.078633346 2.3590002 7.2574116e-39
0.22355153 0.095344879 2.3307457 7.2574116e-39
0.25980681 0.10126408 2.3514566 7.2574116e-39
0.2819567 0.11008669 2.3590002 7.2574116e-39
0.26257059 0.13890484 2.3368073 7.2574116e-39
0.29246995 0.14522687 2.3590009 7.2574116e-39
0.2715528 0.17324255 2.3323331 7.2574116e-39
0.30040237 0.18156351 2.3536663 7.2574116e-39
0.32792348 0.18916936 2.3590007 7.2574116e-39
0.27702382 0.20167334 2.3270001 7.2574116e-39
0.3016924 0.21879816 2.3368075 7.2574116e-39
0.33601287 0.22169812 2.3571022 7.2574116e-39
0.36396003 0.23365335 2.3590002 7.2574116e-39
0.31051293 0.2440272 2.3269999 7.2574116e-39
0.34313941 0.25784171 2.3459098 7.2574116e-39
0.37002575 0.26159415 2.3585684 7.2574116e-39
0.34764367 0.29192197 2.3397999 7.2574116e-39
0.37912312 0.29204103 2.3534195 7.2574116e-39
-0.16368002 -0.6418972 2.3760002 7.2574116e-39
-0.14579266 -0.64103508 2.3760004 7.2574116e-39
-0.098369539 -0.64029992 2.3818181 7.2574116e-39
-0.079466671 -0.64026666 2.3840003 7.2574116e-39
-0.17200238 -0.62097788 2.3772306 7.2574116e-39
-0.14125408 -0.62276483 2.3892055 7.2574116e-39
-0.1012056 -0.62986678 2.3896465 7.2574116e-39
-0.05931928 -0.61640179 2.3838539 7.2574116e-39
-0.021785956 -0.61576968 2.3839996 7.2574116e-39
0.021316472 -0.61459684 2.3828199 7.2574116e-39
0.062831543 -0.61415601 2.3799348 7.2574116e-39
0.10135988 -0.61707658 2.3819432 7.2574116e-39
0.14018889 -0.61083943 2.3786042 7.2574116e-39
0.17901145 -0.6168009 2.3814282 7.2574116e-39
0.21595456 -0.61167461 2.381743 7.2574116e-39
0.26094565 -0.60811377 2.3825879 7.2574116e-39
0.29570287 -0.60613233 2.3769999 7.2574116e-39
0.34561372 -0.60629493 2.3760002 7.2574116e-39
0.3772009 -0.60627162 2.3759999 7.2574116e-39
0.42688134 -0.60844237 2.3759999 7.2574116e-39
0.45569628 -0.60806215 2.3759999 7.2574116e-39
0.49756464 -0.60652137 2.3778822 7.2574116e-39
0.66754287 -0.6041829 2.3760002 7.2574116e-39
0.70223999 -0.6041829 2.3760002 7.2574116e-39
0.74900573 -0.6041829 2.3760002 7.2574116e-39
0.78068578 -0.6041829 2.3760002 7.2574116e-39
0.80331433 -0.6041829 2.3760002 7.2574116e-39
1.0114971 -0.6041829 2.3760002 7.2574116e-39
-0.16307659 -0.58457154 2.3760002 7.2574116e-39
-0.13931741 -0.57882655 2.3891754 7.2574116e-39
-0.10976276 -0.57407999 2.3919997 7.2574116e-39
-0.062159453 -0.58698916 2.3919997 7.2574116e-39
-0.028964357 -0.59848827 2.3920002 7.2574116e-39
0.023540318 -0.59913909 2.3920002 7.2574116e-39
0.061508577 -0.59913915 2.3920002 7.2574116e-39
0.098608993 -0.59913915 2.3920002 7.2574116e-39
0.13469259 -0.59924275 2.3888001 7.2574116e-39
0.22567689 -0.59675097 2.3890913 7.2574116e-39
0.26027238 -0.59856963 2.3920002 7.2574116e-39
0.30096307 -0.59526604 2.3833137 7.2574116e-39
0.34228876 -0.59463078 2.3828568 7.2574116e-39
0.38067544 -0.59224927 2.3811886 7.2574116e-39
0.41861844 -0.59264648 2.3805125 7.2574116e-39
0.45934165 -0.59427243 2.3819423 7.2574116e-39
0.50078392 -0.59605241 2.3862395 7.2574116e-39
0.54166532 -0.59237278 2.3853016 7.2574116e-39
0.57988679 -0.59042859 2.3833036 7.2574116e-39
0.61818886 -0.59386706 2.3854113 7.2574116e-39
0.6578505 -0.59575671 2.3832252 7.2574116e-39
0.69985092 -0.59484321 2.3842421 7.2574116e-39
0.74310958 -0.59271127 2.3839993 7.2574116e-39
0.78200364 -0.59187317 2.3845575 7.2574116e-39
0.82275224 -0.5897035 2.3846147 7.2574116e-39
0.85814589 -0.5844968 2.3839991 7.2574116e-39
0.8992573 -0.58098423 2.385777 7.2574116e-39
0.93889076 -0.57931167 2.3839993 7.2574116e-39
0.98089093 -0.57448018 2.3839998 7.2574116e-39
1.0055226 -0.57366788 2.3774548 7.2574116e-39
-0.13433418 -0.54469025 2.3814392 7.2574116e-39
-0.10267414 -0.53751063 2.3919988 7.2574116e-39
-0.06869334 -0.53675431 2.3919995 7.2574116e-39
0.98851275 -0.5400303 2.3885081 7.2574116e-39
1.0053481 -0.54724509 2.379333 7.2574116e-39
-0.12596571 -0.51517719 2.3760002 7.2574116e-39
-0.099740699 -0.50213361 2.3823993 7.2574116e-39
-0.061670013 -0.49719056 2.390249 7.2574116e-39
-0.033260193 -0.49252421 2.392 7.2574116e-39
0.9568001 -0.48067811 2.3920002 7.2574116e-39
0.97925162 -0.50203025 2.3828566 7.2574116e-39
-0.061047461 -0.45991522 2.379508 7.2574116e-39
-0.028555667 -0.45927465 2.391999 7.2574116e-39
0.95472008 -0.46086857 2.3919997 7.2574116e-39
0.96625954 -0.46032792 2.3826203 7.2574116e-39
-0.053403433 -0.42511538 2.3759999 7.2574116e-39
-0.021051429 -0.42020029 2.3830173 7.2574116e-39
0.0058217999 -0.40828529 2.3920002 7.2574116e-39
0.94745332 -0.41531301 2.3887336 7.2574116e-39
0.96858269 -0.42249906 2.3811886 7.2574116e-39
-0.012757403 -0.38054338 2.3770905 7.2574116e-39
0.018570952 -0.37930945 2.3897491 7.2574116e-39
0.046928763 -0.3649509 2.3920002 7.2574116e-39
0.91807246 -0.38727623 2.3920002 7.2574116e-39
0.93444669 -0.38156608 2.3848567 7.2574116e-39
-0.0087685715 -0.35215715 2.3759999 7.2574116e-39
0.021403298 -0.34119532 2.3832729 7.2574116e-39
0.049662478 -0.33533555 2.3919995 7.2574116e-39
0.91300994 -0.32475513 2.3920002 7.2574116e-39
0.9324711 -0.34188747 2.3885398 7.2574116e-39
0.025576768 -0.30621678 2.3763998 7.2574116e-39
0.056350082 -0.29861447 2.3867629 7.2574116e-39
0.9085896 -0.29737693 2.3873324 7.2574116e-39
0.9225111 -0.309021 2.3782859 7.2574116e-39
0.038468573 -0.27833143 2.3760002 7.2574116e-39
0.064658634 -0.26156107 2.3828142 7.2574116e-39
0.094076909 -0.25236237 2.3919995 7.2574116e-39
0.87706673 -0.25742477 2.3920002 7.2574116e-39
0.90257376 -0.26840767 2.3823998 7.2574116e-39
0.072003812 -0.22350714 2.3764997 7.2574116e-39
0.097843558 -0.21930763 2.3889022 7.2574116e-39
0.10637446 -0.18381105 2.3811996 7.2574116e-39
0.13489574 -0.17687787 2.391999 7.2574116e-39
0.16174477 -0.16174477 2.3920002 7.2574116e-39
0.11651631 -0.14368671 2.376941 7.2574116e-39
0.14098999 -0.14120556 2.3780987 7.2574116e-39
0.16680725 -0.13364828 2.392 7.2574116e-39
0.14757498 -0.10354103 2.3759997 7.2574116e-39
0.17358419 -0.098477952 2.383384 7.2574116e-39
0.22249399 -0.085808262 2.3920002 7.2574116e-39
0.18249767 -0.061916556 2.3832726 7.2574116e-39
0.21644926 -0.05883101 2.3913951 7.2574116e-39
0.18659398 -0.026848502 2.3759997 7.2574116e-39
0.2190101 -0.019708699 2.3801568 7.2574116e-39
0.24779688 -0.0091111129 2.390667 7.2574116e-39
0.2243246 0.0076937168 2.3760002 7.2574116e-39
0.2586312 0.020681517 2.3834205 7.2574116e-39
0.28186256 0.024230652 2.3920002 7.2574116e-39
0.2641454 0.05879401 2.3763261 7.2574116e-39
0.29327261 0.064173833 2.3853014 7.2574116e-39
0.26249143 0.083725713 2.3760002 7.2574116e-39
0.29807672 0.10110431 2.3797643 7.2574116e-39
0.30954796 0.13538244 2.3782218 7.2574116e-39
0.32939079 0.14230329 2.3864613 7.2574116e-39
0.31680003 0.16066287 2.3760002 7.2574116e-39
0.34411603 0.17757945 2.3824608 7.2574116e-39
0.37027672 0.1879259 2.3905454 7.2574116e-39
0.3561171 0.21242572 2.3759999 7.2574116e-39
0.37823579 0.22222045 2.3815503 7.2574116e-39
0.40550098 0.23920001 2.3920002 7.2574116e-39
0.38826472 0.25696066 2.3769138 7.2574116e-39
0.40921977 0.26469338 2.3842418 7.2574116e-39
0.39600003 0.28285718 2.3760002 7.2574116e-39
0.41743454 0.28890488 2.3855996 7.2574116e-39
0.48751241 0.30754286 2.3920002 7.2574116e-39
-0.13186681 -0.6162889 2.4090002 7.2574116e-39
-0.098081253 -0.61412996 2.4093602 7.2574116e-39
-0.075711429 -0.61257434 2.4090002 7.2574116e-39
-0.0068828575 -0.60339713 2.4090002 7.2574116e-39
0.019119048 -0.60339713 2.4090004 7.2574116e-39
0.11242001 -0.60339713 2.4090002 7.2574116e-39
0.15830572 -0.60339713 2.4090002 7.2574116e-39
0.18402386 -0.60555816 2.4153752 7.2574116e-39
0.20630859 -0.60424227 2.4124002 7.2574116e-39
0.26384285 -0.60339713 2.4090002 7.2574116e-39
-0.13230383 -0.59804386 2.4090004 7.2574116e-39
-0.093492121 -0.5830763 2.4089985 7.2574116e-39
-0.059327602 -0.58153969 2.4154596 7.2574116e-39
-0.020980619 -0.5924831 2.4181895 7.2574116e-39
0.021529252 -0.59534663 2.4162862 7.2574116e-39
0.059919253 -0.59683007 2.4196248 7.2574116e-39
0.09956108 -0.59617525 2.4195516 7.2574116e-39
0.13732001 -0.5954811 2.4175003 7.2574116e-39
0.17732963 -0.59706664 2.4243004 7.2574116e-39
0.22452648 -0.58569527 2.4198513 7.2574116e-39
0.259873 -0.58619118 2.419302 7.2574116e-39
0.29880264 -0.58504486 2.4201953 7.2574116e-39
0.34006351 -0.5862304 2.4208062 7.2574116e-39
0.38026622 -0.58324933 2.4206569 7.2574116e-39
0.42181429 -0.58115226 2.4196255 7.2574116e-39
0.45779794 -0.58393073 2.4219739 7.2574116e-39
0.50392461 -0.58710521 2.4205918 7.2574116e-39
0.53963643 -0.5733934 2.4148514 7.2574116e-39
0.57982695 -0.57272613 2.4178271 7.2574116e-39
0.62145466 -0.57760632 2.41716 7.2574116e-39
0.65967518 -0.57822829 2.4176221 7.2574116e-39
0.70000684 -0.57702273 2.419245 7.2574116e-39
0.73869348 -0.57689542 2.4150496 7.2574116e-39
0.77949142 -0.57707775 2.4174998 7.2574116e-39
0.8206706 -0.57443649 2.4145567 7.2574116e-39
0.85896671 -0.5686354 2.4089997 7.2574116e-39
0.89724928 -0.56778997 2.4090002 7.2574116e-39
0.93611968 -0.56648523 2.4101725 7.2574116e-39
0.96851641 -0.563411 2.4090002 7.2574116e-39
-0.086112194 -0.55016977 2.4090002 7.2574116e-39
-0.058722015 -0.53962678 2.414973 7.2574116e-39
-0.026698837 -0.52807218 2.4259999 7.2574116e-39
0.53372002 -0.55682474 2.4260004 7.2574116e-39
0.63307047 -0.55682474 2.4260001 7.2574116e-39
0.67696959 -0.55682474 2.4260001 7.2574116e-39
0.69083244 -0.55682474 2.4260004 7.2574116e-39
0.83256245 -0.55426753 2.4167275 7.2574116e-39
0.85995251 -0.55691642 2.4170001 7.2574116e-39
0.90029061 -0.55194193 2.4187882 7.2574116e-39
0.94556874 -0.54529965 2.4181292 7.2574116e-39
0.97048301 -0.53915727 2.4089987 7.2574116e-39
-0.058012657 -0.51490331 2.4090002 7.2574116e-39
-0.01610381 -0.50336224 2.4189999 7.2574116e-39
0.94702303 -0.4990536 2.4143121 7.2574116e-39
0.96962267 -0.50330895 2.4089997 7.2574116e-39
-0.0084210159 -0.46131745 2.4146664 7.2574116e-39
0.010892246 -0.44823244 2.4260004 7.2574116e-39
0.9172591 -0.44592193 2.4260001 7.2574116e-39
0.93999839 -0.45901632 2.4174988 7.2574116e-39
-0.0063113095 -0.43285534 2.4111252 7.2574116e-39
0.022399871 -0.42057621 2.4188597 7.2574116e-39
0.04482324 -0.41080269 2.4260004 7.2574116e-39
0.9172591 -0.40664381 2.4260001 7.2574116e-39
0.9333216 -0.4237105 2.4147792 7.2574116e-39
0.036199763 -0.39244953 2.4132502 7.2574116e-39
0.05468246 -0.37781042 2.4193032 7.2574116e-39
0.91247272 -0.37841246 2.4190936 7.2574116e-39
0.92297763 -0.37369868 2.4090002 7.2574116e-39
0.065969154 -0.34152669 2.4150319 7.2574116e-39
0.085487626 -0.32379672 2.4260004 7.2574116e-39
0.90512383 -0.33976865 2.4175005 7.2574116e-39
0.92524707 -0.34685466 2.4100001 7.2574116e-39
0.074299574 -0.30266929 2.4090004 7.2574116e-39
0.092435405 -0.29764965 2.4194896 7.2574116e-39
0.87871146 -0.28219715 2.4090002 7.2574116e-39
0.89321303 -0.29982215 2.412616 7.2574116e-39
0.10427152 -0.26620862 2.4133589 7.2574116e-39
0.12430363 -0.25230402 2.4260004 7.2574116e-39
0.87476879 -0.26274043 2.4188421 7.2574116e-39
0.88980156 -0.2654388 2.4122157 7.2574116e-39
0.11528786 -0.22885501 2.4090002 7.2574116e-39
0.13669057 -0.21691214 2.4190609 7.2574116e-39
0.16558415 -0.20640254 2.4260004 7.2574116e-39
0.15027574 -0.1892786 2.4090004 7.2574116e-39
0.17051788 -0.17513183 2.420826 7.2574116e-39
0.18351606 -0.14234132 2.4168193 7.2574116e-39
0.22661921 -0.13188969 2.4259996 7.2574116e-39
0.24260001 -0.12861651 2.4260001 7.2574116e-39
0.19274409 -0.10405258 2.4107897 7.2574116e-39
0.21957885 -0.10048337 2.4174986 7.2574116e-39
0.25037462 -0.094235845 2.4239395 7.2574116e-39
0.22995804 -0.06441649 2.4090004 7.2574116e-39
0.2587212 -0.058826998 2.4202452 7.2574116e-39
0.28572887 -0.04543937 2.4260001 7.2574116e-39
0.23631144 -0.034414288 2.4090002 7.2574116e-39
0.26390716 -0.023724623 2.4202414 7.2574116e-39
0.29315868 -0.010736919 2.4260001 7.2574116e-39
0.2753143 0.0022942859 2.4090002 7.2574116e-39
0.30206209 0.020043766 2.4184747 7.2574116e-39
0.32475024 0.026442116 2.4259999 7.2574116e-39
0.30980149 0.055012062 2.4108891 7.2574116e-39
0.33277735 0.061959401 2.4255002 7.2574116e-39
0.31699383 0.092536196 2.4090004 7.2574116e-39
0.3410252 0.099706076 2.4221134 7.2574116e-39
0.37340856 0.11392425 2.4260006 7.2574116e-39
0.34729502 0.13678199 2.4140995 7.2574116e-39
0.37819168 0.1417643 2.4214497 7.2574116e-39
0.41126478 0.15942287 2.4260001 7.2574116e-39
0.3846029 0.17600057 2.4180207 7.2574116e-39
0.41203493 0.18387541 2.4259996 7.2574116e-39
0.39417216 0.2110979 2.4146671 7.2574116e-39
0.41956943 0.22055489 2.4233015 7.2574116e-39
0.44530582 0.22842911 2.4260004 7.2574116e-39
0.42789757 0.25639179 2.4139998 7.2574116e-39
0.45687467 0.26288652 2.4257302 7.2574116e-39
0.49444193 0.27956763 2.4260004 7.2574116e-39
0.43744382 0.29060957 2.4090004 7.2574116e-39
0.46264192 0.29562882 2.4236209 7.2574116e-39
0.50016618 0.30083263 2.4239273 7.2574116e-39
0.53063941 0.30575305 2.4260001 7.2574116e-39
0.19078667 -0.60260665 2.4430001 7.2574116e-39
-0.047929343 -0.57840937 2.4430003 7.2574116e-39
-0.020482818 -0.5748924 2.4435568 7.2574116e-39
0.020855851 -0.57894814 2.4544809 7.2574116e-39
0.060409062 -0.5777247 2.4569986 7.2574116e-39
0.099700384 -0.58043075 2.4592612 7.2574116e-39
0.14075859 -0.57741046 2.4578602 7.2574116e-39
0.17950681 -0.5789097 2.4522943 7.2574116e-39
0.21638724 -0.57527709 2.4552693 7.2574116e-39
0.26212934 -0.56794983 2.4536178 7.2574116e-39
0.30026099 -0.56928128 2.4498754 7.2574116e-39
0.33911347 -0.57103205 2.4496596 7.2574116e-39
0.37856564 -0.56912535 2.4430006 7.2574116e-39
0.41975808 -0.56743288 2.4430006 7.2574116e-39
0.46250024 -0.56936288 2.446059 7.2574116e-39
0.49720022 -0.57135129 2.4472077 7.2574116e-39
0.5355987 -0.5635187 2.4430001 7.2574116e-39
0.58230126 -0.56157273 2.4430003 7.2574116e-39
0.61610138 -0.56514734 2.4430006 7.2574116e-39
0.6607734 -0.56272101 2.4430003 7.2574116e-39
0.71544999 -0.56189001 2.4430001 7.2574116e-39
0.73980004 -0.56280887 2.445334 7.2574116e-39
0.78008932 -0.56547588 2.4450405 7.2574116e-39
0.81538874 -0.56553 2.4461877 7.2574116e-39
-0.046200957 -0.54809624 2.4430001 7.2574116e-39
-0.018562352 -0.54642087 2.4437561 7.2574116e-39
0.019750407 -0.54102594 2.4607203 7.2574116e-39
0.050113373 -0.53613347 2.4772804 7.2574116e-39
0.13795274 -0.55717456 2.4780006 7.2574116e-39
0.23364002 -0.55932009 2.4780002 7.2574116e-39
0.27612001 -0.55932003 2.4780002 7.2574116e-39
0.29739946 -0.55643892 2.4726002 7.2574116e-39
0.34499064 -0.5589571 2.4689999 7.2574116e-39
0.3798255 -0.5544889 2.4667997 7.2574116e-39
0.41938621 -0.55403626 2.4666662 7.2574116e-39
0.4572053 -0.55750901 2.4735003 7.2574116e-39
0.50331408 -0.55747545 2.4669049 7.2574116e-39
0.54402161 -0.54993069 2.4664125 7.2574116e-39
0.58128589 -0.54950392 2.4678156 7.2574116e-39
0.62057114 -0.54924005 2.4659481 7.2574116e-39
0.66196537 -0.55103636 2.4688771 7.2574116e-39
0.69874972 -0.54919153 2.4673624 7.2574116e-39
0.74183995 -0.54969341 2.4750597 7.2574116e-39
0.77852738 -0.54853314 2.4723926 7.2574116e-39
0.82293385 -0.55054581 2.465946 7.2574116e-39
0.86116105 -0.53919899 2.4624314 7.2574116e-39
0.89915514 -0.53673017 2.4644744 7.2574116e-39
0.93668711 -0.53462631 2.4511182 7.2574116e-39
-0.0046533337 -0.49790668 2.4430001 7.2574116e-39
0.020736229 -0.50028455 2.450947 7.2574116e-39
0.059296578 -0.49794725 2.4667871 7.2574116e-39
0.089148 -0.49335891 2.4762003 7.2574116e-39
0.85510671 -0.51683998 2.4780002 7.2574116e-39
0.90401316 -0.5010159 2.4776773 7.2574116e-39
0.93193305 -0.50111896 2.4579072 7.2574116e-39
0.022986611 -0.46287704 2.4435968 7.2574116e-39
0.061385021 -0.45901632 2.4547048 7.2574116e-39
0.094135024 -0.45913672 2.4705644 7.2574116e-39
0.87556005 -0.44132 2.4780002 7.2574116e-39
0.90189517 -0.45853195 2.4670246 7.2574116e-39
0.92649025 -0.46698588 2.4487147 7.2574116e-39
0.033154998 -0.43276 2.4430001 7.2574116e-39
0.061704703 -0.42111874 2.4447 7.2574116e-39
0.098656841 -0.41944593 2.4612241 7.2574116e-39
0.12901334 -0.40788674 2.4780006 7.2574116e-39
0.87556005 -0.43188 2.4780002 7.2574116e-39
0.89997667 -0.42010432 2.4591241 7.2574116e-39
0.92484993 -0.43043336 2.4430001 7.2574116e-39
0.069966182 -0.38439861 2.4430006 7.2574116e-39
0.099998355 -0.37959027 2.4548006 7.2574116e-39
0.13677311 -0.37860179 2.4718628 7.2574116e-39
0.86860216 -0.37378964 2.4747684 7.2574116e-39
0.89699191 -0.381064 2.4576397 7.2574116e-39
0.075228892 -0.35442889 2.4430003 7.2574116e-39
0.10172292 -0.34167847 2.4466617 7.2574116e-39
0.1395485 -0.3393448 2.4647815 7.2574116e-39
0.16651112 -0.32856449 2.4780004 7.2574116e-39
0.86733079 -0.33870655 2.4700155 7.2574116e-39
0.88967043 -0.33904222 2.4480641 7.2574116e-39
0.11293283 -0.30515128 2.4430006 7.2574116e-39
0.13984561 -0.29918462 2.4513841 7.2574116e-39
0.17603581 -0.30059582 2.4688721 7.2574116e-39
0.86290771 -0.29925069 2.4672754 7.2574116e-39
0.88709098 -0.30659789 2.4502859 7.2574116e-39
0.11866 -0.27222002 2.4430001 7.2574116e-39
0.14227137 -0.26179311 2.4430006 7.2574116e-39
0.17695394 -0.25933102 2.4601901 7.2574116e-39
0.23364002 -0.24308002 2.4780002 7.2574116e-39
0.83308005 -0.24308002 2.4780002 7.2574116e-39
0.86143637 -0.26090622 2.468205 7.2574116e-39
0.88028008 -0.25016001 2.4780002 7.2574116e-39
0.14735556 -0.2331837 2.4430003 7.2574116e-39
0.17992948 -0.2215289 2.4520857 7.2574116e-39
0.21919882 -0.21893232 2.4734275 7.2574116e-39
0.24727102 -0.21626167 2.4751582 7.2574116e-39
0.8274045 -0.22065717 2.4662285 7.2574116e-39
0.8464886 -0.23749429 2.4690001 7.2574116e-39
0.18819332 -0.18397698 2.4494765 7.2574116e-39
0.22125921 -0.17873853 2.4533653 7.2574116e-39
0.25718123 -0.1783039 2.4691753 7.2574116e-39
0.28084001 -0.16284001 2.4780002 7.2574116e-39
0.81236452 -0.18696445 2.4780004 7.2574116e-39
0.21744639 -0.14299305 2.4430008 7.2574116e-39
0.26073498 -0.1405295 2.4561477 7.2574116e-39
0.29159111 -0.1332089 2.4780004 7.2574116e-39
0.22103333 -0.11866 2.4430001 7.2574116e-39
0.26701713 -0.10326088 2.446429 7.2574116e-39
0.29874709 -0.097974226 2.4672022 7.2574116e-39
0.32489336 -0.088106677 2.4780004 7.2574116e-39
0.27687335 -0.072126672 2.4430003 7.2574116e-39
0.30105257 -0.062230509 2.4554033 7.2574116e-39
0.33259729 -0.055744816 2.4779999 7.2574116e-39
0.27687335 -0.016286666 2.4430001 7.2574116e-39
0.30406597 -0.023464942 2.4443083 7.2574116e-39
0.33871242 -0.020032967 2.4626489 7.2574116e-39
0.36845502 -0.010325001 2.4780004 7.2574116e-39
0.34474793 0.019413697 2.4503777 7.2574116e-39
0.37182206 0.019612411 2.4779999 7.2574116e-39
0.35036975 0.056643885 2.4444172 7.2574116e-39
0.37875041 0.060060196 2.4616055 7.2574116e-39
0.40742192 0.071014553 2.4780006 7.2574116e-39
0.35598001 0.081433333 2.4430001 7.2574116e-39
0.38189417 0.096997984 2.4430001 7.2574116e-39
0.41635555 0.10217105 2.4574254 7.2574116e-39
0.44132003 0.11092001 2.4780002 7.2574116e-39
0.71822667 0.10226667 2.4780004 7.2574116e-39
0.72452003 0.10030001 2.4780002 7.2574116e-39
0.39786002 0.13029334 2.4430001 7.2574116e-39
