# .PCD v0.7 - Point Cloud Data file format
VERSION 0.7
FIELDS x y z rgb
SIZE 4 4 4 4
TYPE F F F F
COUNT 1 1 1 1
WIDTH 1029
HEIGHT 1
VIEWPOINT 0 0 0 1 0 0 0
POINTS 1029
DATA ascii
-0.33436266 -0.72534639 2.2095001 1.3318283e-38
-0.30361745 -0.72620946 2.2111034 1.3318283e-38
-0.26145524 -0.72590631 2.2080002 1.3318283e-38
-0.22668801 -0.72254175 2.2080002 1.3318283e-38
-0.17744881 -0.72289771 2.2080002 1.3318283e-38
-0.14263944 -0.72328717 2.2090003 1.3318283e-38
-0.10456935 -0.72816217 2.2080002 1.3318283e-38
-0.48155433 -0.70095247 2.2080002 1.3318283e-38
-0.45939955 -0.70149821 2.2152498 1.3318283e-38
-0.42063698 -0.70257288 2.2235174 1.3318283e-38
-0.37832415 -0.70701212 2.225131 1.3318283e-38
-0.340078 -0.70569217 2.2229111 1.3318283e-38
-0.30174071 -0.7078054 2.2249596 1.3318283e-38
-0.25981796 -0.70746416 2.2220569 1.3318283e-38
-0.22012155 -0.70597833 2.2255843 1.3318283e-38
-0.18142533 -0.70978278 2.2242155 1.3318283e-38
-0.14087999 -0.70591122 2.2233813 1.3318283e-38
-0.11986288 -0.70025146 2.2080002 1.3318283e-38
0.076534197 -0.69935131 2.2198999 1.3318283e-38
0.099377148 -0.69513094 2.2150927 1.3318283e-38
0.14134096 -0.69202805 2.2163529 1.3318283e-38
0.18192218 -0.69616789 2.2162457 1.3318283e-38
0.21866891 -0.6932742 2.2179999 1.3318283e-38
0.25583282 -0.69893032 2.2183514 1.3318283e-38
0.51021373 -0.69340932 2.221853 1.3318283e-38
0.53975284 -0.69326597 2.219954 1.3318283e-38
0.57646251 -0.69225764 2.2184551 1.3318283e-38
0.62095463 -0.69234532 2.2221775 1.3318283e-38
0.66000843 -0.69164264 2.2213809 1.3318283e-38
0.701092 -0.68884265 2.2249532 1.3318283e-38
0.74115801 -0.6922164 2.2266293 1.3318283e-38
0.77798826 -0.6942274 2.2264631 1.3318283e-38
0.81744587 -0.692532 2.2196 1.3318283e-38
0.84552169 -0.68683553 2.2167501 1.3318283e-38
0.90672749 -0.68351024 2.2110002 1.3318283e-38
0.92755401 -0.68459654 2.2163334 1.3318283e-38
-0.45512989 -0.66520476 2.2092001 1.3318283e-38
-0.4226737 -0.65986478 2.2241602 1.3318283e-38
-0.39348257 -0.64848411 2.2369998 1.3318283e-38
-0.14031811 -0.67819524 2.2323332 1.3318283e-38
0.22127514 -0.67677921 2.2240524 1.3318283e-38
0.50312799 -0.67621011 2.2327998 1.3318283e-38
0.55264556 -0.67791748 2.237 1.3318283e-38
0.57850641 -0.67688 2.2349997 1.3318283e-38
0.6147607 -0.67867494 2.2369998 1.3318283e-38
0.65192568 -0.67962188 2.237 1.3318283e-38
0.71797049 -0.67962188 2.237 1.3318283e-38
0.74178159 -0.67736596 2.2369998 1.3318283e-38
0.76484096 -0.67962188 2.237 1.3318283e-38
0.82325065 -0.67292523 2.2319999 1.3318283e-38
0.86074972 -0.67082524 2.2269421 1.3318283e-38
0.90160292 -0.67106169 2.2287169 1.3318283e-38
0.94219881 -0.66767359 2.2271612 1.3318283e-38
0.9798736 -0.65615851 2.2247844 1.3318283e-38
1.0221918 -0.65424806 2.2231247 1.3318283e-38
1.0610729 -0.65630633 2.2300599 1.3318283e-38
1.1008492 -0.65490121 2.2215188 1.3318283e-38
1.130851 -0.65583527 2.2132502 1.3318283e-38
-0.41478443 -0.621566 2.212168 1.3318283e-38
-0.38185799 -0.61718595 2.2284193 1.3318283e-38
1.0342792 -0.63586324 2.2299998 1.3318283e-38
1.0611025 -0.6297437 2.2369998 1.3318283e-38
1.1019212 -0.62159687 2.2246594 1.3318283e-38
1.1254041 -0.63203591 2.2096667 1.3318283e-38
-0.40840662 -0.58666533 2.2105 1.3318283e-38
-0.37736988 -0.58046365 2.2166154 1.3318283e-38
-0.34855112 -0.56985909 2.2312067 1.3318283e-38
1.0776258 -0.5610429 2.223 1.3318283e-38
1.0949293 -0.58101618 2.2216666 1.3318283e-38
1.1292503 -0.58505094 2.2115715 1.3318283e-38
-0.37418416 -0.54340482 2.2086668 1.3318283e-38
-0.34147081 -0.53965908 2.2196891 1.3318283e-38
-0.31300744 -0.53141272 2.2327998 1.3318283e-38
1.0703324 -0.53252637 2.2369998 1.3318283e-38
1.0911993 -0.53841209 2.2218113 1.3318283e-38
-0.33824703 -0.50870669 2.2173557 1.3318283e-38
-0.30486065 -0.5078311 2.2293634 1.3318283e-38
-0.27033064 -0.50789493 2.2299998 1.3318283e-38
1.0640237 -0.49834216 2.2272272 1.3318283e-38
1.0912982 -0.50128502 2.214951 1.3318283e-38
1.0332808 -0.44313902 2.237 1.3318283e-38
1.0614989 -0.45979288 2.2252414 1.3318283e-38
1.083096 -0.46604779 2.2144289 1.3318283e-38
1.0326256 -0.4242925 2.2369998 1.3318283e-38
1.0559019 -0.42005339 2.225759 1.3318283e-38
1.0878369 -0.42796397 2.2136252 1.3318283e-38
1.0355321 -0.37806544 2.2333701 1.3318283e-38
1.0536872 -0.38217509 2.2264271 1.3318283e-38
1.0323769 -0.33620626 2.228698 1.3318283e-38
1.0459377 -0.34832647 2.2114615 1.3318283e-38
0.9970628 -0.28548381 2.237 1.3318283e-38
1.0173485 -0.30091727 2.2267981 1.3318283e-38
0.99554098 -0.26813564 2.2369998 1.3318283e-38
1.0153639 -0.27100161 2.2273512 1.3318283e-38
0.12491143 0.15878572 2.223 1.3318283e-38
0.10885053 0.1874925 2.2191665 1.3318283e-38
0.13215695 0.18227129 2.2312651 1.3318283e-38
0.11189892 0.20975558 2.2098751 1.3318283e-38
0.14175656 0.21935168 2.2220809 1.3318283e-38
0.17107619 0.23078626 2.2325451 1.3318283e-38
0.14930293 0.25549719 2.2080002 1.3318283e-38
0.17623661 0.26076531 2.2283664 1.3318283e-38
0.15771429 0.29089528 2.2080002 1.3318283e-38
0.18005227 0.30029371 2.2170269 1.3318283e-38
0.21261238 0.31414041 2.2311051 1.3318283e-38
0.17938209 0.330856 2.2091541 1.3318283e-38
0.20463428 0.32442617 2.2265 1.3318283e-38
-0.40536007 -0.69080836 2.2520003 1.3318283e-38
-0.38124779 -0.6909439 2.2549469 1.3318283e-38
-0.34036568 -0.68867224 2.2589996 1.3318283e-38
-0.29993019 -0.69274449 2.2575412 1.3318283e-38
-0.25991583 -0.6924566 2.2603993 1.3318283e-38
-0.21954109 -0.69195098 2.2608144 1.3318283e-38
-0.17798443 -0.69388068 2.2567542 1.3318283e-38
-0.15233767 -0.69625777 2.2558181 1.3318283e-38
0.07656984 -0.68702829 2.2543335 1.3318283e-38
0.10085121 -0.68767327 2.2558179 1.3318283e-38
0.13980477 -0.68597698 2.255769 1.3318283e-38
0.17968047 -0.68802285 2.2524824 1.3318283e-38
0.20518224 -0.68560886 2.2520003 1.3318283e-38
0.24611142 -0.68900478 2.2520001 1.3318283e-38
0.51688761 -0.68417907 2.2520001 1.3318283e-38
0.5371654 -0.68612891 2.2520003 1.3318283e-38
0.63270479 -0.68417907 2.2520001 1.3318283e-38
0.6645698 -0.68479186 2.2520001 1.3318283e-38
0.70133716 -0.68417913 2.2520001 1.3318283e-38
0.78798556 -0.68546587 2.2520003 1.3318283e-38
0.80943316 -0.68589491 2.2520001 1.3318283e-38
-0.40627927 -0.67314887 2.2520006 1.3318283e-38
-0.3762117 -0.66292155 2.2594781 1.3318283e-38
-0.343317 -0.66046697 2.2659993 1.3318283e-38
-0.31508189 -0.67980003 2.266 1.3318283e-38
-0.20070286 -0.67116761 2.266 1.3318283e-38
-0.18265335 -0.67077523 2.2660003 1.3318283e-38
-0.15522066 -0.67765683 2.2636666 1.3318283e-38
0.072456457 -0.66948456 2.2615197 1.3318283e-38
0.098957948 -0.6706332 2.2639141 1.3318283e-38
0.14420101 -0.67160654 2.2649496 1.3318283e-38
0.18115875 -0.66686922 2.26352 1.3318283e-38
0.20806886 -0.66570526 2.2601662 1.3318283e-38
0.51174796 -0.66790873 2.2566669 1.3318283e-38
0.53931171 -0.66761029 2.2571261 1.3318283e-38
0.58072639 -0.66543126 2.2566662 1.3318283e-38
0.61939454 -0.67407274 2.2572496 1.3318283e-38
0.66009158 -0.67435789 2.2593176 1.3318283e-38
0.70192206 -0.6732527 2.2575994 1.3318283e-38
0.73915642 -0.67040944 2.2554996 1.3318283e-38
0.77798444 -0.67389214 2.2558885 1.3318283e-38
0.81491774 -0.66960782 2.2603121 1.3318283e-38
0.8630144 -0.66032934 2.2602346 1.3318283e-38
0.90030724 -0.66049993 2.2610805 1.3318283e-38
0.93886316 -0.65614098 2.2610583 1.3318283e-38
0.97909784 -0.6444214 2.2555001 1.3318283e-38
1.0192409 -0.64246279 2.2590003 1.3318283e-38
1.0788153 -0.64128381 2.2520001 1.3318283e-38
1.0852495 -0.64128381 2.2520001 1.3318283e-38
-0.36691335 -0.62900257 2.2530005 1.3318283e-38
-0.34285414 -0.61840773 2.2587042 1.3318283e-38
0.98934251 -0.63409942 2.2621112 1.3318283e-38
1.0162359 -0.63623214 2.2607501 1.3318283e-38
1.0657706 -0.62377763 2.2599993 1.3318283e-38
1.0926422 -0.61651301 2.2569773 1.3318283e-38
-0.33589384 -0.58530378 2.2566659 1.3318283e-38
-0.30361891 -0.57484889 2.2630827 1.3318283e-38
-0.2766678 -0.5667159 2.266 1.3318283e-38
-0.22012571 -0.56326288 2.266 1.3318283e-38
1.0725734 -0.58854342 2.266 1.3318283e-38
1.088151 -0.58406162 2.2591996 1.3318283e-38
-0.32600379 -0.55978286 2.2520001 1.3318283e-38
-0.29680765 -0.54262179 2.254957 1.3318283e-38
-0.27061123 -0.53713137 2.2607996 1.3318283e-38
-0.22156446 -0.55319178 2.266 1.3318283e-38
1.0612844 -0.53484714 2.2589996 1.3318283e-38
1.0833638 -0.55678856 2.266 1.3318283e-38
-0.31003726 -0.50163597 2.2520001 1.3318283e-38
1.0486093 -0.50076699 2.2585621 1.3318283e-38
1.0365074 -0.44694808 2.2639999 1.3318283e-38
1.0473844 -0.46400189 2.261333 1.3318283e-38
1.0303463 -0.41823578 2.2578328 1.3318283e-38
1.0423545 -0.42037329 2.2520003 1.3318283e-38
1.029673 -0.37930605 2.2581244 1.3318283e-38
1.022137 -0.34110865 2.256454 1.3318283e-38
0.99641645 -0.29003686 2.2613337 1.3318283e-38
1.0077251 -0.3046256 2.2593334 1.3318283e-38
0.99355155 -0.27041742 2.2560005 1.3318283e-38
1.0144725 -0.26166096 2.2520001 1.3318283e-38
0.15646189 0.1154581 2.266 1.3318283e-38
0.14981185 0.14234526 2.2584319 1.3318283e-38
0.16889095 0.14715011 2.2659998 1.3318283e-38
0.14844011 0.1750803 2.2519996 1.3318283e-38
0.17231986 0.18217783 2.26262 1.3318283e-38
0.15656763 0.20947176 2.2520003 1.3318283e-38
0.18242744 0.21613267 2.2559662 1.3318283e-38
0.20771664 0.22484653 2.2659996 1.3318283e-38
0.19684149 0.25808635 2.2520001 1.3318283e-38
0.21977465 0.26264253 2.2621822 1.3318283e-38
0.24386477 0.27623618 2.266 1.3318283e-38
0.19803302 0.28596827 2.2520001 1.3318283e-38
0.22197849 0.2961618 2.2541683 1.3318283e-38
0.25312614 0.30247289 2.2607901 1.3318283e-38
-0.29216513 -0.68570703 2.283 1.3318283e-38
-0.2592375 -0.68538618 2.2810001 1.3318283e-38
-0.22184443 -0.68690264 2.2836666 1.3318283e-38
-0.18465242 -0.68611038 2.2810001 1.3318283e-38
-0.33454669 -0.66443843 2.2809989 1.3318283e-38
-0.30121386 -0.66193742 2.2914059 1.3318283e-38
-0.26075664 -0.67349005 2.29392 1.3318283e-38
-0.21698901 -0.66633177 2.2981534 1.3318283e-38
-0.18298842 -0.66599655 2.2809987 1.3318283e-38
0.068651021 -0.65522015 2.3043573 1.3318283e-38
0.099734344 -0.65414774 2.2980781 1.3318283e-38
0.13676921 -0.65784603 2.296253 1.3318283e-38
0.1755335 -0.64851236 2.2948933 1.3318283e-38
0.50638634 -0.64740914 2.2974744 1.3318283e-38
0.54124808 -0.64985305 2.2975781 1.3318283e-38
0.57923222 -0.64981937 2.2982247 1.3318283e-38
0.62049204 -0.65668213 2.2993083 1.3318283e-38
0.65931427 -0.65681821 2.2983897 1.3318283e-38
0.6991533 -0.65497863 2.2980475 1.3318283e-38
0.74006993 -0.65426832 2.3003159 1.3318283e-38
0.78224039 -0.65574509 2.3007634 1.3318283e-38
0.81943506 -0.65424669 2.2967634 1.3318283e-38
0.85642284 -0.65028751 2.2871745 1.3318283e-38
0.90275776 -0.64716727 2.2829993 1.3318283e-38
0.94242281 -0.64651722 2.2814841 1.3318283e-38
0.97043371 -0.64488679 2.2810001 1.3318283e-38
1.0297086 -0.64085239 2.2810001 1.3318283e-38
1.0449152 -0.64085239 2.2810001 1.3318283e-38
-0.32523647 -0.62223208 2.2810001 1.3318283e-38
-0.301985 -0.620179 2.2899156 1.3318283e-38
-0.26571959 -0.60930502 2.3102696 1.3318283e-38
-0.22532825 -0.61433142 2.312 1.3318283e-38
0.50413871 -0.63288468 2.3107502 1.3318283e-38
0.52767533 -0.63417333 2.3105001 1.3318283e-38
0.58614701 -0.63546973 2.312 1.3318283e-38
0.611579 -0.63524956 2.312 1.3318283e-38
0.65543365 -0.63561654 2.3120003 1.3318283e-38
0.69139808 -0.63635057 2.3120003 1.3318283e-38
0.73587656 -0.63635057 2.312 1.3318283e-38
0.78608 -0.63635057 2.312 1.3318283e-38
0.8207767 -0.63647389 2.3045001 1.3318283e-38
0.86090815 -0.63230085 2.3034866 1.3318283e-38
0.90210837 -0.62998551 2.3006141 1.3318283e-38
0.93705148 -0.63071579 2.2974308 1.3318283e-38
0.98022443 -0.62576675 2.2953176 1.3318283e-38
1.0246723 -0.62351477 2.2986996 1.3318283e-38
1.0552071 -0.61731875 2.2867179 1.3318283e-38
1.0840182 -0.60174954 2.2810001 1.3318283e-38
-0.29069677 -0.5900026 2.2809994 1.3318283e-38
-0.25884721 -0.57983774 2.2931437 1.3318283e-38
-0.22933657 -0.57901144 2.2935174 1.3318283e-38
1.0368353 -0.59091413 2.3039236 1.3318283e-38
1.0593516 -0.58005387 2.2875454 1.3318283e-38
1.086501 -0.57785344 2.2810001 1.3318283e-38
-0.25480503 -0.54706949 2.2835937 1.3318283e-38
-0.23273443 -0.5496124 2.2810004 1.3318283e-38
1.0364639 -0.53168285 2.3045003 1.3318283e-38
1.0522013 -0.54466826 2.2888694 1.3318283e-38
1.0278128 -0.49262866 2.3001873 1.3318283e-38
1.0455874 -0.50010431 2.2907996 1.3318283e-38
1.0236751 -0.46027419 2.2960222 1.3318283e-38
1.0423084 -0.46662745 2.2810001 1.3318283e-38
1.0178757 -0.41913947 2.2924738 1.3318283e-38
0.98801291 -0.36928627 2.3050361 1.3318283e-38
1.0163542 -0.37976414 2.2941754 1.3318283e-38
0.98788416 -0.33912885 2.3043795 1.3318283e-38
1.0108321 -0.3425512 2.2889276 1.3318283e-38
0.98321438 -0.29829705 2.2965736 1.3318283e-38
1.0055703 -0.31375703 2.2832859 1.3318283e-38
0.94698846 -0.27218926 2.3120003 1.3318283e-38
0.97790766 -0.27470902 2.2925458 1.3318283e-38
0.18074435 0.10895305 2.3052363 1.3318283e-38
0.20448358 0.10789335 2.312 1.3318283e-38
0.18537448 0.13710003 2.2945347 1.3318283e-38
0.21267308 0.1405587 2.3098557 1.3318283e-38
0.19233042 0.17822638 2.2832067 1.3318283e-38
0.21741462 0.17947744 2.305625 1.3318283e-38
0.24558581 0.18892343 2.312 1.3318283e-38
0.22534846 0.21688695 2.2946594 1.3318283e-38
0.25418299 0.22124922 2.3082173 1.3318283e-38
0.2293414 0.25013417 2.2810001 1.3318283e-38
0.26038399 0.25911793 2.2949991 1.3318283e-38
0.28756878 0.27699962 2.312 1.3318283e-38
0.26799741 0.29066852 2.2925332 1.3318283e-38
0.30023667 0.30120644 2.3086185 1.3318283e-38
0.33053035 0.30410752 2.312 1.3318283e-38
-0.28367242 -0.65421951 2.3269999 1.3318283e-38
-0.25880864 -0.65596199 2.3331373 1.3318283e-38
-0.22689652 -0.65089756 2.3300276 1.3318283e-38
0.034823336 -0.64142334 2.3590002 1.3318283e-38
0.059762698 -0.643565 2.3334875 1.3318283e-38
0.098492824 -0.64207196 2.3313634 1.3318283e-38
0.14137442 -0.64347625 2.3298569 1.3318283e-38
0.1710732 -0.64252025 2.3282306 1.3318283e-38
0.55183148 -0.64047909 2.3270001 1.3318283e-38
0.57399338 -0.64047909 2.3270001 1.3318283e-38
0.62718195 -0.64047909 2.3270001 1.3318283e-38
0.65488434 -0.64047909 2.3270001 1.3318283e-38
0.69970524 -0.64119816 2.3323336 1.3318283e-38
0.73466718 -0.64047909 2.3270001 1.3318283e-38
0.76680195 -0.64047909 2.3270001 1.3318283e-38
0.82663912 -0.64047909 2.3270001 1.3318283e-38
0.84436858 -0.64047909 2.3270001 1.3318283e-38
-0.2814562 -0.63604671 2.3270001 1.3318283e-38
-0.25724784 -0.62515098 2.3295465 1.3318283e-38
-0.22374174 -0.62117004 2.3293719 1.3318283e-38
0.033700004 -0.63355994 2.3590002 1.3318283e-38
0.061872415 -0.63133889 2.3562577 1.3318283e-38
0.10066304 -0.63338226 2.349118 1.3318283e-38
0.14089511 -0.62940121 2.3513088 1.3318283e-38
0.17423475 -0.63234413 2.3411539 1.3318283e-38
0.43810004 -0.60884672 2.3590002 1.3318283e-38
0.46746978 -0.62117732 2.3546929 1.3318283e-38
0.4988187 -0.62124902 2.3427467 1.3318283e-38
0.54169708 -0.62329078 2.3499258 1.3318283e-38
0.57993692 -0.62862569 2.3459837 1.3318283e-38
0.61945337 -0.62355775 2.3436668 1.3318283e-38
0.65805191 -0.62542474 2.3449101 1.3318283e-38
0.69893092 -0.62842983 2.3497808 1.3318283e-38
0.73793548 -0.62840211 2.34746 1.3318283e-38
0.77852648 -0.62835252 2.3457496 1.3318283e-38
0.82082421 -0.62873399 2.3449316 1.3318283e-38
0.86117715 -0.62072086 2.3461518 1.3318283e-38
0.90071964 -0.61804497 2.3441441 1.3318283e-38
0.94240063 -0.61451232 2.3441939 1.3318283e-38
0.97852951 -0.61295676 2.3383946 1.3318283e-38
1.0227224 -0.6087333 2.336601 1.3318283e-38
0.91621941 -0.58524674 2.3483336 1.3318283e-38
0.94048357 -0.59377229 2.3590009 1.3318283e-38
0.9804678 -0.59612566 2.3558006 1.3318283e-38
1.0286819 -0.57876873 2.3443825 1.3318283e-38
1.0494246 -0.5709607 2.3269999 1.3318283e-38
1.0272751 -0.54027355 2.3451459 1.3318283e-38
1.0453032 -0.55478638 2.3270001 1.3318283e-38
0.98988521 -0.49512967 2.3536673 1.3318283e-38
1.0186845 -0.50309306 2.3407784 1.3318283e-38
1.0432429 -0.51312351 2.3323336 1.3318283e-38
0.99350345 -0.46381864 2.351728 1.3318283e-38
1.0081465 -0.46027958 2.3356967 1.3318283e-38
0.98488396 -0.42020997 2.3541577 1.3318283e-38
1.0070233 -0.41978583 2.3344426 1.3318283e-38
0.98104233 -0.38281581 2.3477571 1.3318283e-38
1.0092534 -0.39226577 2.3269999 1.3318283e-38
0.95079035 -0.33065519 2.3548262 1.3318283e-38
0.97413933 -0.34094468 2.3441441 1.3318283e-38
0.9475624 -0.29951832 2.347471 1.3318283e-38
0.96871603 -0.30644178 2.3345296 1.3318283e-38
0.90990013 -0.26465735 2.3590002 1.3318283e-38
0.94629478 -0.27586725 2.3465559 1.3318283e-38
0.97069144 -0.27480763 2.3270001 1.3318283e-38
0.19724096 0.077566676 2.3270001 1.3318283e-38
0.22031215 0.071331225 2.3464289 1.3318283e-38
0.24039337 0.074140012 2.3590002 1.3318283e-38
0.19292912 0.090109192 2.3284545 1.3318283e-38
0.22105514 0.098787546 2.3342996 1.3318283e-38
0.24792671 0.10813977 2.3568192 1.3318283e-38
0.23113127 0.13464531 2.3287141 1.3318283e-38
0.25760692 0.14174403 2.3425162 1.3318283e-38
0.28083336 0.15052667 2.3590002 1.3318283e-38
0.23602431 0.17397095 2.3269999 1.3318283e-38
0.26261389 0.17745164 2.3318489 1.3318283e-38
0.28931949 0.18309174 2.353462 1.3318283e-38
0.27152529 0.21084437 2.327842 1.3318283e-38
0.29684559 0.22315559 2.3470736 1.3318283e-38
0.33358845 0.22591487 2.3590009 1.3318283e-38
0.30143696 0.25845921 2.3346798 1.3318283e-38
0.33401018 0.26275969 2.3476162 1.3318283e-38
0.36171338 0.27634001 2.3590002 1.3318283e-38
0.30782887 0.28743991 2.3269999 1.3318283e-38
0.3398273 0.29167408 2.3294361 1.3318283e-38
0.36590654 0.29277346 2.3494008 1.3318283e-38
0.45607337 0.28982005 2.3590002 1.3318283e-38
0.025448529 -0.61974478 2.3871989 1.3318283e-38
0.060558319 -0.6142689 2.3812456 1.3318283e-38
0.10222138 -0.61629343 2.3807063 1.3318283e-38
0.13992822 -0.61194372 2.3823993 1.3318283e-38
0.17281595 -0.62078917 2.3866658 1.3318283e-38
0.43467432 -0.60552895 2.3813336 1.3318283e-38
0.46032003 -0.61049134 2.3759997 1.3318283e-38
0.50191355 -0.60817146 2.3777139 1.3318283e-38
0.53946525 -0.60712457 2.3759999 1.3318283e-38
0.58020848 -0.6120277 2.3795116 1.3318283e-38
0.61666226 -0.61014521 2.3830395 1.3318283e-38
0.66053331 -0.60924625 2.377548 1.3318283e-38
0.70096487 -0.61149526 2.3827362 1.3318283e-38
0.73987961 -0.61083061 2.3807266 1.3318283e-38
0.77980745 -0.61086321 2.379636 1.3318283e-38
0.81961817 -0.6126098 2.3805211 1.3318283e-38
0.85619378 -0.61109436 2.3814995 1.3318283e-38
0.90043789 -0.60802233 2.3815382 1.3318283e-38
0.92208004 -0.6053766 2.386667 1.3318283e-38
1.0228114 -0.6041829 2.3760002 1.3318283e-38
0.035690162 -0.58648306 2.3920002 1.3318283e-38
0.05456581 -0.5902437 2.3919997 1.3318283e-38
0.09719874 -0.59913915 2.3920002 1.3318283e-38
0.13668571 -0.59913915 2.3920002 1.3318283e-38
0.43332577 -0.59610826 2.3872001 1.3318283e-38
0.45704314 -0.59701544 2.3810911 1.3318283e-38
0.49858513 -0.5981555 2.3872001 1.3318283e-38
0.54105872 -0.59835136 2.3857388 1.3318283e-38
0.57110608 -0.5965246 2.390667 1.3318283e-38
0.63118482 -0.59769332 2.3840001 1.3318283e-38
0.65488172 -0.59829926 2.3866663 1.3318283e-38
0.68456006 -0.59926862 2.3880002 1.3318283e-38
0.73012954 -0.59913909 2.3920002 1.3318283e-38
0.78389007 -0.59660965 2.3897138 1.3318283e-38
0.80644578 -0.596861 2.3920002 1.3318283e-38
0.87180829 -0.59433538 2.3880002 1.3318283e-38
0.90212715 -0.5928179 2.3879995 1.3318283e-38
0.93508327 -0.58780646 2.3847265 1.3318283e-38
0.9821493 -0.58353043 2.3853326 1.3318283e-38
1.0121549 -0.58233899 2.3837032 1.3318283e-38
0.99466527 -0.55208081 2.3856001 1.3318283e-38
1.0085328 -0.54033166 2.3814392 1.3318283e-38
0.98567569 -0.5010159 2.3839998 1.3318283e-38
1.0069715 -0.51819432 2.3760002 1.3318283e-38
0.95907819 -0.44650668 2.3920002 1.3318283e-38
0.982059 -0.45630416 2.3827686 1.3318283e-38
0.95510429 -0.41983771 2.3885214 1.3318283e-38
0.9671008 -0.41906491 2.3808482 1.3318283e-38
0.9496603 -0.38022423 2.3877542 1.3318283e-38
0.96707118 -0.37736434 2.3788571 1.3318283e-38
0.94786912 -0.34283704 2.3830583 1.3318283e-38
0.96906853 -0.35696575 2.3760002 1.3318283e-38
0.91655368 -0.2855213 2.3920002 1.3318283e-38
0.93608761 -0.29493874 2.3880966 1.3318283e-38
0.91029793 -0.26443994 2.3861053 1.3318283e-38
0.93371153 -0.26956952 2.381 1.3318283e-38
0.23920001 -0.0045561907 2.3920002 1.3318283e-38
0.24527495 -0.0037968259 2.3920002 1.3318283e-38
0.23505272 0.026249314 2.3857777 1.3318283e-38
0.25214437 0.024918102 2.3911104 1.3318283e-38
0.23202287 0.052965343 2.3767998 1.3318283e-38
0.25896722 0.061420877 2.3837576 1.3318283e-38
0.28536946 0.072443433 2.3920004 1.3318283e-38
0.23760001 0.085988574 2.3760002 1.3318283e-38
0.26501977 0.098556437 2.3776839 1.3318283e-38
0.29360405 0.10198536 2.3907361 1.3318283e-38
0.27606857 0.12898286 2.3760004 1.3318283e-38
0.29811141 0.14112379 2.3858454 1.3318283e-38
0.32424891 0.15339176 2.3920002 1.3318283e-38
0.30826414 0.17728156 2.376333 1.3318283e-38
0.33980006 0.18107936 2.3876359 1.3318283e-38
0.36335623 0.19022095 2.3920002 1.3318283e-38
0.75177151 0.18452573 2.3920002 1.3318283e-38
0.31159541 0.21135087 2.3759999 1.3318283e-38
0.34346649 0.21627046 2.3792646 1.3318283e-38
0.37705192 0.229004 2.3891759 1.3318283e-38
0.35261557 0.2542983 2.3759997 1.3318283e-38
0.38180959 0.26049665 2.3857391 1.3318283e-38
0.40957665 0.26389286 2.3849995 1.3318283e-38
0.38617101 0.29360089 2.3823993 1.3318283e-38
0.41008249 0.29189333 2.3862395 1.3318283e-38
0.46388575 0.29190859 2.3760002 1.3318283e-38
-0.0034657144 -0.6122762 2.4260004 1.3318283e-38
0.013880069 -0.60903704 2.415926 1.3318283e-38
0.11012572 -0.60339713 2.4090002 1.3318283e-38
0.15867811 -0.60480571 2.4146669 1.3318283e-38
0.17308977 -0.607382 2.4120004 1.3318283e-38
0.59513777 -0.6052326 2.4090002 1.3318283e-38
0.61486858 -0.60569155 2.4090004 1.3318283e-38
0.67681432 -0.60339713 2.4090002 1.3318283e-38
0.71008635 -0.60543138 2.4129236 1.3318283e-38
0.7479372 -0.60416192 2.4090004 1.3318283e-38
0.76297057 -0.60315526 2.4203334 1.3318283e-38
0.82954818 -0.60470814 2.4090002 1.3318283e-38
0.85332561 -0.60486633 2.4118338 1.3318283e-38
0.90624297 -0.60339713 2.4090002 1.3318283e-38
-0.0038453969 -0.59165156 2.4203336 1.3318283e-38
0.017665079 -0.59016955 2.4222224 1.3318283e-38
0.062739559 -0.58884943 2.4129999 1.3318283e-38
0.096740864 -0.59504634 2.4203339 1.3318283e-38
0.13997404 -0.5888719 2.4190617 1.3318283e-38
0.17026381 -0.59756821 2.4226003 1.3318283e-38
0.42739257 -0.58611339 2.4229641 1.3318283e-38
0.45891839 -0.58826518 2.4199791 1.3318283e-38
0.50333834 -0.58780479 2.4204574 1.3318283e-38
0.53914404 -0.58610892 2.4210174 1.3318283e-38
0.5806433 -0.58698303 2.419585 1.3318283e-38
0.61902297 -0.58716691 2.4188905 1.3318283e-38
0.65677744 -0.59075105 2.4210787 1.3318283e-38
0.69956005 -0.59124357 2.4204657 1.3318283e-38
0.7392683 -0.5902881 2.4235218 1.3318283e-38
0.77826518 -0.59003043 2.418951 1.3318283e-38
0.81862646 -0.59039038 2.4198964 1.3318283e-38
0.86366671 -0.5919584 2.4209001 1.3318283e-38
0.90079468 -0.57855207 2.4166832 1.3318283e-38
0.94019616 -0.57133907 2.4162853 1.3318283e-38
0.97744721 -0.57133234 2.4156518 1.3318283e-38
1.0026029 -0.58733714 2.4090002 1.3318283e-38
0.94975984 -0.54588854 2.4260001 1.3318283e-38
0.98164237 -0.54031891 2.4192822 1.3318283e-38
1.0033678 -0.53992194 2.4090004 1.3318283e-38
0.95441169 -0.49970973 2.4259996 1.3318283e-38
0.9729799 -0.50122571 2.4158585 1.3318283e-38
0.94576848 -0.45644543 2.4217498 1.3318283e-38
0.97108638 -0.46880767 2.4094996 1.3318283e-38
0.94144851 -0.4201059 2.4161434 1.3318283e-38
0.9613058 -0.41297147 2.4090002 1.3318283e-38
0.91610384 -0.36621049 2.4260001 1.3318283e-38
0.93281287 -0.37814257 2.4160821 1.3318283e-38
0.91285807 -0.33809969 2.4259999 1.3318283e-38
0.93216431 -0.34032303 2.4144831 1.3318283e-38
0.90877432 -0.29537597 2.4214058 1.3318283e-38
0.92867148 -0.30757391 2.4112668 1.3318283e-38
0.89992309 -0.26148865 2.4176602 1.3318283e-38
0.95212859 -0.2753143 2.4090002 1.3318283e-38
0.87567049 -0.21025334 2.4260001 1.3318283e-38
0.89299905 -0.22931479 2.4260004 1.3318283e-38
0.25540602 -0.013824404 2.4185624 1.3318283e-38
0.78556192 -0.039278094 2.4260001 1.3318283e-38
0.26923111 0.016189707 2.4104161 1.3318283e-38
0.29055682 0.027502529 2.4227307 1.3318283e-38
0.27454954 0.045120955 2.4090002 1.3318283e-38
0.30072317 0.058645096 2.4162858 1.3318283e-38
0.32247651 0.067663953 2.4260004 1.3318283e-38
0.77400959 0.073935241 2.4260004 1.3318283e-38
0.31123912 0.095951036 2.4132502 1.3318283e-38
0.32412681 0.1023211 2.4260004 1.3318283e-38
0.77863055 0.10628191 2.4260001 1.3318283e-38
0.31248176 0.12924477 2.4090002 1.3318283e-38
0.33910346 0.1428549 2.4187138 1.3318283e-38
0.37660769 0.15364666 2.4260001 1.3318283e-38
0.40756807 0.15249144 2.4260004 1.3318283e-38
0.75552577 0.14787048 2.4260001 1.3318283e-38
0.76826054 0.14172779 2.4217508 1.3318283e-38
0.34873146 0.16289429 2.4090002 1.3318283e-38
0.37996519 0.18078865 2.4177926 1.3318283e-38
0.4159908 0.18263263 2.4260008 1.3318283e-38
0.44130099 0.19639048 2.4260001 1.3318283e-38
0.75552577 0.18599333 2.4260001 1.3318283e-38
0.76525408 0.17693387 2.4259999 1.3318283e-38
0.38566878 0.21335143 2.4129224 1.3318283e-38
0.41947898 0.21937145 2.4254684 1.3318283e-38
0.44361144 0.22411621 2.4260004 1.3318283e-38
0.73858231 0.22966133 2.4260004 1.3318283e-38
0.76476765 0.20101143 2.4260001 1.3318283e-38
0.42676735 0.25497994 2.4160001 1.3318283e-38
0.45712432 0.26290429 2.4259999 1.3318283e-38
0.48519999 0.27956763 2.4260001 1.3318283e-38
0.67696959 0.27956763 2.4260001 1.3318283e-38
0.69083238 0.27725714 2.4260001 1.3318283e-38
0.72978044 0.25448248 2.4260004 1.3318283e-38
0.43197259 0.2943511 2.419929 1.3318283e-38
0.45710123 0.29401147 2.4248674 1.3318283e-38
0.48857692 0.29449686 2.4260006 1.3318283e-38
0.59880859 0.30055144 2.4090002 1.3318283e-38
0.60765523 0.30267242 2.4260001 1.3318283e-38
0.10474449 -0.5799349 2.4518144 1.3318283e-38
0.13094245 -0.57643276 2.4496524 1.3318283e-38
0.16240133 -0.59423071 2.4430001 1.3318283e-38
0.42737705 -0.56859887 2.4442596 1.3318283e-38
0.46273768 -0.57093167 2.447974 1.3318283e-38
0.4968479 -0.57168567 2.446815 1.3318283e-38
0.54121542 -0.56655866 2.44363 1.3318283e-38
0.58025974 -0.56938732 2.4540451 1.3318283e-38
0.62000895 -0.56905442 2.4491284 1.3318283e-38
0.66290927 -0.57319641 2.4537172 1.3318283e-38
0.69928324 -0.57254016 2.4491019 1.3318283e-38
0.74085367 -0.57122701 2.4510467 1.3318283e-38
0.77851433 -0.57349664 2.4531853 1.3318283e-38
0.8214581 -0.57304841 2.4597316 1.3318283e-38
0.85815454 -0.57446581 2.4519992 1.3318283e-38
0.89269167 -0.5665434 2.4543464 1.3318283e-38
0.92834002 -0.56189001 2.4430001 1.3318283e-38
0.42293379 -0.55440342 2.4742761 1.3318283e-38
0.45804757 -0.55586231 2.4709289 1.3318283e-38
0.50240213 -0.55603576 2.466125 1.3318283e-38
0.54166484 -0.55868793 2.4702859 1.3318283e-38
0.57415432 -0.55864573 2.4780004 1.3318283e-38
0.62300283 -0.55690664 2.4720001 1.3318283e-38
0.65977192 -0.55767876 2.4767148 1.3318283e-38
0.7048955 -0.5590232 2.4705882 1.3318283e-38
0.72772175 -0.55680078 2.4728575 1.3318283e-38
0.78369552 -0.55856287 2.4726002 1.3318283e-38
0.82364005 -0.55932003 2.4780002 1.3318283e-38
0.85919428 -0.55897254 2.4744003 1.3318283e-38
0.90880239 -0.55406725 2.4702175 1.3318283e-38
0.93875277 -0.54014862 2.4618275 1.3318283e-38
0.96091336 -0.53746003 2.4430001 1.3318283e-38
0.94516605 -0.49938715 2.4615161 1.3318283e-38
0.91406667 -0.44600523 2.4730911 1.3318283e-38
0.93071228 -0.46252784 2.4562821 1.3318283e-38
0.9120788 -0.41992441 2.4740479 1.3318283e-38
0.92634726 -0.42103121 2.4546313 1.3318283e-38
0.9104048 -0.37790069 2.4638393 1.3318283e-38
0.92362612 -0.3904528 2.4500835 1.3318283e-38
0.90409321 -0.34079966 2.455982 1.3318283e-38
0.89537501 -0.29996133 2.4592941 1.3318283e-38
0.87221104 -0.25438479 2.4654996 1.3318283e-38
0.88970464 -0.26135102 2.4533947 1.3318283e-38
0.8649556 -0.2183677 2.4586873 1.3318283e-38
0.89196795 -0.22710398 2.4465005 1.3318283e-38
0.85988325 -0.18056513 2.4553695 1.3318283e-38
0.8839218 -0.18719094 2.4430003 1.3318283e-38
0.83685607 -0.12602401 2.4780004 1.3318283e-38
0.84895223 -0.14449738 2.4715199 1.3318283e-38
0.27061829 -0.088010289 2.4708002 1.3318283e-38
0.29650182 -0.086890906 2.4780006 1.3318283e-38
0.83339471 -0.10399735 2.4780004 1.3318283e-38
0.84440804 -0.11186401 2.4780004 1.3318283e-38
0.27027726 -0.056797463 2.4595771 1.3318283e-38
0.29933324 -0.061237212 2.4676263 1.3318283e-38
0.32938862 -0.051245715 2.4780004 1.3318283e-38
0.79296005 -0.040120002 2.4780002 1.3318283e-38
0.81026673 -0.048773341 2.4780006 1.3318283e-38
0.26601562 -0.029259603 2.4430006 1.3318283e-38
0.29939604 -0.020804645 2.4576623 1.3318283e-38
0.3343032 -0.017396478 2.4714885 1.3318283e-38
0.36108002 -0.00236 2.4780002 1.3318283e-38
0.79336965 -0.019105798 2.457417 1.3318283e-38
0.80240005 -0.01416 2.4780002 1.3318283e-38
0.30762368 0.017665198 2.4453187 1.3318283e-38
0.33933175 0.020568062 2.461231 1.3318283e-38
0.36107999 0.018880002 2.4780004 1.3318283e-38
0.78883004 0.0059000007 2.4780004 1.3318283e-38
0.80161345 0.0039333338 2.4780002 1.3318283e-38
0.31526336 0.045370001 2.4430001 1.3318283e-38
0.34249511 0.059784815 2.4515357 1.3318283e-38
0.37717339 0.066900007 2.4718416 1.3318283e-38
0.40828001 0.070013337 2.4780002 1.3318283e-38
0.75756001 0.073160008 2.4780002 1.3318283e-38
0.77329171 0.062103052 2.4650438 1.3318283e-38
0.34373152 0.098751575 2.4439111 1.3318283e-38
0.37894705 0.1005601 2.4560153 1.3318283e-38
0.40999594 0.10459116 2.4622221 1.3318283e-38
0.75040185 0.10949016 2.47 1.3318283e-38
0.7712903 0.099797584 2.4518986 1.3318283e-38
0.3495369 0.1283246 2.4430006 1.3318283e-38
0.37988046 0.13813661 2.4438951 1.3318283e-38
0.42028606 0.13795881 2.4516165 1.3318283e-38
0.45136151 0.14696874 2.4704211 1.3318283e-38
0.74819714 0.14028791 2.4542973 1.3318283e-38
0.7645427 0.13261999 2.4430003 1.3318283e-38
0.39535439 0.17271028 2.4430006 1.3318283e-38
0.43285307 0.17301098 2.4430003 1.3318283e-38
0.45999449 0.18118243 2.4550521 1.3318283e-38
0.48800319 0.19129893 2.4723754 1.3318283e-38
0.71907437 0.18727715 2.4735003 1.3318283e-38
0.74167502 0.18093562 2.4547632 1.3318283e-38
0.76159549 0.17139779 2.4430001 1.3318283e-38
0.43442193 0.21970382 2.4430001 1.3318283e-38
0.46170723 0.22146867 2.4471033 1.3318283e-38
0.49758875 0.22051448 2.4673212 1.3318283e-38
0.5256058 0.23498859 2.4780004 1.3318283e-38
0.71152329 0.22959241 2.4705 1.3318283e-38
0.73718518 0.21693857 2.4527411 1.3318283e-38
0.76214951 0.20973238 2.4430001 1.3318283e-38
0.47231334 0.24695906 2.4430001 1.3318283e-38
0.49958029 0.26058239 2.4552729 1.3318283e-38
0.5360803 0.26366556 2.4701989 1.3318283e-38
0.56561339 0.27454668 2.4780002 1.3318283e-38
0.70718151 0.2603541 2.4624317 1.3318283e-38
0.73027694 0.25248054 2.4472501 1.3318283e-38
0.50757134 0.2894015 2.4430006 1.3318283e-38
0.5412299 0.2934534 2.4637139 1.3318283e-38
0.57421249 0.29805657 2.4754767 1.3318283e-38
0.60625994 0.30066434 2.4682729 1.3318283e-38
0.70130408 0.28349921 2.4601669 1.3318283e-38
0.59666288 -0.56338286 2.4960001 1.3318283e-38
0.60458672 -0.56496763 2.4960001 1.3318283e-38
0.75260347 -0.56433374 2.4960001 1.3318283e-38
0.77019429 -0.56338286 2.4960001 1.3318283e-38
0.82147276 -0.56338286 2.4960001 1.3318283e-38
0.84626287 -0.56576002 2.4960001 1.3318283e-38
0.89333028 -0.56338286 2.4960001 1.3318283e-38
0.39984575 -0.54589719 2.5140002 1.3318283e-38
0.42273042 -0.53751677 2.5029237 1.3318283e-38
0.45927384 -0.54071659 2.5066533 1.3318283e-38
0.5004431 -0.54108912 2.5048482 1.3318283e-38
0.54043251 -0.5444628 2.5035014 1.3318283e-38
0.58049822 -0.54251009 2.5057156 1.3318283e-38
0.61935502 -0.54058671 2.5045977 1.3318283e-38
0.66075557 -0.54066265 2.5052915 1.3318283e-38
0.69959986 -0.54436624 2.5035493 1.3318283e-38
0.74079078 -0.54137707 2.5040016 1.3318283e-38
0.77800858 -0.54317147 2.502301 1.3318283e-38
0.82036376 -0.54861873 2.5044708 1.3318283e-38
0.86092573 -0.54592741 2.5062008 1.3318283e-38
0.90095299 -0.53912824 2.5028696 1.3318283e-38
0.93197978 -0.52758592 2.4959998 1.3318283e-38
0.50998288 -0.51956004 2.5140002 1.3318283e-38
0.90869039 -0.49367872 2.5064006 1.3318283e-38
0.93065888 -0.50284773 2.4981177 1.3318283e-38
0.90948343 -0.46228307 2.5062275 1.3318283e-38
0.92682159 -0.46935362 2.4960001 1.3318283e-38
0.90249652 -0.42267138 2.511158 1.3318283e-38
0.87678736 -0.37159315 2.5140002 1.3318283e-38
0.89694935 -0.3795858 2.5066369 1.3318283e-38
0.86874849 -0.33447418 2.5080001 1.3318283e-38
0.89139426 -0.33948258 2.4979572 1.3318283e-38
0.86032677 -0.29886115 2.5074775 1.3318283e-38
0.88583523 -0.30469379 2.4959998 1.3318283e-38
0.83161533 -0.25299621 2.5140002 1.3318283e-38
0.85623139 -0.25945279 2.5057518 1.3318283e-38
0.88191998 -0.27574858 2.4960001 1.3318283e-38
0.82798231 -0.21487474 2.5115001 1.3318283e-38
0.84978479 -0.22246587 2.5036502 1.3318283e-38
0.27534288 -0.16760001 2.5140002 1.3318283e-38
0.28763786 -0.18008912 2.5140002 1.3318283e-38
0.79729718 -0.16041715 2.5140002 1.3318283e-38
0.82384956 -0.17971189 2.5056355 1.3318283e-38
0.84668243 -0.18164171 2.4959998 1.3318283e-38
0.27812573 -0.12123429 2.4960001 1.3318283e-38
0.29952124 -0.13796583 2.5140011 1.3318283e-38
0.32602194 -0.13208477 2.5140002 1.3318283e-38
0.79729718 -0.14365715 2.5140002 1.3318283e-38
0.82180417 -0.1399609 2.5071452 1.3318283e-38
0.85497904 -0.141157 2.4959996 1.3318283e-38
0.27634287 -0.10697143 2.4960001 1.3318283e-38
0.30152944 -0.1062561 2.5047905 1.3318283e-38
0.33344692 -0.097240902 2.5092633 1.3318283e-38
0.7894389 -0.094139509 2.5121379 1.3318283e-38
0.81699967 -0.099747159 2.4993923 1.3318283e-38
0.85814857 -0.11648 2.4960001 1.3318283e-38
0.27337143 -0.068937145 2.4960001 1.3318283e-38
0.34236243 -0.062028125 2.5027065 1.3318283e-38
0.36991715 -0.046688568 2.5140002 1.3318283e-38
0.41660574 -0.040702861 2.5140002 1.3318283e-38
0.74941152 -0.040702861 2.5140002 1.3318283e-38
0.78466254 -0.057814352 2.5077152 1.3318283e-38
0.8164469 -0.066890925 2.496783 1.3318283e-38
0.84230977 -0.065603435 2.5140002 1.3318283e-38
0.35482818 -0.021711238 2.4960001 1.3318283e-38
0.37949577 -0.017932612 2.5126421 1.3318283e-38
0.42043656 -0.013248383 2.5140004 1.3318283e-38
0.75589007 -0.018450083 2.5140002 1.3318283e-38
0.77946728 -0.018651014 2.5056536 1.3318283e-38
0.80109715 -0.028525716 2.4960001 1.3318283e-38
0.38387814 0.01908174 2.5033939 1.3318283e-38
0.42097518 0.019126698 2.5114703 1.3318283e-38
0.44533718 0.033520002 2.5140002 1.3318283e-38
0.75122231 0.021822687 2.5134706 1.3318283e-38
0.77742994 0.019320996 2.5017154 1.3318283e-38
0.38566089 0.049314477 2.4991031 1.3318283e-38
0.42014253 0.058568638 2.4980884 1.3318283e-38
0.45831957 0.060435291 2.5128586 1.3318283e-38
0.48125145 0.079011433 2.5140002 1.3318283e-38
0.7491858 0.06042264 2.5103998 1.3318283e-38
0.76955068 0.048806425 2.4997497 1.3318283e-38
0.43041149 0.095531441 2.4959998 1.3318283e-38
0.46050385 0.10047752 2.4984009 1.3318283e-38
0.49733683 0.10297681 2.51004 1.3318283e-38
0.74052632 0.10022878 2.506624 1.3318283e-38
0.76306283 0.09984 2.4960001 1.3318283e-38
0.43977144 0.12361144 2.4960001 1.3318283e-38
0.46560994 0.13508376 2.4960005 1.3318283e-38
0.49921787 0.1409528 2.5060012 1.3318283e-38
0.52754104 0.15243621 2.5140004 1.3318283e-38
0.71319783 0.14066429 2.5140002 1.3318283e-38
0.73312342 0.13945004 2.5038395 1.3318283e-38
0.47622097 0.16560762 2.4960001 1.3318283e-38
0.50490367 0.1762875 2.5016255 1.3318283e-38
0.53697056 0.18257277 2.5057907 1.3318283e-38
0.56361485 0.1901063 2.5140002 1.3318283e-38
0.70733035 0.18155777 2.5098748 1.3318283e-38
0.72771239 0.17006049 2.5004997 1.3318283e-38
0.5134629 0.20918857 2.4960001 1.3318283e-38
0.54091609 0.21765903 2.5046794 1.3318283e-38
0.57424247 0.2277661 2.5140002 1.3318283e-38
0.60947877 0.23490603 2.5140002 1.3318283e-38
0.67758286 0.20830287 2.5140002 1.3318283e-38
0.70101303 0.21875235 2.5020006 1.3318283e-38
0.72416419 0.21026911 2.4960003 1.3318283e-38
0.5502519 0.24937357 2.4959996 1.3318283e-38
0.58036256 0.25841141 2.5037589 1.3318283e-38
0.61592251 0.25957838 2.5130858 1.3318283e-38
0.67233825 0.26302937 2.5140002 1.3318283e-38
0.69006127 0.25866514 2.5038264 1.3318283e-38
0.555776 0.31045488 2.4960001 1.3318283e-38
0.5855695 0.29728693 2.4960001 1.3318283e-38
0.62040061 0.29085392 2.5062859 1.3318283e-38
0.66548747 0.2905691 2.5118825 1.3318283e-38
0.68887955 0.29135352 2.5045712 1.3318283e-38
0.39306834 -0.53696978 2.5372782 1.3318283e-38
0.41558009 -0.52882719 2.5411198 1.3318283e-38
0.46515411 -0.525985 2.5383339 1.3318283e-38
0.49502262 -0.52667266 2.5389094 1.3318283e-38
0.5406059 -0.52688074 2.5407088 1.3318283e-38
0.57459766 -0.52513814 2.5389094 1.3318283e-38
0.61962032 -0.52508003 2.5426404 1.3318283e-38
0.66184729 -0.5234015 2.5404441 1.3318283e-38
0.69944417 -0.5268206 2.54264 1.3318283e-38
0.73705643 -0.52493727 2.5410872 1.3318283e-38
0.78291512 -0.52574134 2.5428572 1.3318283e-38
0.82369351 -0.53360862 2.5415001 1.3318283e-38
0.85878801 -0.52824003 2.540941 1.3318283e-38
0.89297092 -0.52516145 2.5367501 1.3318283e-38
0.3960124 -0.5174886 2.5510001 1.3318283e-38
0.45988783 -0.51759613 2.5488892 1.3318283e-38
0.50243813 -0.51479346 2.5475457 1.3318283e-38
0.52234763 -0.51505911 2.5510001 1.3318283e-38
0.59301674 -0.51797283 2.5415001 1.3318283e-38
0.63734514 -0.51586896 2.5510001 1.3318283e-38
0.65874809 -0.51540613 2.5510004 1.3318283e-38
0.69848812 -0.5174886 2.5510001 1.3318283e-38
0.74006689 -0.51765007 2.5478334 1.3318283e-38
0.77015907 -0.5174886 2.5510004 1.3318283e-38
0.83818573 -0.51505911 2.5510001 1.3318283e-38
0.85600239 -0.51392525 2.5510004 1.3318283e-38
0.89914984 -0.50585616 2.538162 1.3318283e-38
0.87705821 -0.45918 2.5510001 1.3318283e-38
0.89199132 -0.4617998 2.5377679 1.3318283e-38
0.87617463 -0.4172155 2.5510006 1.3318283e-38
0.89026886 -0.41885784 2.5415001 1.3318283e-38
0.86543542 -0.37444541 2.5434885 1.3318283e-38
0.89022774 -0.39385006 2.5331874 1.3318283e-38
0.85560393 -0.34337574 2.5417018 1.3318283e-38
0.83450711 -0.2976597 2.5478332 1.3318283e-38
0.84294164 -0.30461845 2.5370669 1.3318283e-38
0.82746106 -0.26190138 2.5443244 1.3318283e-38
0.84158862 -0.26766858 2.5320001 1.3318283e-38
0.31107432 -0.20014857 2.5320001 1.3318283e-38
0.33648503 -0.20314352 2.5453002 1.3318283e-38
0.79931337 -0.20650953 2.5510001 1.3318283e-38
0.81557143 -0.2190004 2.5378058 1.3318283e-38
0.30866289 -0.17844567 2.5320001 1.3318283e-38
0.33522582 -0.17841415 2.5463474 1.3318283e-38
0.7953319 -0.17308258 2.5453 1.3318283e-38
0.80689162 -0.18214488 2.5345912 1.3318283e-38
0.31228 -0.15553714 2.5320001 1.3318283e-38
0.34307766 -0.1420837 2.5356379 1.3318283e-38
0.36897075 -0.13679276 2.5509996 1.3318283e-38
0.79017824 -0.14162175 2.5419319 1.3318283e-38
0.8030057 -0.13504 2.5320001 1.3318283e-38
0.35216501 -0.10658513 2.5320005 1.3318283e-38
0.37621424 -0.098132208 2.5410249 1.3318283e-38
0.41909418 -0.094162665 2.5470235 1.3318283e-38
0.44460285 -0.08017429 2.5510001 1.3318283e-38
0.78224635 -0.10046887 2.5463789 1.3318283e-38
0.38332942 -0.063793249 2.5319989 1.3318283e-38
0.419462 -0.059430201 2.537046 1.3318283e-38
0.44460285 -0.041301906 2.5510001 1.3318283e-38
0.75333607 -0.050353725 2.539773 1.3318283e-38
0.77030265 -0.065207079 2.5355191 1.3318283e-38
0.39467049 -0.032956194 2.5320001 1.3318283e-38
0.41845387 -0.024539836 2.5319998 1.3318283e-38
0.45735884 -0.015826488 2.5446668 1.3318283e-38
0.48347524 -0.01214762 2.5510001 1.3318283e-38
0.74852711 -0.020218896 2.5422707 1.3318283e-38
0.46162096 0.01949848 2.5392756 1.3318283e-38
0.49319345 0.029269977 2.5509999 1.3318283e-38
0.73663533 0.020774337 2.5402818 1.3318283e-38
0.47849637 0.054084908 2.5320001 1.3318283e-38
0.49885947 0.060549393 2.5428572 1.3318283e-38
0.53449523 0.075315237 2.5510001 1.3318283e-38
0.73271269 0.059464809 2.5399539 1.3318283e-38
0.50968188 0.085395314 2.5415006 1.3318283e-38
0.5376479 0.10124046 2.5433271 1.3318283e-38
0.56469077 0.11418763 2.5510004 1.3318283e-38
0.71469635 0.10810989 2.543875 1.3318283e-38
0.72520316 0.09342663 2.5375421 1.3318283e-38
0.51845711 0.13021713 2.5320001 1.3318283e-38
0.54106456 0.13903548 2.5368428 1.3318283e-38
0.57173526 0.14493871 2.5498126 1.3318283e-38
0.67783713 0.15791905 2.5510001 1.3318283e-38
0.70426708 0.14473954 2.5417876 1.3318283e-38
0.55134028 0.16638856 2.5319998 1.3318283e-38
0.57971078 0.17719153 2.5383334 1.3318283e-38
0.61531746 0.19290422 2.5510004 1.3318283e-38
0.67621744 0.18491377 2.5510004 1.3318283e-38
0.69015306 0.1774679 2.5381861 1.3318283e-38
0.58497918 0.21252786 2.5381074 1.3318283e-38
0.62215024 0.21920164 2.5443332 1.3318283e-38
0.6638208 0.22079422 2.5458727 1.3318283e-38
0.6890865 0.21644653 2.5320003 1.3318283e-38
0.6369617 0.25664493 2.5320001 1.3318283e-38
0.65904278 0.25672337 2.5381064 1.3318283e-38
0.63902861 0.28213716 2.5320001 1.3318283e-38
0.65470296 0.28907001 2.5320001 1.3318283e-38
0.37858266 -0.52770573 2.5824685 1.3318283e-38
0.41772905 -0.52268976 2.5750668 1.3318283e-38
0.44301909 -0.52134287 2.5700002 1.3318283e-38
0.54570657 -0.52118897 2.5727146 1.3318283e-38
0.57343662 -0.52197921 2.5731666 1.3318283e-38
0.61924767 -0.52134287 2.5700002 1.3318283e-38
0.70124292 -0.52256668 2.5700002 1.3318283e-38
0.73918098 -0.52134287 2.5700002 1.3318283e-38
0.79302859 -0.52134287 2.5700002 1.3318283e-38
0.82156253 -0.52580357 2.5707598 1.3318283e-38
0.89093339 -0.52134287 2.5700002 1.3318283e-38
0.33472073 -0.49930716 2.5890005 1.3318283e-38
0.3887285 -0.51246083 2.5854378 1.3318283e-38
0.42235494 -0.5065282 2.5813093 1.3318283e-38
0.45835063 -0.50553471 2.5813992 1.3318283e-38
0.49989524 -0.50188971 2.5799313 1.3318283e-38
0.53823918 -0.50295824 2.5823147 1.3318283e-38
0.58377075 -0.50382257 2.583333 1.3318283e-38
0.62068695 -0.50476372 2.5821881 1.3318283e-38
0.66260207 -0.50152677 2.5794995 1.3318283e-38
0.69969279 -0.50203311 2.5796609 1.3318283e-38
0.73865104 -0.50528377 2.579119 1.3318283e-38
0.77938974 -0.50244677 2.5802789 1.3318283e-38
0.82009006 -0.50161356 2.5823796 1.3318283e-38
0.86072165 -0.49591404 2.5789735 1.3318283e-38
0.88954991 -0.5038904 2.5699999 1.3318283e-38
0.86512816 -0.458891 2.581717 1.3318283e-38
0.88522232 -0.45688891 2.5700002 1.3318283e-38
0.83341151 -0.40191147 2.5890002 1.3318283e-38
0.86139333 -0.42026091 2.5789738 1.3318283e-38
0.893381 -0.4234381 2.5700002 1.3318283e-38
0.8344667 -0.37841845 2.5846822 1.3318283e-38
0.8529461 -0.38499513 2.5780742 1.3318283e-38
0.79642576 -0.34273431 2.5890002 1.3318283e-38
0.82897681 -0.3379989 2.5835705 1.3318283e-38
0.84474754 -0.34330904 2.5747502 1.3318283e-38
0.79642576 -0.2884886 2.5890002 1.3318283e-38
0.81805253 -0.29906389 2.5790329 1.3318283e-38
0.79179877 -0.25714102 2.5840743 1.3318283e-38
0.8110798 -0.25925168 2.5716166 1.3318283e-38
0.35738766 -0.20738344 2.5738003 1.3318283e-38
0.38015226 -0.21182039 2.5883217 1.3318283e-38
0.41122639 -0.21342129 2.5890005 1.3318283e-38
0.7859323 -0.22079726 2.580081 1.3318283e-38
0.80884391 -0.22612239 2.5700002 1.3318283e-38
0.35686287 -0.18455051 2.5700002 1.3318283e-38
0.38088059 -0.18130174 2.5871723 1.3318283e-38
0.41670582 -0.17319517 2.589 1.3318283e-38
0.75697434 -0.17013431 2.5890002 1.3318283e-38
0.77784318 -0.18080747 2.5785086 1.3318283e-38
0.80037147 -0.18846668 2.5700002 1.3318283e-38
0.38575527 -0.14408056 2.5724514 1.3318283e-38
0.41969553 -0.14020574 2.5856667 1.3318283e-38
0.45122573 -0.13333826 2.5890005 1.3318283e-38
0.75046486 -0.13423347 2.5890005 1.3318283e-38
0.77201748 -0.1390321 2.5769422 1.3318283e-38
0.39345485 -0.10983692 2.5699999 1.3318283e-38
0.41903287 -0.11281009 2.5707307 1.3318283e-38
0.45961878 -0.098782092 2.5780923 1.3318283e-38
0.48648548 -0.09271086 2.5890005 1.3318283e-38
0.71752292 -0.088765725 2.5890002 1.3318283e-38
0.74469572 -0.096112937 2.5852675 1.3318283e-38
0.77117574 -0.10502294 2.5710557 1.3318283e-38
0.46091878 -0.059243824 2.5710964 1.3318283e-38
0.49691242 -0.058623511 2.5886474 1.3318283e-38
0.52190959 -0.043560959 2.5890002 1.3318283e-38
0.71752298 -0.056711439 2.5890005 1.3318283e-38
0.7380597 -0.06005856 2.5800946 1.3318283e-38
0.76316768 -0.07196001 2.5700002 1.3318283e-38
0.46959332 -0.031119728 2.5700002 1.3318283e-38
0.49878556 -0.019994497 2.5742223 1.3318283e-38
0.5275715 -0.01726 2.5890002 1.3318283e-38
0.71526939 -0.016690955 2.5858338 1.3318283e-38
0.73180526 -0.019347521 2.5732336 1.3318283e-38
0.47728574 0.0048952382 2.5700002 1.3318283e-38
0.50176191 0.013636731 2.5699999 1.3318283e-38
0.53203571 0.020583659 2.5849996 1.3318283e-38
0.70866525 0.020972205 2.5810459 1.3318283e-38
0.72913074 0.013610207 2.5715196 1.3318283e-38
0.5164476 0.051400006 2.5700002 1.3318283e-38
0.54059166 0.057872999 2.5756669 1.3318283e-38
0.57826871 0.063286684 2.588999 1.3318283e-38
0.70785123 0.059637539 2.5832989 1.3318283e-38
0.72433221 0.059885085 2.5700002 1.3318283e-38
0.55071425 0.08636599 2.5700002 1.3318283e-38
0.58123749 0.098095864 2.5786955 1.3318283e-38
0.61293566 0.10643666 2.5890007 1.3318283e-38
0.67807144 0.11342287 2.5890002 1.3318283e-38
0.70022744 0.099635996 2.5763345 1.3318283e-38
0.72204769 0.085666679 2.5700002 1.3318283e-38
0.59064966 0.13638465 2.5706127 1.3318283e-38
0.62092501 0.13839357 2.5824358 1.3318283e-38
0.66402817 0.14442569 2.5857105 1.3318283e-38
0.69389087 0.13530952 2.5753694 1.3318283e-38
0.62220144 0.1757299 2.574019 1.3318283e-38
0.65993828 0.17889671 2.5766103 1.3318283e-38
0.68288571 0.17622858 2.5700002 1.3318283e-38
0.61435241 0.21000572 2.5699999 1.3318283e-38
0.65974468 0.20760262 2.5699999 1.3318283e-38
0.35532099 -0.52428478 2.6090002 1.3318283e-38
0.3602905 -0.52676952 2.6090002 1.3318283e-38
0.35013813 -0.49983478 2.614001 1.3318283e-38
0.37572193 -0.50163186 2.6154001 1.3318283e-38
0.41915464 -0.4940446 2.6158757 1.3318283e-38
0.46321946 -0.48892236 2.6115007 1.3318283e-38
0.49529219 -0.48866302 2.6123343 1.3318283e-38
0.54612935 -0.48720148 2.6121588 1.3318283e-38
0.57568532 -0.4894335 2.6100008 1.3318283e-38
0.62512583 -0.48825276 2.610177 1.3318283e-38
0.65727276 -0.48740023 2.6138005 1.3318283e-38
0.70479077 -0.48504195 2.6175721 1.3318283e-38
0.7425288 -0.48851722 2.6186304 1.3318283e-38
0.77671713 -0.48586717 2.6162739 1.3318283e-38
0.81872255 -0.48438486 2.6112225 1.3318283e-38
0.84730387 -0.4845286 2.6090002 1.3318283e-38
0.46240222 -0.47579879 2.6244552 1.3318283e-38
0.50440055 -0.47254238 2.6230543 1.3318283e-38
0.53988224 -0.47333905 2.6243854 1.3318283e-38
0.58055919 -0.4766506 2.6226006 1.3318283e-38
0.62014306 -0.47764617 2.6190004 1.3318283e-38
0.66407353 -0.47685412 2.6231179 1.3318283e-38
0.69601744 -0.47761497 2.6256666 1.3318283e-38
0.7890147 -0.47796711 2.6245556 1.3318283e-38
0.82313466 -0.47161108 2.6216314 1.3318283e-38
0.84877354 -0.46284834 2.6180325 1.3318283e-38
0.82830912 -0.41424805 2.6201768 1.3318283e-38
0.84611809 -0.42603347 2.6140003 1.3318283e-38
0.79704612 -0.36972925 2.6290002 1.3318283e-38
0.81886673 -0.37897059 2.6205242 1.3318283e-38
0.79357821 -0.33993104 2.6208756 1.3318283e-38
0.81095219 -0.33985046 2.6096458 1.3318283e-38
0.79468524 -0.29333228 2.6240005 1.3318283e-38
0.80646992 -0.31095433 2.6190002 1.3318283e-38
0.4348391 -0.24491145 2.6240001 1.3318283e-38
0.44693002 -0.24912904 2.6289999 1.3318283e-38
0.78355157 -0.25929803 2.6230004 1.3318283e-38
0.39259243 -0.22114383 2.6090002 1.3318283e-38
0.42577469 -0.21815443 2.6098521 1.3318283e-38
0.45158601 -0.21792173 2.6240003 1.3318283e-38
0.75564975 -0.20581315 2.6290002 1.3318283e-38
0.77331328 -0.21807875 2.6211438 1.3318283e-38
0.39507717 -0.18635717 2.6090002 1.3318283e-38
0.42081672 -0.18355386 2.6090009 1.3318283e-38
0.46081939 -0.17803079 2.6221995 1.3318283e-38
0.48573914 -0.17276287 2.6289999 1.3318283e-38
0.75156999 -0.17857486 2.6218207 1.3318283e-38
0.76530671 -0.18967018 2.6090002 1.3318283e-38
0.46910203 -0.14345597 2.6101775 1.3318283e-38
0.49596253 -0.13860022 2.6225138 1.3318283e-38
0.73981106 -0.1403655 2.6185241 1.3318283e-38
0.50585061 -0.10297757 2.6156671 1.3318283e-38
0.53097463 -0.088634886 2.6290002 1.3318283e-38
0.71396983 -0.09299273 2.6251912 1.3318283e-38
0.72932905 -0.10629929 2.6143854 1.3318283e-38
0.51765883 -0.065432064 2.6090002 1.3318283e-38
0.54049897 -0.059588388 2.6202502 1.3318283e-38
0.5683648 -0.045068577 2.6290002 1.3318283e-38
0.70724297 -0.060545653 2.6185999 1.3318283e-38
0.72555053 -0.077027626 2.6090002 1.3318283e-38
