# .PCD v0.7 - Point Cloud Data file format
VERSION 0.7
FIELDS x y z rgb
SIZE 4 4 4 4
TYPE F F F F
COUNT 1 1 1 1
WIDTH 278
HEIGHT 1
VIEWPOINT 0 0 0 1 0 0 0
POINTS 278
DATA ascii
-0.31224039 0.23230617 0.5184148 9.6780146e-39
-0.2992368 0.14238885 0.54160982 1.2348821e-38
-0.32118168 0.18338986 0.53309083 9.1230458e-39
-0.29829535 0.18524677 0.53820908 1.0045005e-38
-0.26871052 0.19346888 0.5527302 1.0689294e-38
-0.32623449 0.21547727 0.546417 9.0322851e-39
-0.29950288 0.21774796 0.53654802 9.0315732e-39
-0.27292266 0.20681843 0.5402841 1.0137212e-38
-0.28681779 0.24063551 0.53254551 1.1888927e-38
-0.26449034 0.24456777 0.54425144 1.1611609e-38
-0.083540775 -0.084609315 0.59407556 9.4137227e-39
-0.063622788 -0.09261404 0.58563703 8.7705281e-39
-0.12618655 -0.050757281 0.57472622 5.5281645e-39
-0.10100815 -0.053888522 0.5883919 7.384714e-39
-0.069926292 -0.067935236 0.59065408 7.9404059e-39
-0.13780335 -0.011571945 0.58642232 5.7129187e-39
-0.098397836 -0.026277643 0.58910215 5.1673175e-39
-0.071255274 -0.026670845 0.5727483 6.0827928e-39
-0.16251677 0.0084828585 0.59363639 1.2515547e-38
-0.14333974 0.0057906485 0.59190673 7.5514209e-39
-0.10008053 0.019595498 0.58592182 5.1622728e-39
-0.25002688 0.19563337 0.564915 1.2348815e-38
-0.23492724 0.19824558 0.57351047 1.3086029e-38
-0.28083336 0.2059451 0.56166673 9.8613269e-39
-0.25427723 0.21784957 0.5696615 9.2156071e-39
-0.22568414 0.22272792 0.58343774 9.8602605e-39
-0.24661332 0.24055809 0.57800001 1.1425769e-38
-0.2302198 0.24161503 0.58428568 7.2780598e-39
-0.08742857 -0.085142858 0.60000002 1.5495005e-38
-0.09039744 -0.062442776 0.60080701 8.3095598e-39
-0.070325151 -0.06055839 0.60433668 1.0615525e-38
-0.12567319 -0.01915483 0.60604781 5.6347921e-39
-0.1039802 -0.0097838147 0.60322243 6.2733091e-39
-0.074371941 -0.0040070741 0.62896335 1.9065404e-38
-0.16964866 0.019077526 0.62193817 1.1324573e-38
-0.13729055 0.023575086 0.6068548 5.7212102e-39
-0.1001645 0.0054122265 0.61070395 8.1139693e-39
-0.073134914 0.0053352229 0.63237292 1.7315129e-38
-0.16380529 0.066180989 0.61844766 1.0144068e-38
-0.14737342 0.054783363 0.61013997 8.0311512e-39
-0.12883848 0.03947581 0.66639996 6.6258366e-39
-0.089092836 0.028953893 0.65371048 9.3917083e-39
-0.069726169 0.023851927 0.65421647 1.6487168e-38
-0.1337503 0.062949561 0.65535671 1.1233457e-38
-0.10040324 0.059302628 0.65770191 1.2155771e-38
-0.075602457 0.049576953 0.66087806 1.8516909e-38
-0.13660626 0.098237276 0.66838396 1.0772834e-38
-0.1090676 0.092771091 0.67240745 1.3905323e-38
-0.13450667 0.12092667 0.67899996 9.6675665e-39
0.19777037 0.23913418 0.67862499 1.1416388e-38
0.21969315 0.23848894 0.67732698 1.3812034e-38
0.24427833 0.23959002 0.67899996 1.6576465e-38
0.15856925 0.27703667 0.67830771 9.1147473e-39
0.18325061 0.26275504 0.66787118 9.4817291e-39
0.21957174 0.25874686 0.66030443 1.2153965e-38
0.25749952 0.2620424 0.66656345 1.7224719e-38
0.28704056 0.27157888 0.6749745 1.9990953e-38
0.15745932 0.29121068 0.67802846 8.4682989e-39
0.17825338 0.28914139 0.66529822 8.1917106e-39
0.21920277 0.28676376 0.65363556 9.2980581e-39
0.26068276 0.28820625 0.65965837 1.3997512e-38
0.29574588 0.29184702 0.67321092 1.648607e-38
-0.087946668 0.078102857 0.68000001 1.7407682e-38
-0.14091559 0.11785163 0.68075013 1.0402259e-38
-0.09772604 0.10623701 0.6887905 1.5194618e-38
-0.13674863 0.14018781 0.68899786 1.0220382e-38
-0.10255812 0.13956127 0.69944632 1.5009864e-38
-0.13681613 0.17954162 0.70256954 8.9296469e-39
-0.10407241 0.17955294 0.70578039 1.3904244e-38
-0.13144228 0.21587048 0.71250689 8.5619406e-39
-0.10628433 0.21764851 0.71262431 1.0956507e-38
0.15882497 0.2389884 0.71820009 1.1691891e-38
0.18436067 0.23211734 0.70407647 1.1876643e-38
0.21986422 0.22677264 0.69889963 1.3627281e-38
0.25767773 0.22907671 0.70137841 1.7130355e-38
0.28770921 0.23471542 0.7120254 1.980439e-38
-0.12325715 0.24035144 0.71900004 8.008048e-39
-0.11410622 0.24234353 0.71899992 8.0091298e-39
0.14682493 0.26363939 0.70144594 1.0679904e-38
0.17080782 0.24806283 0.68927211 1.1231638e-38
0.26923019 0.2453109 0.6849522 1.8974991e-38
0.30070278 0.25864568 0.69609052 2.082071e-38
0.33105549 0.27130359 0.71100402 1.9899112e-38
0.11803079 0.3118861 0.71697611 8.7445228e-39
0.13667169 0.29598698 0.69817817 8.9285553e-39
0.31459028 0.29096362 0.68353587 1.7407667e-38
0.33758232 0.29414719 0.69707876 1.6763379e-38
0.11624667 0.32070667 0.71800005 8.4683003e-39
-0.08453016 0.15224886 0.72410291 1.5100266e-38
-0.079282619 0.1571812 0.73025006 1.3820729e-38
-0.15333906 0.19872192 0.72200006 8.6570299e-39
-0.08436089 0.18115383 0.72547662 1.6299523e-38
-0.07552994 0.18668117 0.74216306 1.4824393e-38
0.15501928 0.19797789 0.75680012 1.2797165e-38
0.18299377 0.1946032 0.75294763 1.3257423e-38
0.21950279 0.19312562 0.74967825 1.4363407e-38
0.25328958 0.19501431 0.75140196 1.7128194e-38
0.28226477 0.19996762 0.75800002 1.8601522e-38
-0.14667305 0.22425973 0.72493035 9.5750164e-39
-0.08734028 0.22278646 0.72517085 1.3812408e-38
-0.071749009 0.22092366 0.74349815 1.4548526e-38
0.14477766 0.22418156 0.7444492 1.1968485e-38
0.17780358 0.21440235 0.73456365 1.2521295e-38
0.2189299 0.20828106 0.7293787 1.3903148e-38
0.2612564 0.20987535 0.73287433 1.7221112e-38
0.29926839 0.22141375 0.7390852 1.9526724e-38
0.33520195 0.23156355 0.75052124 1.9620003e-38
0.36107478 0.23807001 0.75750005 1.7592784e-38
-0.13259254 0.25748828 0.73219645 8.0087696e-39
-0.098730199 0.25992164 0.73018122 8.7456144e-39
-0.06949313 0.25924122 0.74647057 1.123237e-38
0.11476882 0.26690173 0.74829769 9.5739205e-39
0.1311567 0.25479597 0.73416233 1.0863936e-38
0.31408173 0.24478866 0.72280657 2.1005094e-38
0.34374988 0.25590643 0.73341793 1.8423621e-38
0.36761031 0.2561813 0.74462265 1.5842503e-38
-0.12726535 0.28859651 0.74981499 7.6399885e-39
-0.098030336 0.29474673 0.74836779 6.9949793e-39
-0.072368957 0.2916359 0.75417095 8.0073263e-39
0.10675632 0.30083072 0.73806351 8.9289127e-39
0.12161645 0.28680274 0.7214545 9.8505046e-39
0.35795164 0.28168747 0.72140008 1.7226149e-38
0.36191157 0.28218371 0.72342861 1.6580061e-38
0.096811622 0.32612205 0.74327129 7.7307338e-39
0.38790402 -0.0028880003 0.79799998 3.1310753e-39
0.38608003 0.00076000002 0.79800004 3.8636167e-39
0.14834152 0.15626819 0.79507214 1.4085747e-38
0.17801735 0.15514427 0.79294264 1.5284286e-38
0.21127191 0.15745497 0.79450667 1.5744548e-38
-0.066590481 0.1968762 0.76000005 1.0772831e-38
0.025784008 0.19707082 0.79721355 1.2889006e-38
0.062105894 0.19408351 0.79471707 1.3349623e-38
0.10422901 0.18754818 0.79478633 1.1415675e-38
0.14002581 0.18017709 0.7798754 1.2797169e-38
0.17942302 0.17516731 0.77312809 1.399427e-38
0.22021173 0.17344752 0.77565455 1.5468319e-38
0.26055807 0.18083844 0.77848423 1.7403705e-38
0.29696199 0.18995054 0.78412223 1.7866121e-38
0.32788131 0.19682463 0.79234642 1.9156142e-38
-0.055796422 0.2290746 0.77805841 1.150679e-38
-0.016533125 0.2265698 0.78966427 1.0861781e-38
0.020342465 0.2202028 0.78413248 1.1415675e-38
0.060148422 0.21999735 0.78079593 1.1508232e-38
0.10159937 0.22048439 0.78401244 9.5739233e-39
0.12939259 0.21171887 0.76651156 1.1692258e-38
0.30730382 0.20565532 0.76624703 1.8696598e-38
0.34239563 0.2143082 0.7747587 1.9249779e-38
0.37559804 0.22388601 0.77883607 1.84211e-38
0.40026906 0.21874239 0.79750001 1.8237064e-38
-0.05015609 0.25976244 0.7769919 8.9281952e-39
-0.02024327 0.25965455 0.77528656 9.6654001e-39
0.019612929 0.25985953 0.77338028 9.020751e-39
0.059614964 0.25974715 0.77612466 8.0991548e-39
0.098681293 0.25888935 0.77750021 7.0868007e-39
0.38000003 0.24211429 0.76000011 1.6671542e-38
-0.12625955 0.30505148 0.76492864 8.2867957e-39
-0.1022688 0.31490779 0.76397341 6.5354444e-39
-0.055126458 0.30187237 0.76787663 7.4545113e-39
-0.020295346 0.2987946 0.76993996 7.5467083e-39
0.019532287 0.29844373 0.77859282 6.2563282e-39
0.059911709 0.29838607 0.78795576 4.875193e-39
0.089428827 0.29765931 0.77582735 6.7176609e-39
-0.095398553 0.33172929 0.7766282 8.4722673e-39
-0.060000222 0.33306852 0.77511877 6.903864e-39
-0.022182601 0.329669 0.78137845 3.8635704e-39
0.016556878 0.32489473 0.79294443 2.9430547e-39
0.075680986 0.33649448 0.78743196 5.2450517e-39
0.083332352 0.33064443 0.76570857 6.7176623e-39
0.39624628 -0.043052547 0.8357501 8.4700995e-39
0.41066375 -0.054267678 0.83440346 4.6965751e-39
0.38354695 -0.016796349 0.8267622 8.4722687e-39
0.40581089 -0.022706483 0.82235181 1.0590243e-38
0.35222828 0.024842523 0.83337963 1.0955424e-38
0.38001093 0.019626632 0.82060397 1.0404413e-38
0.40373579 0.020942323 0.81285053 9.5778988e-39
0.34609047 0.061201487 0.8274821 9.7586803e-39
0.37884951 0.060105972 0.8095625 1.0865391e-38
0.40295318 0.056665275 0.80924338 1.0495887e-38
0.34545353 0.099504657 0.82496852 7.180804e-39
0.37929884 0.10038464 0.80685735 7.5517572e-39
0.4017705 0.097676121 0.80519992 1.0129273e-38
0.071659803 0.15477613 0.83132994 1.3718761e-38
0.10246842 0.14572906 0.82198894 1.3810599e-38
0.13905159 0.13870344 0.81743491 1.4639636e-38
0.17899874 0.13794471 0.81703746 1.6298072e-38
0.21974032 0.14817254 0.81691641 1.5745619e-38
0.257523 0.15419698 0.82485574 1.5284639e-38
0.29585326 0.15793492 0.83497262 1.4641428e-38
0.35038131 0.12989379 0.83027166 6.9031368e-39
0.37881956 0.13567881 0.81603056 6.5376024e-39
0.40374538 0.13372792 0.81072015 7.7390407e-39
-0.0067625586 0.19578238 0.81786299 1.3073037e-38
0.021218097 0.18528047 0.81697553 1.3717685e-38
0.059366204 0.17521092 0.81459779 1.3625847e-38
0.095569901 0.17069985 0.80505961 1.2704975e-38
0.12205429 0.16057999 0.801 1.3440741e-38
0.23733334 0.16114286 0.80000001 1.6388471e-38
0.26390213 0.16480152 0.8073296 1.639135e-38
0.30231544 0.1710462 0.81543964 1.685341e-38
0.33896607 0.18351094 0.82202303 1.8881713e-38
0.37564939 0.19258527 0.82762915 1.8329263e-38
0.40686956 0.19824998 0.83700013 1.823599e-38
-0.049076676 0.2234527 0.81312358 1.0769591e-38
-0.023253251 0.21039547 0.80844671 1.1967051e-38
0.0028963808 0.20164838 0.80080003 1.2243991e-38
0.3529442 0.20217332 0.80264509 1.9064667e-38
0.38405588 0.20634457 0.80957842 1.8697325e-38
0.40816793 0.20698068 0.82237601 1.777609e-38
0.07063549 0.3153635 0.80526322 2.7590236e-39
0.029698474 0.32850382 0.8016001 1.5644432e-39
0.065589592 0.3359237 0.80837041 2.9441309e-39
0.39062479 -0.081010297 0.85920012 3.8711431e-39
0.41072771 -0.084537461 0.85384911 4.8842174e-39
0.35207745 -0.049582068 0.8715291 2.9473833e-39
0.3807615 -0.058491454 0.85449219 3.8686137e-39
0.40820554 -0.068953045 0.84439331 3.4090831e-39
0.34727889 -0.017485857 0.86348373 4.7887693e-39
0.36922324 -0.028503923 0.84766954 4.9735207e-39
0.3163833 0.032095507 0.87532067 1.1966331e-38
0.33589178 0.01927159 0.85742819 9.4831739e-39
0.31622696 0.064201646 0.87091058 1.0955776e-38
0.32660228 0.057886623 0.85191721 9.2995001e-39
0.11945476 0.11945476 0.84750003 1.4825466e-38
0.14289549 0.11559791 0.85151511 1.5008421e-38
0.17364396 0.11688454 0.85138357 1.5470484e-38
0.31053597 0.1020131 0.86640012 1.1324193e-38
0.32629016 0.10003453 0.84851587 8.7456032e-39
0.065788046 0.14966671 0.85192704 1.427157e-38
0.098021574 0.13205984 0.8458944 1.454816e-38
0.13706811 0.12123328 0.84167975 1.5100972e-38
0.18743734 0.12392595 0.85042328 1.5377195e-38
0.21666071 0.13652748 0.84921932 1.4640352e-38
0.26325929 0.14381696 0.86212701 1.32585e-38
0.30124107 0.13897206 0.85784364 1.2061395e-38
0.33552843 0.14254561 0.84815907 1.0862857e-38
0.36890075 0.15534639 0.85361105 1.2060668e-38
0.031337108 0.17081916 0.84488469 1.4180096e-38
0.046031609 0.16343763 0.84724319 1.4270856e-38
0.34878737 0.16747259 0.84629786 1.6669737e-38
0.38000542 0.17468874 0.85602331 1.8790237e-38
0.41673565 0.19162427 0.85985374 1.7683892e-38
0.44150859 0.19148763 0.87800002 1.7130722e-38
0.42210191 0.20103905 0.84100002 1.7684975e-38
0.0057333331 0.35956192 0.86000001 1.6548438e-39
-0.042516511 0.37670991 0.85033339 2.2098154e-39
-0.016938064 0.37167931 0.84898043 1.0127128e-39
0.019155648 0.37270063 0.86215687 7.3648604e-40
0.045474213 0.38598126 0.87462515 8.290404e-40
0.36734232 -0.081579499 0.89166671 3.3172448e-39
0.34171957 -0.057395563 0.89171183 3.1324906e-39
0.36807147 -0.074078195 0.88218856 3.4083586e-39
0.31411272 -0.010964127 0.89343846 1.0493008e-38
0.32840684 -0.024212491 0.88992888 5.7085634e-39
0.31020588 0.019370262 0.89348722 1.0954703e-38
0.32521269 0.0091675995 0.88703543 9.7583188e-39
0.30719495 0.059687264 0.89666444 1.1418195e-38
0.2772989 0.11817937 0.91466665 1.2429464e-38
0.2949529 0.10152878 0.89615178 1.2245789e-38
0.22803307 0.13425392 0.90269482 1.3351418e-38
0.26004657 0.13020721 0.89787161 1.3259221e-38
0.28466189 0.12463307 0.88692087 1.2522007e-38
0.42283639 0.18490651 0.8912847 1.7406945e-38
0.44803089 0.18961839 0.90432817 1.6301316e-38
0.036349837 0.37017593 0.88408083 9.2123603e-40
0.056737911 0.38611552 0.8894003 1.1049084e-39
0.32654232 -0.043535933 0.92600012 3.8689724e-39
0.31980953 -0.031542856 0.92000002 3.8682592e-39
0.32201588 -0.038455874 0.92466676 3.6856546e-39
0.30451304 0.023876918 0.9264015 5.9851503e-39
0.30341372 0.050931167 0.92364311 7.3695183e-39
0.27593035 0.11584652 0.92410529 1.2152879e-38
0.29083672 0.096947387 0.92249978 1.1878453e-38
0.23205477 0.12520373 0.92058074 1.3442908e-38
0.25902531 0.12240887 0.92070007 1.279861e-38
-0.14461172 0.099190615 0.63885713 1.2710384e-38
-0.31020924 0.16288936 0.5373503 1.0690016e-38
-0.021417059 0.23729263 0.63826519 1.1605478e-38
-0.010433957 0.16215137 0.77627647 1.151906e-38
