# .PCD v0.7 - Point Cloud Data file format
VERSION 0.7
FIELDS x y z rgb
SIZE 4 4 4 4
TYPE F F F F
COUNT 1 1 1 1
WIDTH 293
HEIGHT 1
VIEWPOINT 0 0 0 1 0 0 0
POINTS 293
DATA ascii
-0.082045004 -0.080336437 0.59825003 9.0370733e-39
-0.063836068 -0.083066918 0.59753275 1.0244942e-38
-0.085258 -0.068628564 0.59674186 7.1052292e-39
-0.062703207 -0.068532862 0.59515333 9.2260888e-39
-0.0052538035 -0.053792626 0.59706879 4.700936e-39
0.0056260116 -0.052981343 0.59768093 4.4261623e-39
-0.085673198 -0.081504226 0.60085708 1.4664559e-38
-0.047208384 -0.084726974 0.60127556 1.1998461e-38
-0.015606481 -0.094580628 0.61615151 1.0323796e-38
0.016880341 -0.097728394 0.62665874 9.0355781e-39
0.043267529 -0.10258842 0.63820028 5.0686437e-39
-0.097688086 -0.06327837 0.60642856 1.5581801e-38
-0.046502322 -0.062700823 0.60290515 8.2083202e-39
-0.022698566 -0.061911482 0.61225694 6.2801671e-39
0.020675506 -0.060901791 0.6269744 6.7379068e-39
0.053151872 -0.054520715 0.6258136 6.0856809e-39
-0.0066055446 -0.038817313 0.60510719 8.7632932e-39
0.0043434701 -0.039173543 0.60235727 8.5799851e-39
0.024933284 -0.091699295 0.64453495 1.0885977e-38
0.04842262 -0.096780896 0.64479208 1.1712137e-38
-0.08210972 -0.042838734 0.67813337 1.9815577e-38
-0.058337051 -0.050128005 0.66072923 9.0315396e-39
-0.031553142 -0.042462166 0.65953076 6.081683e-39
0.027245672 -0.056909706 0.64529592 7.2921568e-39
0.063343294 -0.072208464 0.67005086 1.0431138e-38
0.086734131 -0.064837873 0.67751032 7.7585538e-39
-0.085994251 -0.017807851 0.67478585 1.5474092e-38
-0.072273277 -0.019487206 0.67473859 1.2890809e-38
-0.017234918 -0.020775873 0.66598648 1.344435e-38
0.014894801 -0.03507122 0.65715826 1.1710672e-38
0.040604763 -0.038759049 0.64600003 1.8438013e-38
-0.086656973 0.01837069 0.66886902 1.4276263e-38
-0.061382256 0.02187358 0.66702402 1.5100985e-38
-0.024984935 0.019477595 0.67469597 1.4550696e-38
-0.085312396 0.058821488 0.67459345 1.1417118e-38
-0.062880032 0.057305023 0.67160344 1.3351072e-38
-0.032687653 0.04364033 0.676943 1.4825477e-38
-0.083341897 0.087701723 0.67788094 9.850513e-39
-0.074372537 0.089851715 0.67792445 1.1048343e-38
0.19020663 0.27032053 0.67405641 9.6646798e-39
0.21948761 0.26701578 0.67016703 1.2245081e-38
0.25337806 0.27112547 0.67289078 1.7407674e-38
0.18534173 0.29053086 0.67145675 8.6519712e-39
0.21929157 0.28882009 0.66265517 1.0311491e-38
0.26007375 0.29004553 0.66931713 1.5840347e-38
0.28255981 0.29545197 0.67819667 1.7499504e-38
0.070357181 -0.081924438 0.68103862 2.0463112e-38
0.085728727 -0.081600569 0.6822353 1.9909217e-38
-0.086133331 -0.040800001 0.68000001 2.2399584e-38
-0.048813578 -0.042351 0.70225018 6.5386618e-39
0.076671265 -0.063851401 0.6812157 1.2724826e-38
0.093699321 -0.062321343 0.68171006 1.2456187e-38
-0.09201172 -0.018382421 0.67999995 2.2217334e-38
-0.05476702 -0.020346424 0.70320094 1.077067e-38
-0.02863992 -0.010840504 0.68927598 1.1507879e-38
0.0022192744 -0.0037079819 0.6884287 1.9988805e-38
-0.047923382 0.0058952793 0.68523407 1.0402599e-38
-0.0088711344 0.015538621 0.68480182 1.8606941e-38
0.001926338 0.0059205592 0.69024163 1.9715822e-38
-0.092980459 0.068209879 0.68303758 1.4458867e-38
-0.047357149 0.070331573 0.68353081 1.5378651e-38
-0.029670898 0.059059862 0.68736184 1.694814e-38
-0.092126377 0.10315344 0.68737769 1.0588081e-38
-0.057613019 0.10164592 0.68917286 1.5193899e-38
-0.036112919 0.098178416 0.70400625 1.6760872e-38
-0.095169656 0.14125359 0.6936872 9.2973449e-39
-0.059651379 0.13998048 0.69572937 1.4824401e-38
-0.037347429 0.13640617 0.71605211 1.6206619e-38
-0.12096002 0.18416746 0.71645451 1.0581996e-38
-0.099346735 0.17986746 0.69994044 9.3895405e-39
-0.059815791 0.1798975 0.70002836 1.4364144e-38
-0.038852595 0.17434333 0.71749997 1.7680295e-38
-0.12120286 0.20816763 0.71900004 9.4838815e-39
-0.098377779 0.21861668 0.70627671 8.6530573e-39
-0.060559299 0.21936505 0.7060473 1.2521674e-38
0.19471098 0.23785621 0.71563035 1.1692254e-38
0.22086847 0.23579757 0.71133113 1.344253e-38
0.25169155 0.2360768 0.71295482 1.6483905e-38
-0.090945274 0.2519151 0.71405554 7.7318226e-39
-0.06443204 0.25442618 0.71407092 9.4817389e-39
0.15245834 0.2711066 0.70889825 1.0770659e-38
0.17857988 0.25768435 0.69746244 1.1046888e-38
0.21977286 0.24742658 0.69097006 1.3442893e-38
0.26241428 0.25382194 0.69371164 1.8236707e-38
0.29443517 0.26601917 0.70286137 2.0819269e-38
0.32192963 0.27807271 0.71700001 2.0726e-38
0.14377241 0.29735053 0.70293784 9.2966176e-39
0.1658657 0.29200384 0.68419242 9.0211111e-39
0.27912381 0.28041905 0.68000001 1.9712567e-38
0.30265751 0.29404992 0.69017023 1.8882079e-38
0.3358728 0.30281445 0.7083807 1.7684615e-38
0.36086956 0.31362095 0.71900004 1.7040706e-38
0.12656224 0.32085559 0.71833342 8.9263973e-39
0.35616797 0.32088923 0.71233338 1.5471933e-38
-0.042074453 -0.021697307 0.72113055 1.1045458e-38
-0.035946004 -0.018053798 0.7209729 1.5932189e-38
-0.036463898 0.15409948 0.72118193 1.6205914e-38
-0.12239906 0.1822224 0.72066677 1.2796852e-38
-0.12 0.17005715 0.72000003 1.3076308e-38
-0.034655035 0.18314955 0.72687292 1.620553e-38
0.22197817 0.19955328 0.75769234 1.500698e-38
-0.12287089 0.22318302 0.72683346 9.9394745e-39
-0.1167402 0.23159103 0.72179413 9.1147571e-39
-0.041323904 0.22751425 0.72053647 1.6022225e-38
-0.033018522 0.22078352 0.72945499 1.6206248e-38
0.15037702 0.22812203 0.75164342 1.1599702e-38
0.18086344 0.22270581 0.74267995 1.2336545e-38
0.21929772 0.21704267 0.73926276 1.3994267e-38
0.25931573 0.22132519 0.73924053 1.7312587e-38
0.29476726 0.23126595 0.74584442 1.9802232e-38
0.32413524 0.23895048 0.75800002 2.0353979e-38
-0.12263376 0.26071143 0.74178874 9.3888244e-39
-0.1044974 0.2651259 0.72824758 8.0087682e-39
-0.052752487 0.26750752 0.72304267 1.0494809e-38
-0.019783024 0.26091939 0.74635798 1.0585919e-38
0.017804595 0.26158866 0.75456375 1.0678832e-38
0.041148573 0.26465032 0.75800002 9.2047807e-39
0.11841837 0.27637824 0.75685722 9.2040604e-39
0.13966689 0.25945741 0.73957354 1.0678106e-38
0.16756698 0.24531166 0.72652727 1.1507141e-38
0.2784 0.24068573 0.72000003 1.8975343e-38
0.30663717 0.2514258 0.73082823 2.0818546e-38
0.33778903 0.26428214 0.74470937 1.9436336e-38
0.36838633 0.27243644 0.75320703 1.5749587e-38
-0.12161937 0.281533 0.74966669 8.0966619e-39
-0.096926138 0.29815882 0.74171674 6.9956981e-39
-0.059139218 0.29950434 0.73326933 7.4548756e-39
-0.020363444 0.29866803 0.74378699 8.1906372e-39
0.014067865 0.29271176 0.75342602 7.7296562e-39
0.11162346 0.30364272 0.74487817 8.8352793e-39
0.1258444 0.29543141 0.72909409 9.5724814e-39
0.34928152 0.29074341 0.72993147 1.8054478e-38
0.36639577 0.29180285 0.73857945 1.5842143e-38
-0.092232749 0.32411152 0.75552827 6.809509e-39
-0.058229949 0.3284393 0.74929136 6.8120299e-39
-0.024206432 0.32693425 0.75210077 3.3122015e-39
0.10387348 0.32657668 0.74359983 8.0065976e-39
0.12222476 0.32135999 0.72100008 8.6516111e-39
0.15601715 0.15840574 0.79800004 1.4453452e-38
0.17155997 0.15868001 0.79800016 1.5283208e-38
-0.0029788283 0.19846089 0.79653853 1.2057084e-38
0.023724509 0.19321072 0.78961033 1.2887568e-38
0.0600481 0.18981044 0.78864568 1.4270143e-38
0.099395715 0.19022305 0.79345673 1.3348904e-38
0.14220086 0.18334702 0.78659403 1.2428028e-38
0.17985792 0.18070355 0.77996653 1.4453811e-38
0.21888307 0.18349965 0.77885222 1.5928216e-38
0.25629187 0.1896649 0.78474319 1.7955441e-38
0.28964886 0.19631171 0.79383135 1.8325301e-38
-0.0138035 0.22086792 0.77724284 1.0859263e-38
0.019709205 0.22004859 0.76975513 1.1691183e-38
0.059652366 0.21991305 0.77057445 1.2981206e-38
0.10007195 0.22006072 0.78102607 1.1046894e-38
0.13515463 0.21652196 0.77241319 1.0770306e-38
0.17358018 0.20321749 0.76161289 1.3164868e-38
0.22336254 0.20115349 0.76025945 1.519137e-38
0.26556581 0.20477065 0.76662612 1.8417494e-38
0.30206344 0.21396647 0.77730429 1.9156138e-38
0.33750719 0.22694916 0.78142077 1.9801875e-38
0.37329298 0.23527911 0.79128033 1.8973192e-38
-0.015201567 0.24215426 0.76005894 1.0216054e-38
0.030255737 0.24987237 0.76002425 1.0862503e-38
0.060088068 0.25926563 0.7648598 9.0200307e-39
0.10187091 0.26052898 0.77610958 7.17756e-39
0.12427805 0.25054026 0.76439857 8.9278351e-39
0.3487955 0.24838535 0.765293 1.9066829e-38
0.37719163 0.25281864 0.77430159 1.7592059e-38
0.40026906 0.24152811 0.79750001 1.8328188e-38
-0.12222879 0.30476704 0.76674199 9.1115257e-39
-0.11453132 0.31121844 0.76249993 8.3768291e-39
0.027009273 0.30626374 0.76588792 5.2425378e-39
0.057935774 0.29747239 0.77642822 5.0585067e-39
0.095306709 0.29895669 0.77721745 6.1648486e-39
-0.12220763 0.32024288 0.77300006 2.0096488e-38
-0.093710192 0.33029854 0.7620278 1.5203616e-38
-0.073963627 0.33820841 0.7614001 1.7423873e-38
-0.0045727743 0.32495236 0.76129413 2.6675496e-39
0.01838148 0.3234911 0.77292973 2.0236207e-39
0.073334515 0.3373532 0.79372042 4.785161e-39
0.08622504 0.33155155 0.77421463 6.5329123e-39
0.42029905 -0.042349525 0.83900005 5.2472336e-39
0.38857621 -0.0069266027 0.835123 7.920181e-39
0.41001737 -0.016657963 0.83376503 1.1050142e-38
0.35821787 0.033855006 0.83617252 1.150716e-38
0.38163337 0.02118713 0.82918012 1.0127467e-38
0.40662059 0.022272505 0.82358474 9.7630132e-39
0.35196546 0.063127354 0.82982498 1.0310775e-38
0.37896734 0.059530396 0.81730795 1.1325293e-38
0.40496746 0.059489485 0.81643766 1.1232737e-38
0.35067761 0.099325478 0.8274039 7.6410633e-39
0.37941185 0.10066325 0.81371969 7.4595601e-39
0.40456206 0.09767893 0.81365967 1.040478e-38
0.07251063 0.15740186 0.83324999 1.3993549e-38
0.10328913 0.14954522 0.82590485 1.3717323e-38
0.14055571 0.14430086 0.82002598 1.4546364e-38
0.17893292 0.14431047 0.81831396 1.6389549e-38
0.21654527 0.15199493 0.82324576 1.657394e-38
0.24694417 0.1577481 0.83283782 1.5837091e-38
0.35497713 0.12815323 0.83173746 6.6276303e-39
0.38011807 0.13663086 0.81951493 6.260654e-39
0.40442112 0.13856284 0.81447685 8.3836856e-39
-0.0084929792 0.19613093 0.80743551 1.2427308e-38
0.02170622 0.18109056 0.81199318 1.3532936e-38
0.060349133 0.17079896 0.81592709 1.4453808e-38
0.099605761 0.17050667 0.80735123 1.3532575e-38
0.13129063 0.16580161 0.80271286 1.307232e-38
0.1962582 0.16152847 0.80044448 1.6665421e-38
0.22460002 0.16387849 0.8062427 1.6573586e-38
0.26295158 0.17225082 0.81729329 1.6850171e-38
0.29896313 0.18311241 0.81926382 1.7312947e-38
0.33304116 0.19264995 0.8303839 1.9802233e-38
0.36946625 0.18766683 0.83842868 1.8423982e-38
-0.022853043 0.20383219 0.80457634 1.159899e-38
0.31622562 0.20231959 0.80266672 1.9433808e-38
0.34455094 0.20856827 0.81537259 1.9708957e-38
0.38006139 0.2191148 0.81885332 1.8880636e-38
0.40863729 0.22502236 0.8255111 1.777465e-38
0.4015238 0.23999999 0.80000001 1.8421093e-38
0.076890036 0.31442243 0.8056522 2.3909599e-39
0.080608666 0.31405008 0.80054551 3.127083e-39
0.072517596 0.33977485 0.81262296 3.8642837e-39
0.069633633 0.36165708 0.81315398 4.4181707e-39
0.38513321 -0.053717513 0.86740273 3.6842239e-39
0.41332328 -0.057835035 0.85421121 3.7767866e-39
0.3541531 -0.013752901 0.87101603 3.9608164e-39
0.37688553 -0.022550372 0.85533446 6.0780662e-39
0.40803343 -0.034157217 0.84475058 8.9296399e-39
0.34605661 0.022268301 0.85957766 9.1143941e-39
0.36379793 0.0090706944 0.84573549 1.095578e-38
0.3344782 0.059168417 0.85735941 9.8508746e-39
0.14446017 0.11766011 0.85972154 1.5007705e-38
0.17349814 0.11754663 0.85971445 1.5562326e-38
0.31512463 0.10688094 0.87436646 1.1600061e-38
0.33121559 0.099764489 0.85579264 8.9299945e-39
0.067234635 0.15271086 0.84939128 1.4086106e-38
0.098766856 0.13724546 0.85304511 1.4270498e-38
0.13743994 0.12483486 0.84982759 1.5008418e-38
0.18260396 0.12543122 0.85060412 1.602185e-38
0.21973845 0.14249693 0.84814459 1.546831e-38
0.26277125 0.15361607 0.86025333 1.3718037e-38
0.30439547 0.14390275 0.86736304 1.1876288e-38
0.33820689 0.14046507 0.85474461 9.849427e-39
0.3657757 0.1541664 0.85133338 9.9401779e-39
0.039456666 0.16748714 0.84550005 1.4270503e-38
0.048553266 0.16380234 0.84728193 1.4087188e-38
0.27358252 0.1620113 0.84399992 1.4638912e-38
0.30348834 0.16592784 0.84928954 1.4548156e-38
0.3419354 0.17524503 0.8519305 1.7221473e-38
0.37556654 0.18214597 0.86082596 1.8789158e-38
0.40562093 0.19803189 0.87453854 1.7774646e-38
0.38942191 0.20347443 0.84770262 1.8789159e-38
0.4182227 0.20883396 0.85939956 1.759026e-38
0.44150859 0.20653906 0.87800002 1.6668662e-38
-0.012008926 0.37900516 0.85936952 1.1052658e-39
0.012035263 0.38069633 0.87091666 9.2015843e-40
0.34928629 -0.048859436 0.89939183 3.1314172e-39
0.36867398 -0.056761581 0.88747674 2.948105e-39
0.31779617 -0.006093198 0.90571439 1.0583403e-38
0.33795112 -0.020773467 0.89604676 4.879886e-39
0.31350216 0.022224257 0.90136087 1.1322403e-38
0.32934606 0.016148785 0.89106768 1.049408e-38
0.31377423 0.061103322 0.90034401 1.1600787e-38
0.32180056 0.057906654 0.88266301 1.1322756e-38
0.30447444 0.10076039 0.89671874 1.2061039e-38
0.23296815 0.14306715 0.90789682 1.3350339e-38
0.26085213 0.14025567 0.89724022 1.3258502e-38
0.29135054 0.13052785 0.89094412 1.2336904e-38
0.39656436 0.18866909 0.88505262 1.9708594e-38
0.4183625 0.19447067 0.89803153 1.7497338e-38
0.45102149 0.1983221 0.91055346 1.5102417e-38
0.43205068 0.20245938 0.88655007 1.6576465e-38
0.44626564 0.20320415 0.8920002 1.6023653e-38
0.030541923 0.38402528 0.8841669 1.0127114e-39
0.054199975 0.39308986 0.90218973 1.4729707e-39
0.06042045 0.40170619 0.90136838 1.1971013e-39
0.33303499 -0.041784596 0.94072741 3.6799191e-39
0.32825336 -0.031466778 0.93308896 3.7760608e-39
0.31124854 0.027976379 0.93737602 5.8947568e-39
0.30701858 0.059562348 0.92950726 8.0120094e-39
0.27563459 0.11801173 0.92738473 1.4367377e-38
0.29414043 0.10178044 0.92545152 1.160151e-38
0.22686951 0.13354166 0.92768794 1.3718779e-38
0.26104462 0.12852795 0.92649174 1.3166675e-38
0.28371793 0.12255144 0.92264706 1.2520932e-38
0.42801315 0.18924966 0.92448777 1.7220037e-38
0.45145485 0.1934395 0.92284989 1.5011306e-38
0.064900354 0.38986075 0.9217003 1.6577235e-39
0.095164448 0.21121089 0.73742616 1.3444339e-38
0.13993089 0.22687851 0.6914627 1.2710385e-38
-0.074403554 0.1540911 0.90572208 1.4004019e-38
-0.080789104 0.20595379 1.0058335 1.4649743e-38
-0.057639994 0.075406328 0.90543401 1.4557186e-38
0.016001185 0.10458925 0.75105923 1.151799e-38
