# .PCD v0.7 - Point Cloud Data file format
VERSION 0.7
FIELDS x y z rgb
SIZE 4 4 4 4
TYPE F F F F
COUNT 1 1 1 1
WIDTH 1046
HEIGHT 1
VIEWPOINT 0 0 0 1 0 0 0
POINTS 1046
DATA ascii
1.0940595 -0.68258679 2.3270001 2.160812e-38
-0.2814562 -0.65377623 2.3270001 2.160812e-38
-0.2573902 -0.65163964 2.3299644 2.160812e-38
-0.21890275 -0.65104753 2.3339691 2.160812e-38
-0.1803014 -0.65309745 2.338654 2.160812e-38
-0.14144157 -0.65288645 2.3390532 2.160812e-38
-0.10053043 -0.65604609 2.3367686 2.160812e-38
-0.059906624 -0.6539495 2.3369465 2.160812e-38
-0.020028036 -0.6561743 2.336565 2.160812e-38
0.020033652 -0.64939147 2.3374925 2.160812e-38
0.059196424 -0.65370375 2.3369722 2.160812e-38
0.10082266 -0.65396601 2.3398001 2.160812e-38
0.14111066 -0.65252703 2.3411052 2.160812e-38
0.18061835 -0.65463585 2.3406298 2.160812e-38
0.22131248 -0.65588886 2.3400464 2.160812e-38
0.26060653 -0.65336692 2.3398397 2.160812e-38
0.29865128 -0.65309608 2.3389025 2.160812e-38
0.33953291 -0.65150231 2.3392603 2.160812e-38
0.38068086 -0.65392572 2.3413591 2.160812e-38
0.42062381 -0.65505219 2.3425164 2.160812e-38
0.45986509 -0.66319329 2.3401155 2.160812e-38
0.50148785 -0.66376305 2.3372304 2.160812e-38
0.53962177 -0.65879261 2.3421211 2.160812e-38
0.57779193 -0.66522324 2.3410311 2.160812e-38
0.61888915 -0.66741061 2.3459837 2.160812e-38
0.65873098 -0.66673577 2.3473396 2.160812e-38
0.69689739 -0.66711688 2.3488786 2.160812e-38
0.73856997 -0.66722029 2.3410316 2.160812e-38
0.77645838 -0.66936123 2.3454244 2.160812e-38
0.81856173 -0.67343009 2.3469999 2.160812e-38
0.85778546 -0.67170221 2.3512583 2.160812e-38
0.90252084 -0.67171651 2.337527 2.160812e-38
0.94155478 -0.66531169 2.3377552 2.160812e-38
0.9822365 -0.66201997 2.3422642 2.160812e-38
1.0193802 -0.6611746 2.3387783 2.160812e-38
1.061412 -0.6606164 2.3408422 2.160812e-38
1.0958409 -0.65914881 2.3393087 2.160812e-38
1.1351446 -0.65319782 2.3382013 2.160812e-38
-0.25587502 -0.62730879 2.3270006 2.160812e-38
-0.21967292 -0.61889905 2.3392746 2.160812e-38
-0.18725908 -0.62045038 2.3560917 2.160812e-38
-0.14296032 -0.63469589 2.357667 2.160812e-38
-0.082844764 -0.6358819 2.3510003 2.160812e-38
-0.057022244 -0.63483262 2.3505299 2.160812e-38
-0.021155873 -0.63585687 2.353667 2.160812e-38
0.016640551 -0.6337291 2.3539479 2.160812e-38
0.049769286 -0.63590074 2.3490002 2.160812e-38
0.14860098 -0.63452286 2.3590002 2.160812e-38
0.16400668 -0.63580668 2.3590002 2.160812e-38
0.23365335 -0.63580668 2.3590002 2.160812e-38
0.25515717 -0.63420188 2.3590007 2.160812e-38
0.29431337 -0.63580668 2.3590002 2.160812e-38
0.34374005 -0.63417268 2.3590004 2.160812e-38
0.36171338 -0.63580668 2.3590002 2.160812e-38
1.106455 -0.61822093 2.3478005 2.160812e-38
1.1333433 -0.61901224 2.3302011 2.160812e-38
-0.21322104 -0.58092755 2.3294899 2.160812e-38
-0.18308218 -0.5786894 2.3468218 2.160812e-38
-0.15951334 -0.5639134 2.3590002 2.160812e-38
1.1028653 -0.57938951 2.3433478 2.160812e-38
1.1251322 -0.58303869 2.3296666 2.160812e-38
-0.20293976 -0.54803234 2.3270001 2.160812e-38
-0.17898615 -0.53985542 2.3340595 2.160812e-38
-0.14557505 -0.53425002 2.3558896 2.160812e-38
1.100044 -0.53893501 2.3374534 2.160812e-38
1.1236086 -0.5562638 2.3270001 2.160812e-38
-0.16646634 -0.50404263 2.3277271 2.160812e-38
-0.14207463 -0.50149769 2.3473248 2.160812e-38
-0.11682668 -0.48303339 2.3590002 2.160812e-38
1.0769354 -0.48705173 2.3430002 2.160812e-38
1.0942056 -0.50288087 2.3341112 2.160812e-38
-0.13687339 -0.46216041 2.3320804 2.160812e-38
-0.10231756 -0.45631367 2.3507154 2.160812e-38
-0.078633346 -0.4605667 2.3590002 2.160812e-38
1.0761884 -0.46333072 2.3404062 2.160812e-38
1.0847753 -0.45530283 2.3356154 2.160812e-38
-0.12720932 -0.41974658 2.3270004 2.160812e-38
-0.10071726 -0.42036614 2.3391032 2.160812e-38
-0.07260669 -0.41365218 2.3579342 2.160812e-38
1.0680531 -0.41738734 2.3437164 2.160812e-38
1.0891545 -0.42897069 2.3286841 2.160812e-38
-0.12189049 -0.39226574 2.3270001 2.160812e-38
-0.095518127 -0.38221988 2.331001 2.160812e-38
-0.061931796 -0.37966892 2.3467107 2.160812e-38
-0.034516972 -0.36824912 2.3590004 2.160812e-38
1.0361023 -0.36775029 2.3510003 2.160812e-38
1.0577171 -0.38182351 2.3417826 2.160812e-38
-0.084953979 -0.35089684 2.3269999 2.160812e-38
-0.060008716 -0.34023941 2.3349023 2.160812e-38
-0.031417418 -0.33858401 2.3567152 2.160812e-38
1.0313565 -0.33620235 2.3465209 2.160812e-38
1.0484098 -0.34364134 2.3338008 2.160812e-38
-0.052997865 -0.30337092 2.3293841 2.160812e-38
-0.021986812 -0.2985771 2.3463945 2.160812e-38
0.0049396195 -0.28583834 2.3558004 2.160812e-38
1.0244679 -0.30023167 2.3416085 2.160812e-38
1.0501206 -0.30353585 2.3275335 2.160812e-38
-0.043880571 -0.26771578 2.3269999 2.160812e-38
-0.019526964 -0.26028556 2.3326712 2.160812e-38
0.01027173 -0.25784847 2.3510008 2.160812e-38
1.0263579 -0.27035004 2.3460274 2.160812e-38
1.0529127 -0.27022001 2.3338573 2.160812e-38
-0.014035872 -0.22777516 2.3270009 2.160812e-38
0.019622831 -0.2197091 2.3420012 2.160812e-38
0.049426667 -0.20894001 2.3590007 2.160812e-38
0.024743691 -0.17934878 2.3322468 2.160812e-38
0.057585258 -0.1795062 2.3508773 2.160812e-38
0.083126672 -0.17524001 2.3590002 2.160812e-38
0.03213476 -0.15402526 2.3269999 2.160812e-38
0.061144266 -0.14104286 2.340507 2.160812e-38
0.091371529 -0.13634589 2.3536673 2.160812e-38
0.069889992 -0.10094105 2.3294008 2.160812e-38
0.099827066 -0.099818796 2.3477795 2.160812e-38
0.12420859 -0.092755243 2.3590002 2.160812e-38
0.075350486 -0.070918098 2.3269999 2.160812e-38
0.10151039 -0.061964571 2.3347781 2.160812e-38
0.12920927 -0.056546062 2.3575463 2.160812e-38
0.11478883 -0.025516666 2.329 2.160812e-38
0.14021195 -0.019208554 2.345078 2.160812e-38
0.1640067 -0.017973334 2.3590002 2.160812e-38
0.11745811 0.024378097 2.3270001 2.160812e-38
0.13995147 0.019975442 2.3321359 2.160812e-38
0.17432386 0.024120582 2.3503051 2.160812e-38
0.14988448 0.049106125 2.3269999 2.160812e-38
0.17956784 0.061410218 2.3425739 2.160812e-38
0.20995678 0.068264179 2.3559527 2.160812e-38
0.18360405 0.095194697 2.3308535 2.160812e-38
0.21458644 0.10218856 2.3466933 2.160812e-38
0.19597457 0.12885566 2.3270001 2.160812e-38
0.22024205 0.14017604 2.3355637 2.160812e-38
0.25628817 0.15017197 2.3536675 2.160812e-38
0.28083336 0.15502 2.3590002 2.160812e-38
0.22785129 0.17742819 2.3315227 2.160812e-38
0.25913206 0.18091993 2.3454456 2.160812e-38
0.28221598 0.18543643 2.3590007 2.160812e-38
0.23322149 0.21288468 2.3269999 2.160812e-38
0.26012498 0.21959616 2.3364656 2.160812e-38
0.28511167 0.22298943 2.3572228 2.160812e-38
0.26693493 0.25568116 2.3291345 2.160812e-38
0.2985689 0.26143086 2.3511188 2.160812e-38
0.32773253 0.26875752 2.3590007 2.160812e-38
0.27305803 0.29591978 2.3269999 2.160812e-38
0.29836118 0.29414114 2.3486676 2.160812e-38
0.32765859 0.29005647 2.3590007 2.160812e-38
-0.18329144 -0.64038861 2.3760002 2.160812e-38
-0.13350858 -0.64265144 2.3760002 2.160812e-38
-0.1040755 -0.64032209 2.3803637 2.160812e-38
-0.07803683 -0.64022607 2.386667 2.160812e-38
-0.022655241 -0.64032763 2.3800001 2.160812e-38
0.069780089 -0.64201212 2.3774545 2.160812e-38
0.10102894 -0.6427359 2.3775237 2.160812e-38
0.1316983 -0.6412937 2.3760002 2.160812e-38
0.18624508 -0.64108193 2.3800001 2.160812e-38
0.21640551 -0.6446557 2.3828568 2.160812e-38
0.30318916 -0.6403538 2.3782861 2.160812e-38
0.32585144 -0.64038861 2.3760002 2.160812e-38
0.37955049 -0.64122361 2.3808002 2.160812e-38
0.42225689 -0.6427449 2.3776841 2.160812e-38
0.46113759 -0.64704108 2.381953 2.160812e-38
0.50009125 -0.64898252 2.3843069 2.160812e-38
0.53528482 -0.64417821 2.3864346 2.160812e-38
0.58324295 -0.65017021 2.3848414 2.160812e-38
0.61849695 -0.65085965 2.3865356 2.160812e-38
0.65667403 -0.65714008 2.3881373 2.160812e-38
0.70145911 -0.65265357 2.3861215 2.160812e-38
0.74009943 -0.65111393 2.3876357 2.160812e-38
0.78247511 -0.65673333 2.3885081 2.160812e-38
0.81931961 -0.65923399 2.3826866 2.160812e-38
0.86064988 -0.66271335 2.3866661 2.160812e-38
0.89870548 -0.66008317 2.3860571 2.160812e-38
0.93716383 -0.6612789 2.3877063 2.160812e-38
0.98380691 -0.64835483 2.3857141 2.160812e-38
1.020321 -0.64370304 2.3842752 2.160812e-38
1.0584005 -0.6464045 2.3827994 2.160812e-38
1.1050887 -0.64937145 2.382 2.160812e-38
1.1259506 -0.65943164 2.3808694 2.160812e-38
-0.2013943 -0.63133717 2.3760002 2.160812e-38
-0.17039885 -0.62178677 2.3825636 2.160812e-38
-0.14028266 -0.62182993 2.3896811 2.160812e-38
-0.10057513 -0.63055873 2.3892565 2.160812e-38
-0.059712552 -0.62960827 2.388972 2.160812e-38
-0.020472379 -0.63087046 2.3878965 2.160812e-38
0.021474285 -0.62933332 2.3879993 2.160812e-38
0.063250124 -0.62926519 2.3887992 2.160812e-38
0.099881791 -0.63081461 2.3886054 2.160812e-38
0.13458739 -0.62953472 2.3883419 2.160812e-38
0.17894417 -0.63047618 2.389473 2.160812e-38
0.22171487 -0.62766135 2.3908827 2.160812e-38
0.2598893 -0.62899297 2.3863521 2.160812e-38
0.30123019 -0.63358194 2.3864613 2.160812e-38
0.33869782 -0.6302157 2.3894045 2.160812e-38
0.3812924 -0.62935805 2.3885705 2.160812e-38
0.41983327 -0.62627733 2.3886783 2.160812e-38
0.45848507 -0.62868088 2.3919992 2.160812e-38
0.49724615 -0.63186085 2.3919997 2.160812e-38
0.54087651 -0.63158041 2.3896289 2.160812e-38
0.56854749 -0.63363594 2.3920002 2.160812e-38
0.6188826 -0.63406986 2.3920002 2.160812e-38
0.68661797 -0.63376611 2.3920002 2.160812e-38
0.74949348 -0.63558859 2.3920002 2.160812e-38
0.98901892 -0.63363594 2.3920002 2.160812e-38
1.0186341 -0.63396144 2.3920002 2.160812e-38
1.0647057 -0.62663335 2.3896575 2.160812e-38
1.0905143 -0.62158662 2.3838131 2.160812e-38
-0.16352256 -0.58510387 2.3781333 2.160812e-38
-0.1398984 -0.57991213 2.3917766 2.160812e-38
-0.11618286 -0.5727132 2.3920002 2.160812e-38
1.0759776 -0.58379644 2.3864822 2.160812e-38
1.0874598 -0.57893306 2.3813329 2.160812e-38
-0.16066287 -0.55892575 2.3760002 2.160812e-38
-0.13403118 -0.54835498 2.3795552 2.160812e-38
-0.10685985 -0.53419441 2.3877325 2.160812e-38
1.0695266 -0.53849465 2.3919992 2.160812e-38
1.0914594 -0.54068756 2.389713 2.160812e-38
-0.12445715 -0.51065147 2.3760002 2.160812e-38
-0.10173111 -0.50065356 2.3816347 2.160812e-38
-0.069938399 -0.49149618 2.3903444 2.160812e-38
1.0658146 -0.49545649 2.3883631 2.160812e-38
1.0870506 -0.51225567 2.3847275 2.160812e-38
-0.09353143 -0.47482285 2.3759999 2.160812e-38
-0.063683532 -0.45931903 2.3851426 2.160812e-38
1.0628541 -0.45904872 2.3844941 2.160812e-38
1.0839087 -0.44917718 2.3760002 2.160812e-38
-0.057937972 -0.42353472 2.3862853 2.160812e-38
-0.027413666 -0.40952417 2.3906081 2.160812e-38
0.0034171431 -0.40664002 2.3920002 2.160812e-38
1.0325847 -0.41263908 2.3920004 2.160812e-38
1.0509495 -0.42199966 2.3816137 2.160812e-38
1.0839087 -0.43673146 2.3760002 2.160812e-38
-0.044599369 -0.39538035 2.3813338 2.160812e-38
-0.018713171 -0.38239625 2.3870339 2.160812e-38
0.00501181 -0.37041831 2.3920002 2.160812e-38
1.0314735 -0.37944135 2.3878965 2.160812e-38
1.0423391 -0.38732955 2.3853335 2.160812e-38
-0.014306742 -0.34179562 2.3779194 2.160812e-38
0.012299003 -0.3374123 2.3898659 2.160812e-38
1.0231203 -0.34116718 2.3858714 2.160812e-38
-0.0048489803 -0.3145372 2.3760004 2.160812e-38
0.02124537 -0.30040246 2.3878782 2.160812e-38
0.048852492 -0.28881186 2.392 2.160812e-38
1.0098143 -0.29817337 2.3876657 2.160812e-38
0.030065745 -0.26140815 2.3805125 2.160812e-38
0.053742349 -0.26032418 2.391999 2.160812e-38
1.0148972 -0.27143049 2.3800001 2.160812e-38
0.036658287 -0.23397945 2.3760002 2.160812e-38
0.060816161 -0.22111242 2.3855989 2.160812e-38
0.084289528 -0.20275049 2.3920002 2.160812e-38
0.074311353 -0.18629196 2.3774545 2.160812e-38
0.097360656 -0.17742334 2.3853576 2.160812e-38
0.12871239 -0.16345336 2.3920002 2.160812e-38
0.10722654 -0.14334868 2.3798785 2.160812e-38
0.13125025 -0.13985641 2.3916435 2.160812e-38
0.11766858 -0.11766858 2.3760002 2.160812e-38
0.14206421 -0.10070885 2.3877137 2.160812e-38
0.16364321 -0.09605968 2.3920002 2.160812e-38
0.14479481 -0.062938809 2.3769596 2.160812e-38
0.17107005 -0.056642544 2.3883066 2.160812e-38
0.15010288 -0.038468577 2.3760002 2.160812e-38
0.18323612 -0.020997982 2.3831384 2.160812e-38
0.20831914 -0.011643597 2.392 2.160812e-38
0.18965979 0.013231356 2.3772304 2.160812e-38
0.21300347 0.023455482 2.387233 2.160812e-38
0.19536 0.044502866 2.3760002 2.160812e-38
0.22513552 0.057472724 2.3822217 2.160812e-38
0.24458461 0.05943758 2.3920002 2.160812e-38
0.23392382 0.097677715 2.3799999 2.160812e-38
0.2554073 0.10370126 2.388999 2.160812e-38
0.26208726 0.13271134 2.3838043 2.160812e-38
0.29211658 0.1427007 2.3896463 2.160812e-38
0.75632769 0.15491049 2.3920002 2.160812e-38
0.30258548 0.17983209 2.3880694 2.160812e-38
0.32753944 0.18882878 2.392 2.160812e-38
0.30574307 0.21975128 2.3826408 2.160812e-38
0.33297598 0.2242922 2.3912549 2.160812e-38
0.31252575 0.24514286 2.3760002 2.160812e-38
0.34267247 0.25873378 2.3850558 2.160812e-38
0.36403966 0.2720046 2.3920002 2.160812e-38
0.34823483 0.28985056 2.3788233 2.160812e-38
0.37132952 0.28951621 2.3919997 2.160812e-38
0.41005716 0.2915962 2.3920002 2.160812e-38
0.59116101 -0.64316481 2.4090002 2.160812e-38
0.61945719 -0.64194119 2.4090002 2.160812e-38
0.65994453 -0.64685351 2.4089994 2.160812e-38
0.69853354 -0.64469427 2.4090002 2.160812e-38
0.73187715 -0.64125288 2.4090002 2.160812e-38
0.78481007 -0.64289433 2.4118338 2.160812e-38
0.81760389 -0.64308476 2.4112175 2.160812e-38
0.86089247 -0.64916295 2.4098489 2.160812e-38
0.89314139 -0.64390343 2.4139585 2.160812e-38
0.9382354 -0.64737105 2.4089994 2.160812e-38
0.974042 -0.64638084 2.4115188 2.160812e-38
-0.12618573 -0.61007154 2.4090004 2.160812e-38
-0.097710326 -0.61344701 2.4103317 2.160812e-38
-0.060781036 -0.61258799 2.4126654 2.160812e-38
-0.020842241 -0.61290932 2.4122798 2.160812e-38
0.021343691 -0.6123296 2.4129462 2.160812e-38
0.058214664 -0.61163342 2.4128947 2.160812e-38
0.099318251 -0.61524415 2.4114275 2.160812e-38
0.14326321 -0.61471224 2.4128087 2.160812e-38
0.17955244 -0.61467814 2.4108877 2.160812e-38
0.21661219 -0.61442345 2.4180307 2.160812e-38
0.2635856 -0.61818737 2.4187143 2.160812e-38
0.29935318 -0.61746222 2.4148343 2.160812e-38
0.34012598 -0.61402506 2.4147873 2.160812e-38
0.37931088 -0.6124469 2.4153738 2.160812e-38
0.4194994 -0.60885018 2.4139211 2.160812e-38
0.45920196 -0.61619276 2.4142616 2.160812e-38
0.50146633 -0.61988175 2.413434 2.160812e-38
0.54055411 -0.62035447 2.4142613 2.160812e-38
0.57889062 -0.626876 2.4154322 2.160812e-38
0.61927229 -0.62835658 2.4172814 2.160812e-38
0.65786773 -0.63204437 2.4197671 2.160812e-38
0.69852918 -0.6271168 2.4169571 2.160812e-38
0.74060279 -0.63045073 2.4155006 2.160812e-38
0.77231228 -0.63217902 2.4190004 2.160812e-38
0.82529241 -0.63197756 2.4138572 2.160812e-38
0.8544355 -0.63005459 2.412864 2.160812e-38
0.90335566 -0.63223863 2.4178696 2.160812e-38
0.9394629 -0.63313699 2.4182081 2.160812e-38
0.98301631 -0.63002747 2.416893 2.160812e-38
1.017083 -0.62589592 2.416224 2.160812e-38
1.062427 -0.61720645 2.4125578 2.160812e-38
1.0806086 -0.62404573 2.4090002 2.160812e-38
-0.12503858 -0.59766144 2.4090002 2.160812e-38
-0.097648695 -0.58090585 2.410861 2.160812e-38
-0.063670702 -0.58005524 2.4226003 2.160812e-38
-0.013854763 -0.59847927 2.423167 2.160812e-38
0.013854763 -0.59847927 2.423167 2.160812e-38
0.051985718 -0.59841335 2.4260001 2.160812e-38
0.14556001 -0.59841335 2.4260001 2.160812e-38
0.30267242 -0.59841335 2.4260001 2.160812e-38
0.42028922 -0.59854513 2.4203334 2.160812e-38
1.0699309 -0.578664 2.4174998 2.160812e-38
1.0806086 -0.5666886 2.4090002 2.160812e-38
-0.089620531 -0.54661357 2.4089997 2.160812e-38
-0.063785136 -0.53913748 2.4130168 2.160812e-38
1.0374038 -0.52909905 2.4260001 2.160812e-38
1.0577784 -0.53713191 2.4116368 2.160812e-38
1.0851972 -0.54374576 2.4090002 2.160812e-38
-0.080300003 -0.51621431 2.4090002 2.160812e-38
-0.055151194 -0.50481784 2.4106579 2.160812e-38
-0.028450422 -0.4960264 2.4200268 2.160812e-38
1.0393115 -0.49786004 2.4090002 2.160812e-38
1.0487269 -0.50414574 2.4135942 2.160812e-38
-0.044509154 -0.46344572 2.4090002 2.160812e-38
-0.021349566 -0.4595376 2.4163802 2.160812e-38
0.0023104763 -0.44361144 2.4260001 2.160812e-38
1.0326782 -0.461656 2.4189785 2.160812e-38
1.045975 -0.46156597 2.4098949 2.160812e-38
-0.043591432 -0.43820858 2.4090002 2.160812e-38
-0.018105483 -0.42542157 2.4116437 2.160812e-38
0.013083442 -0.41542876 2.4129233 2.160812e-38
1.0225753 -0.41983292 2.4193106 2.160812e-38
1.0454296 -0.43667907 2.4090002 2.160812e-38
-0.0022942859 -0.39002857 2.4090002 2.160812e-38
0.019680126 -0.37891337 2.4165237 2.160812e-38
0.046671625 -0.37106252 2.4260004 2.160812e-38
1.0218962 -0.38248128 2.4211957 2.160812e-38
0.032717895 -0.34179875 2.411931 2.160812e-38
0.055825863 -0.3351953 2.4238212 2.160812e-38
0.99085379 -0.33028975 2.4178693 2.160812e-38
1.0116456 -0.34264526 2.4144995 2.160812e-38
0.039002858 -0.31431717 2.4090002 2.160812e-38
0.062239349 -0.30327275 2.4158716 2.160812e-38
0.086199269 -0.29362077 2.4230001 2.160812e-38
0.98864311 -0.30098411 2.4170518 2.160812e-38
1.0037501 -0.29749244 2.4090004 2.160812e-38
0.071721382 -0.25765833 2.4090002 2.160812e-38
0.096814983 -0.25954112 2.4207313 2.160812e-38
0.98120368 -0.2724537 2.4229646 2.160812e-38
0.074181907 -0.2309581 2.4090004 2.160812e-38
0.099762172 -0.22118369 2.4109983 2.160812e-38
0.13421705 -0.20876847 2.4254136 2.160812e-38
0.11270678 -0.18956536 2.4090002 2.160812e-38
0.14043979 -0.18066537 2.4143822 2.160812e-38
0.16404381 -0.16404381 2.4260001 2.160812e-38
0.15204856 -0.14022949 2.4089997 2.160812e-38
0.17217664 -0.13666429 2.4188418 2.160812e-38
0.15830572 -0.11471429 2.4090002 2.160812e-38
0.18048626 -0.098670557 2.4145429 2.160812e-38
0.21326701 -0.086492181 2.4259996 2.160812e-38
0.18898171 -0.063580923 2.4094994 2.160812e-38
0.21550785 -0.061455499 2.4189167 2.160812e-38
0.22279666 -0.022605343 2.4136038 2.160812e-38
0.24548809 -0.0075090476 2.4260004 2.160812e-38
0.23025449 0.014958739 2.4090002 2.160812e-38
0.25478598 0.025524635 2.4195397 2.160812e-38
0.26513523 0.060161635 2.4159255 2.160812e-38
0.28894785 0.065759644 2.4251053 2.160812e-38
0.26903105 0.08991354 2.4110401 2.160812e-38
0.29573798 0.099965274 2.4160337 2.160812e-38
0.27760857 0.12389144 2.4090002 2.160812e-38
0.30609 0.1351665 2.4131212 2.160812e-38
0.32404429 0.14960334 2.4260004 2.160812e-38
0.3173762 0.16442382 2.4090002 2.160812e-38
0.34235355 0.17931049 2.4158716 2.160812e-38
0.36274478 0.1883038 2.4260001 2.160812e-38
0.34940031 0.21520036 2.411931 2.160812e-38
0.37417912 0.22745962 2.4229093 2.160812e-38
0.38136205 0.25869584 2.4156513 2.160812e-38
0.41254833 0.2726362 2.4259999 2.160812e-38
0.39048743 0.28540918 2.4090002 2.160812e-38
0.41509232 0.286244 2.4108891 2.160812e-38
0.81765717 -0.64428568 2.46 2.160812e-38
-0.028385336 -0.60353738 2.4430001 2.160812e-38
0.02333143 -0.60236055 2.4515002 2.160812e-38
0.068636663 -0.60260665 2.4430001 2.160812e-38
0.10159404 -0.60526818 2.4501925 2.160812e-38
0.1398685 -0.60403746 2.4472504 2.160812e-38
0.18119319 -0.60476416 2.448885 2.160812e-38
0.22184998 -0.60649085 2.4466431 2.160812e-38
0.25933024 -0.60830098 2.4508109 2.160812e-38
0.30052164 -0.60368568 2.4486668 2.160812e-38
0.33921653 -0.60397315 2.4493752 2.160812e-38
0.3793861 -0.60237503 2.4510002 2.160812e-38
0.42212126 -0.6023795 2.4508467 2.160812e-38
0.46180126 -0.60508645 2.4574518 2.160812e-38
0.49904278 -0.60739887 2.4551218 2.160812e-38
0.54150492 -0.60773635 2.4551215 2.160812e-38
0.58155018 -0.6117534 2.452755 2.160812e-38
0.62087703 -0.61274099 2.4563837 2.160812e-38
0.66212326 -0.61496937 2.4592938 2.160812e-38
0.69828951 -0.61132753 2.4608903 2.160812e-38
0.74052954 -0.61485469 2.4616551 2.160812e-38
0.78019899 -0.61705369 2.4609859 2.160812e-38
0.82005978 -0.61907458 2.4669421 2.160812e-38
0.85910094 -0.61774951 2.4639864 2.160812e-38
0.89849794 -0.6187768 2.4621305 2.160812e-38
0.94062787 -0.61743855 2.4633913 2.160812e-38
0.97860962 -0.61605245 2.4575391 2.160812e-38
1.0170518 -0.61125785 2.4618132 2.160812e-38
1.0561725 -0.61628389 2.4654453 2.160812e-38
-0.047928933 -0.58487988 2.4456844 2.160812e-38
-0.020524852 -0.58267659 2.4618709 2.160812e-38
0.019739063 -0.58686322 2.4668593 2.160812e-38
0.060062658 -0.58859885 2.4648271 2.160812e-38
0.098100021 -0.59141368 2.4683897 2.160812e-38
0.14166094 -0.58497036 2.4666357 2.160812e-38
0.17959552 -0.58536744 2.4672334 2.160812e-38
0.22013071 -0.58686578 2.4684837 2.160812e-38
0.25822794 -0.58639061 2.4685082 2.160812e-38
0.29888502 -0.59190995 2.4684646 2.160812e-38
0.34080708 -0.59236944 2.4707997 2.160812e-38
0.3793883 -0.58725494 2.4738154 2.160812e-38
0.41922247 -0.58788896 2.4705651 2.160812e-38
0.45922482 -0.58775759 2.4768965 2.160812e-38
0.50253046 -0.58917415 2.4733033 2.160812e-38
0.5386073 -0.58637059 2.473124 2.160812e-38
0.58238512 -0.59206635 2.4729993 2.160812e-38
0.6179834 -0.59226501 2.4750967 2.160812e-38
0.65560812 -0.59566402 2.4780004 2.160812e-38
0.68912005 -0.59707999 2.4780002 2.160812e-38
0.74661827 -0.59064364 2.4780006 2.160812e-38
0.77576584 -0.59258461 2.4780004 2.160812e-38
0.81862503 -0.59472007 2.4780004 2.160812e-38
0.85038674 -0.59629333 2.4780004 2.160812e-38
0.90860009 -0.59707999 2.4780002 2.160812e-38
0.94298869 -0.59472013 2.4780004 2.160812e-38
0.97693282 -0.59387773 2.4771824 2.160812e-38
1.0241696 -0.58782297 2.474926 2.160812e-38
1.054548 -0.58166832 2.4585888 2.160812e-38
-0.046145566 -0.54366446 2.4430003 2.160812e-38
-0.021092111 -0.54108661 2.4570003 2.160812e-38
0.018065296 -0.53757817 2.476228 2.160812e-38
1.0275358 -0.53638607 2.4671011 2.160812e-38
1.0480851 -0.54617846 2.4521003 2.160812e-38
-0.010716699 -0.50505996 2.4475338 2.160812e-38
0.019480841 -0.49866405 2.4690299 2.160812e-38
0.052526854 -0.49580231 2.4779994 2.160812e-38
0.99356008 -0.48380002 2.4780002 2.160812e-38
1.0217901 -0.49908406 2.4621785 2.160812e-38
1.0423715 -0.50398988 2.4448893 2.160812e-38
-0.0023266666 -0.47464001 2.4430001 2.160812e-38
0.021891162 -0.46105185 2.4569061 2.160812e-38
0.058392476 -0.45863977 2.4723148 2.160812e-38
0.091365717 -0.44401717 2.4780004 2.160812e-38
0.99301547 -0.45947397 2.4780004 2.160812e-38
1.0142086 -0.45983717 2.4552109 2.160812e-38
1.04002 -0.44904667 2.4430001 2.160812e-38
-0.0023266666 -0.43508667 2.4430001 2.160812e-38
0.028127166 -0.42522904 2.4494765 2.160812e-38
0.060710896 -0.41901597 2.4679093 2.160812e-38
0.095336497 -0.41958168 2.4769399 2.160812e-38
0.98525727 -0.41752991 2.4711738 2.160812e-38
1.0078652 -0.42329332 2.4493258 2.160812e-38
0.033504002 -0.39413732 2.4430003 2.160812e-38
0.064011253 -0.38032132 2.4568264 2.160812e-38
0.098888226 -0.38052547 2.4734988 2.160812e-38
0.12567002 -0.36462003 2.4780004 2.160812e-38
0.98207688 -0.37926313 2.4660728 2.160812e-38
1.0130718 -0.37986457 2.4492197 2.160812e-38
0.068254858 -0.34833577 2.4489133 2.160812e-38
0.098858841 -0.33994913 2.4606183 2.160812e-38
0.12791203 -0.34031206 2.4779999 2.160812e-38
0.95265335 -0.33013779 2.4780004 2.160812e-38
0.97857326 -0.34047884 2.464649 2.160812e-38
1.0087382 -0.35424316 2.4524448 2.160812e-38
0.073677778 -0.30944669 2.4430003 2.160812e-38
0.10459775 -0.30282259 2.4506669 2.160812e-38
0.14057527 -0.29879832 2.4770677 2.160812e-38
0.16850404 -0.29169604 2.4780004 2.160812e-38
0.94681877 -0.29810366 2.473999 2.160812e-38
0.97203326 -0.30076784 2.4559996 2.160812e-38
0.11691499 -0.266985 2.4430001 2.160812e-38
0.14046904 -0.25974861 2.4596114 2.160812e-38
0.17294188 -0.25777256 2.47756 2.160812e-38
0.94172829 -0.2663905 2.4630394 2.160812e-38
0.96898627 -0.26674423 2.4559197 2.160812e-38
0.14265975 -0.22700796 2.4489732 2.160812e-38
0.17804922 -0.22011431 2.4687891 2.160812e-38
0.20886004 -0.208388 2.4780004 2.160812e-38
0.18160576 -0.1809257 2.4554508 2.160812e-38
0.21442813 -0.17696221 2.4755671 2.160812e-38
0.89680004 -0.17936 2.4780002 2.160812e-38
0.19126894 -0.14362858 2.4490716 2.160812e-38
0.22112121 -0.14006418 2.4704213 2.160812e-38
0.24780002 -0.1281143 2.4780004 2.160812e-38
0.19565153 -0.10808425 2.4430003 2.160812e-38
0.22183089 -0.1052845 2.4538162 2.160812e-38
0.25603071 -0.096339777 2.4721291 2.160812e-38
0.2832 -0.086139999 2.4780002 2.160812e-38
0.23586583 -0.059330005 2.4430003 2.160812e-38
0.2604717 -0.060336463 2.4667115 2.160812e-38
0.28625986 -0.05851946 2.4762862 2.160812e-38
0.23809557 -0.032573335 2.4430001 2.160812e-38
0.26343855 -0.022734981 2.453891 2.160812e-38
0.29611608 -0.016144762 2.469599 2.160812e-38
0.32332003 -0.0047200001 2.4780002 2.160812e-38
0.26939201 0.012215676 2.4437089 2.160812e-38
0.30052203 0.020604258 2.4610145 2.160812e-38
0.33442956 0.022729477 2.47756 2.160812e-38
0.3058424 0.058161806 2.4483688 2.160812e-38
0.33763593 0.059570443 2.4687183 2.160812e-38
0.77880001 0.075520001 2.4780002 2.160812e-38
0.31642663 0.096556678 2.4430003 2.160812e-38
0.33921051 0.10023134 2.4620314 2.160812e-38
0.36926138 0.10903202 2.4780004 2.160812e-38
0.77719396 0.091463223 2.4701252 2.160812e-38
0.31875333 0.12331334 2.4430001 2.160812e-38
0.34270456 0.13927238 2.4536788 2.160812e-38
0.37928751 0.13817926 2.4653652 2.160812e-38
0.40727454 0.14176692 2.4742503 2.160812e-38
0.77473301 0.14110586 2.4680004 2.160812e-38
0.34988725 0.16300631 2.4451251 2.160812e-38
0.38097167 0.17859253 2.4539676 2.160812e-38
0.41754988 0.18101868 2.4753802 2.160812e-38
0.44469148 0.19048573 2.4780004 2.160812e-38
0.77486676 0.16441335 2.4780002 2.160812e-38
0.38549569 0.21472961 2.4448893 2.160812e-38
0.41967443 0.2183812 2.467557 2.160812e-38
0.45513675 0.22291271 2.4779985 2.160812e-38
0.75638002 0.21358001 2.4780002 2.160812e-38
0.76430291 0.20801716 2.4780004 2.160812e-38
0.39786002 0.24895333 2.4430001 2.160812e-38
0.42442137 0.25742272 2.45118 2.160812e-38
0.46086842 0.25983331 2.4741809 2.160812e-38
0.48779386 0.26740617 2.4780004 2.160812e-38
0.73779505 0.25783002 2.4780004 2.160812e-38
0.43974003 0.28618002 2.4430003 2.160812e-38
0.46398821 0.2890718 2.4689996 2.160812e-38
0.49212945 0.28722593 2.4780004 2.160812e-38
0.70891756 0.29388666 2.4621665 2.160812e-38
0.70046484 -0.60141718 2.4960003 2.160812e-38
0.7266134 -0.60775626 2.4960003 2.160812e-38
0.87558097 -0.60300195 2.4960001 2.160812e-38
0.89824963 -0.6033352 2.5039999 2.160812e-38
0.93184006 -0.61092573 2.4960001 2.160812e-38
0.02222112 -0.56958401 2.4959993 2.160812e-38
0.055682078 -0.57163143 2.5025454 2.160812e-38
0.10378346 -0.57685483 2.504308 2.160812e-38
0.13406678 -0.57189041 2.5027502 2.160812e-38
0.17861323 -0.57032961 2.5066364 2.160812e-38
0.22046508 -0.5733918 2.5071425 2.160812e-38
0.26056921 -0.57292891 2.5061736 2.160812e-38
0.30021098 -0.57792073 2.5059476 2.160812e-38
0.33811906 -0.58185929 2.5026 2.160812e-38
0.38235229 -0.56890529 2.5024285 2.160812e-38
0.41921869 -0.57209361 2.5060585 2.160812e-38
0.4623476 -0.57360518 2.5034995 2.160812e-38
0.49994883 -0.57441539 2.5039413 2.160812e-38
0.53910834 -0.5735451 2.5017269 2.160812e-38
0.57756054 -0.58252901 2.5046084 2.160812e-38
0.62134135 -0.58502084 2.5050001 2.160812e-38
0.66307974 -0.58858669 2.5067999 2.160812e-38
0.69849139 -0.58988482 2.506 2.160812e-38
0.73655444 -0.58775353 2.5065 2.160812e-38
0.78245193 -0.58461338 2.5039198 2.160812e-38
0.82068288 -0.58842796 2.5027499 2.160812e-38
0.85924941 -0.59269226 2.5035787 2.160812e-38
0.90260816 -0.59291661 2.5100002 2.160812e-38
0.93714672 -0.59019703 2.5056002 2.160812e-38
0.98130703 -0.58674979 2.5089598 2.160812e-38
1.0232059 -0.57870054 2.5023527 2.160812e-38
0.028525716 -0.55862856 2.4960001 2.160812e-38
0.056702111 -0.53804505 2.5095851 2.160812e-38
0.099362865 -0.54230577 2.5140002 2.160812e-38
0.13559428 -0.55673945 2.5068002 2.160812e-38
0.16281144 -0.5578686 2.5140002 2.160812e-38
0.99602306 -0.52913719 2.5140002 2.160812e-38
1.0137038 -0.54052907 2.5056589 2.160812e-38
0.068809584 -0.50519443 2.5018058 2.160812e-38
0.088987619 -0.49661481 2.5140002 2.160812e-38
0.98839265 -0.49772617 2.5065 2.160812e-38
1.0076102 -0.50707513 2.5017266 2.160812e-38
0.076657146 -0.46564803 2.4996002 2.160812e-38
0.096222863 -0.46021998 2.506125 2.160812e-38
0.98429573 -0.46155563 2.5058186 2.160812e-38
0.11478204 -0.42279184 2.4960001 2.160812e-38
0.12565759 -0.41339481 2.5112312 2.160812e-38
0.95532006 -0.40702862 2.5140002 2.160812e-38
0.97053039 -0.42177719 2.503875 2.160812e-38
0.11648 -0.39698285 2.4960001 2.160812e-38
0.13886924 -0.38205916 2.5036159 2.160812e-38
0.16041717 -0.37111431 2.5140004 2.160812e-38
0.95414656 -0.37749508 2.5058179 2.160812e-38
0.96391827 -0.38434765 2.501684 2.160812e-38
0.14737885 -0.33941874 2.496973 2.160812e-38
0.17311397 -0.33339104 2.5129092 2.160812e-38
0.94744778 -0.33922461 2.5050001 2.160812e-38
0.9659124 -0.35102478 2.4960001 2.160812e-38
0.15356342 -0.31520915 2.4960001 2.160812e-38
0.18520103 -0.30229414 2.5084617 2.160812e-38
0.93387538 -0.30142578 2.5067999 2.160812e-38
0.19256596 -0.26295406 2.5017269 2.160812e-38
0.20698431 -0.25005862 2.5125 2.160812e-38
0.91293198 -0.25167793 2.5123637 2.160812e-38
0.93081516 -0.2564525 2.5074999 2.160812e-38
0.19730285 -0.23295999 2.4960001 2.160812e-38
0.22302869 -0.22290248 2.5050004 2.160812e-38
0.24182288 -0.21149527 2.5140004 2.160812e-38
0.87870288 -0.21309145 2.5140002 2.160812e-38
0.89838833 -0.22048101 2.5093715 2.160812e-38
0.92692012 -0.23590288 2.5020003 2.160812e-38
0.23075975 -0.18519156 2.4978943 2.160812e-38
0.2503373 -0.17734304 2.5102942 2.160812e-38
0.89833951 -0.18698524 2.5065 2.160812e-38
0.26069432 -0.14220572 2.5017278 2.160812e-38
0.2823081 -0.13299169 2.5140002 2.160812e-38
0.27081147 -0.10806859 2.4960003 2.160812e-38
0.29751444 -0.097445592 2.5067143 2.160812e-38
0.30601707 -0.06109168 2.5036006 2.160812e-38
0.334934 -0.042299047 2.5140002 2.160812e-38
0.31137526 -0.028114291 2.5007999 2.160812e-38
0.33809534 -0.019618545 2.5075474 2.160812e-38
0.36393145 -0.0023942858 2.5140002 2.160812e-38
0.34990966 0.014152925 2.4977138 2.160812e-38
0.36913458 0.020878445 2.5123637 2.160812e-38
0.35815617 0.050712384 2.4960003 2.160812e-38
0.38125166 0.061152373 2.5080016 2.160812e-38
0.40654975 0.072307438 2.5140002 2.160812e-38
0.78532577 0.074222863 2.5140002 2.160812e-38
0.38382852 0.096997097 2.5018783 2.160812e-38
0.41372544 0.1037529 2.5086486 2.160812e-38
0.77826917 0.10248376 2.5077391 2.160812e-38
0.42778727 0.14060387 2.5047572 2.160812e-38
0.45035189 0.15067838 2.5114286 2.160812e-38
0.77574134 0.13530077 2.5041816 2.160812e-38
0.43607366 0.16930537 2.4960001 2.160812e-38
0.4616659 0.1785357 2.5060387 2.160812e-38
0.48547661 0.18633178 2.5140002 2.160812e-38
0.75898862 0.17238858 2.5140002 2.160812e-38
0.77319145 0.17349693 2.5063844 2.160812e-38
0.470918 0.21065103 2.4972856 2.160812e-38
0.49450085 0.22189632 2.5095003 2.160812e-38
0.75227869 0.22746722 2.5114286 2.160812e-38
0.76636457 0.21534057 2.5068002 2.160812e-38
0.50293428 0.25879449 2.5026979 2.160812e-38
0.52859765 0.27006149 2.5095 2.160812e-38
0.73456401 0.25554404 2.5065 2.160812e-38
0.46928 0.30407429 2.5140002 2.160812e-38
0.51108575 0.2857326 2.4960001 2.160812e-38
0.53070641 0.28544131 2.5056925 2.160812e-38
0.70070595 0.29340386 2.5020001 2.160812e-38
0.72626674 0.28412193 2.5140002 2.160812e-38
0.74030858 -0.6149143 2.5320001 2.160812e-38
0.9669829 -0.60044575 2.5320001 2.160812e-38
0.07234285 -0.5690971 2.5320001 2.160812e-38
0.096189223 -0.5669536 2.5320003 2.160812e-38
0.15192001 -0.56306857 2.5320001 2.160812e-38
0.18492988 -0.56467581 2.5390005 2.160812e-38
0.21782497 -0.56558871 2.5369031 2.160812e-38
0.26269147 -0.56513411 2.5344784 2.160812e-38
0.29782578 -0.56622422 2.5342803 2.160812e-38
0.34150621 -0.56945574 2.5364182 2.160812e-38
0.37343755 -0.56582463 2.5350006 2.160812e-38
0.41993305 -0.5639298 2.5320001 2.160812e-38
0.460264 -0.56508887 2.5364335 2.160812e-38
0.49951014 -0.56536162 2.5408211 2.160812e-38
0.54325867 -0.5664171 2.5342803 2.160812e-38
0.5798772 -0.56856 2.5357063 2.160812e-38
0.62008923 -0.57149148 2.5375683 2.160812e-38
0.65982932 -0.57131791 2.5378156 2.160812e-38
0.69967383 -0.57124019 2.540359 2.160812e-38
0.73839343 -0.571343 2.5370188 2.160812e-38
0.78052408 -0.57158822 2.5439305 2.160812e-38
0.82095629 -0.57506001 2.5421336 2.160812e-38
0.8597405 -0.57817256 2.5414994 2.160812e-38
0.89931852 -0.57976866 2.5455201 2.160812e-38
0.94178236 -0.57601792 2.5426407 2.160812e-38
0.97771049 -0.57336891 2.5358772 2.160812e-38
1.0159616 -0.5754739 2.5319993 2.160812e-38
0.071786381 -0.55110419 2.5319998 2.160812e-38
0.10325325 -0.54151326 2.5409055 2.160812e-38
0.13983811 -0.54146892 2.5475452 2.160812e-38
0.1700598 -0.55070102 2.5450001 2.160812e-38
0.22378609 -0.55090618 2.5482857 2.160812e-38
0.2564413 -0.5503701 2.5477433 2.160812e-38
0.30227202 -0.54991788 2.5450289 2.160812e-38
0.33822548 -0.55061412 2.5469289 2.160812e-38
0.38012373 -0.55316228 2.5435357 2.160812e-38
0.4205344 -0.5505017 2.5459034 2.160812e-38
0.45439127 -0.54976588 2.5501361 2.160812e-38
0.50365096 -0.55054355 2.5496893 2.160812e-38
0.53678775 -0.55258065 2.5460744 2.160812e-38
0.5736376 -0.55528122 2.5510004 2.160812e-38
0.62067199 -0.55407435 2.5510001 2.160812e-38
0.65802717 -0.55449206 2.5510006 2.160812e-38
0.70345765 -0.55459404 2.5510006 2.160812e-38
0.74070108 -0.55362779 2.5510001 2.160812e-38
0.76432818 -0.55004418 2.5510004 2.160812e-38
0.95723236 -0.55636096 2.5510001 2.160812e-38
0.98142892 -0.54102409 2.5409229 2.160812e-38
1.0042505 -0.54914808 2.5319998 2.160812e-38
0.10686436 -0.50183111 2.5319998 2.160812e-38
0.14089747 -0.50042337 2.5506933 2.160812e-38
0.16581501 -0.48954907 2.5510004 2.160812e-38
0.95568633 -0.49451861 2.5510006 2.160812e-38
0.97449344 -0.50169247 2.5390785 2.160812e-38
1.0248572 -0.51604569 2.5320001 2.160812e-38
0.11220236 -0.47107965 2.5320001 2.160812e-38
0.14041801 -0.46110407 2.5463223 2.160812e-38
0.16736719 -0.45594063 2.5509999 2.160812e-38
0.95275623 -0.46225956 2.5504065 2.160812e-38
0.96992165 -0.46095264 2.5357995 2.160812e-38
0.14451489 -0.42321888 2.5353777 2.160812e-38
0.17763133 -0.42092535 2.5452034 2.160812e-38
0.91398686 -0.40475869 2.5510004 2.160812e-38
0.9438386 -0.41779608 2.5476952 2.160812e-38
0.96646261 -0.42912379 2.5333571 2.160812e-38
0.15674286 -0.39306289 2.5320001 2.160812e-38
0.17832018 -0.37967664 2.5386856 2.160812e-38
0.21379809 -0.36361873 2.5510004 2.160812e-38
0.90789557 -0.36901212 2.55 2.160812e-38
0.93789768 -0.38051909 2.5385966 2.160812e-38
0.18364373 -0.34985414 2.5334077 2.160812e-38
0.21834634 -0.33963031 2.5471401 2.160812e-38
0.24364655 -0.33492723 2.5510004 2.160812e-38
0.90702945 -0.34153655 2.5472684 2.160812e-38
0.93227214 -0.34172869 2.5343745 2.160812e-38
0.19050285 -0.30142856 2.5320001 2.160812e-38
0.21879961 -0.30079055 2.5425897 2.160812e-38
0.24612945 -0.30070028 2.5509996 2.160812e-38
0.90725195 -0.29891607 2.5435357 2.160812e-38
0.92652696 -0.30188224 2.5338099 2.160812e-38
0.22406603 -0.26176313 2.5319991 2.160812e-38
0.26032722 -0.26040414 2.5486612 2.160812e-38
0.28425428 -0.2526705 2.5510001 2.160812e-38
0.87645072 -0.25327787 2.5510004 2.160812e-38
0.89710921 -0.26040763 2.538161 2.160812e-38
0.92625648 -0.26552507 2.5319998 2.160812e-38
0.23149714 -0.23873143 2.5320001 2.160812e-38
0.26171142 -0.21950893 2.5397182 2.160812e-38
0.29884782 -0.21101521 2.5499449 2.160812e-38
0.32798573 -0.21379811 2.5510001 2.160812e-38
0.87441874 -0.21593122 2.5473809 2.160812e-38
0.89488697 -0.21979122 2.5346508 2.160812e-38
0.27076897 -0.18051268 2.5320005 2.160812e-38
0.3001343 -0.17929977 2.5434601 2.160812e-38
0.32312667 -0.18707334 2.5510001 2.160812e-38
0.87090456 -0.18069853 2.5463939 2.160812e-38
0.89306784 -0.17840797 2.5375414 2.160812e-38
0.27731428 -0.15433143 2.5320001 2.160812e-38
0.30281228 -0.14144607 2.5380936 2.160812e-38
0.33615819 -0.13640955 2.5492737 2.160812e-38
0.36199906 -0.12390573 2.5510001 2.160812e-38
0.83656609 -0.13119429 2.5510004 2.160812e-38
0.86174548 -0.13791877 2.5434654 2.160812e-38
0.88871974 -0.15451773 2.5510004 2.160812e-38
0.30592993 -0.1139802 2.5320001 2.160812e-38
0.34015605 -0.10100579 2.5428145 2.160812e-38
0.36953905 -0.093578562 2.5509999 2.160812e-38
0.83314669 -0.09817075 2.5509996 2.160812e-38
0.85219646 -0.1057867 2.5441794 2.160812e-38
0.34069213 -0.061661236 2.535053 2.160812e-38
0.37568277 -0.058475234 2.5490217 2.160812e-38
0.79931343 -0.049400322 2.5510001 2.160812e-38
0.81927592 -0.059408545 2.5465539 2.160812e-38
0.84304476 -0.072885714 2.5510001 2.160812e-38
0.35861388 -0.023769798 2.5320001 2.160812e-38
0.38075078 -0.019686515 2.5409815 2.160812e-38
0.41169384 -0.01015983 2.5509999 2.160812e-38
0.81305462 -0.019211566 2.5452561 2.160812e-38
0.38863102 0.017271042 2.5319998 2.160812e-38
0.41765335 0.020635124 2.5441601 2.160812e-38
0.79056722 0.023809336 2.5510004 2.160812e-38
0.81194687 0.0053449529 2.5510004 2.160812e-38
0.39306286 0.043405715 2.5320001 2.160812e-38
0.4228338 0.058803111 2.5345328 2.160812e-38
0.45586225 0.061340123 2.5493119 2.160812e-38
0.78396624 0.059487641 2.5472753 2.160812e-38
0.8041724 0.065597147 2.5510001 2.160812e-38
0.4311634 0.095733725 2.5320003 2.160812e-38
0.46008372 0.099480964 2.541086 2.160812e-38
0.48524222 0.10711992 2.5510006 2.160812e-38
0.75494856 0.10222349 2.5488892 2.160812e-38
0.76848012 0.10087546 2.5415001 2.160812e-38
0.434861 0.1342362 2.5320001 2.160812e-38
0.46361828 0.136907 2.5331869 2.160812e-38
0.4964866 0.14338169 2.5495002 2.160812e-38
0.74608475 0.14886355 2.5509999 2.160812e-38
0.76797241 0.14074877 2.5426588 2.160812e-38
0.47826669 0.16317335 2.5320001 2.160812e-38
0.50480115 0.17751141 2.539341 2.160812e-38
0.53554732 0.18555903 2.5498827 2.160812e-38
0.56121999 0.19679144 2.5510001 2.160812e-38
0.74405885 0.17906339 2.5389085 2.160812e-38
0.77360928 0.18682827 2.5320005 2.160812e-38
0.51216644 0.21231061 2.5320005 2.160812e-38
0.53870112 0.21934621 2.5382283 2.160812e-38
0.57078135 0.22437833 2.5509999 2.160812e-38
0.71289176 0.22594571 2.5510004 2.160812e-38
0.73756021 0.21751615 2.5392492 2.160812e-38
0.77332669 0.20905234 2.5319998 2.160812e-38
0.51652801 0.24741259 2.5320001 2.160812e-38
0.54342574 0.25717968 2.5354893 2.160812e-38
0.57635188 0.26047802 2.5475457 2.160812e-38
0.6049515 0.27939528 2.5510001 2.160812e-38
0.70981854 0.25924587 2.5476754 2.160812e-38
0.72495162 0.25982541 2.535959 2.160812e-38
0.77294779 0.24365222 2.5415001 2.160812e-38
0.47408685 0.31300345 2.5320001 2.160812e-38
0.55137074 0.2913833 2.5349231 2.160812e-38
0.57984096 0.29239476 2.5467093 2.160812e-38
0.60842282 0.29418737 2.5494165 2.160812e-38
0.70464343 0.29040614 2.5449545 2.160812e-38
0.72584003 0.28213716 2.5320001 2.160812e-38
0.19580954 -0.56050479 2.5700002 2.160812e-38
0.5947715 -0.56050479 2.5700002 2.160812e-38
0.70246667 -0.56050479 2.5700002 2.160812e-38
0.78976512 -0.56213659 2.5700002 2.160812e-38
0.81995231 -0.56295246 2.5699999 2.160812e-38
0.86303061 -0.56311566 2.5700002 2.160812e-38
0.90014702 -0.56622517 2.5727143 2.160812e-38
0.94101256 -0.56612265 2.5743184 2.160812e-38
0.15713716 -0.52721721 2.5700002 2.160812e-38
0.18282217 -0.53628922 2.5763335 2.160812e-38
0.21778381 -0.54045379 2.5763335 2.160812e-38
0.26348436 -0.54045463 2.5795002 2.160812e-38
0.29803261 -0.53894258 2.5797875 2.160812e-38
0.33987483 -0.54057324 2.5770371 2.160812e-38
0.38278413 -0.54413056 2.580483 2.160812e-38
0.41924402 -0.53828019 2.5808575 2.160812e-38
0.46235275 -0.53939319 2.5777948 2.160812e-38
0.49658737 -0.53822172 2.5794995 2.160812e-38
0.53824764 -0.53877956 2.5773883 2.160812e-38
0.58227265 -0.54816633 2.5779166 2.160812e-38
0.61950868 -0.54404598 2.5784447 2.160812e-38
0.6608305 -0.54543668 2.5779159 2.160812e-38
0.69563675 -0.54797781 2.5778615 2.160812e-38
0.74087596 -0.54725325 2.5819628 2.160812e-38
0.7787115 -0.54140002 2.5784996 2.160812e-38
0.81662017 -0.55077136 2.5873709 2.160812e-38
0.85855091 -0.55422556 2.5864096 2.160812e-38
0.90038389 -0.55386138 2.5866256 2.160812e-38
0.94667464 -0.54519039 2.5863605 2.160812e-38
0.96781301 -0.5396868 2.5770371 2.160812e-38
0.17718342 -0.49988028 2.5788665 2.160812e-38
0.94153684 -0.49799106 2.5739436 2.160812e-38
0.96680957 -0.50788099 2.5700002 2.160812e-38
0.18121831 -0.4634659 2.5747499 2.160812e-38
0.21384862 -0.45393395 2.5878828 2.160812e-38
0.93933123 -0.45913371 2.5761857 2.160812e-38
0.19755784 -0.41574559 2.5700002 2.160812e-38
0.21609847 -0.41906077 2.5794992 2.160812e-38
0.24410574 -0.41670576 2.5890002 2.160812e-38
0.91218394 -0.41353461 2.5800588 2.160812e-38
0.92993778 -0.43070871 2.5755882 2.160812e-38
0.19629906 -0.39406669 2.5700002 2.160812e-38
0.22094862 -0.38202438 2.5764594 2.160812e-38
0.25054252 -0.37193519 2.5862861 2.160812e-38
0.90203178 -0.38486704 2.5767286 2.160812e-38
0.92275244 -0.3965143 2.5700002 2.160812e-38
0.26233166 -0.33988896 2.5811214 2.160812e-38
0.30081716 -0.32547432 2.5890002 2.160812e-38
0.89170182 -0.33722445 2.5781426 2.160812e-38
0.26865652 -0.30190012 2.5795 2.160812e-38
0.28816569 -0.29082388 2.5860772 2.160812e-38
0.8764509 -0.28450733 2.5826669 2.160812e-38
0.89139646 -0.30000654 2.580687 2.160812e-38
0.27658099 -0.27168572 2.5700002 2.160812e-38
0.29862049 -0.25861835 2.5794992 2.160812e-38
0.33231607 -0.24710642 2.5846157 2.160812e-38
0.87076616 -0.25801009 2.5826662 2.160812e-38
0.88314909 -0.27637053 2.5795002 2.160812e-38
0.3033984 -0.23103397 2.5699999 2.160812e-38
0.33441818 -0.22211155 2.576333 2.160812e-38
0.8358773 -0.20958573 2.5890002 2.160812e-38
0.86232996 -0.21897902 2.5845087 2.160812e-38
0.893381 -0.23497143 2.5700002 2.160812e-38
0.33899653 -0.17861947 2.5815647 2.160812e-38
0.3661586 -0.1615043 2.5890002 2.160812e-38
0.83234537 -0.17186777 2.5835719 2.160812e-38
0.85383362 -0.18130819 2.5780003 2.160812e-38
0.34949765 -0.14973585 2.5713573 2.160812e-38
0.37498254 -0.13895819 2.5815151 2.160812e-38
0.83239084 -0.13782345 2.5842502 2.160812e-38
0.84912086 -0.15088736 2.5772383 2.160812e-38
0.38538015 -0.10253306 2.5773079 2.160812e-38
0.40549794 -0.089438193 2.5890007 2.160812e-38
0.79290336 -0.086300008 2.5890005 2.160812e-38
0.82037908 -0.095551401 2.580977 2.160812e-38
0.85748261 -0.0938254 2.5700002 2.160812e-38
0.39692229 -0.059558734 2.5699999 2.160812e-38
0.41431683 -0.056753755 2.5839703 2.160812e-38
0.7911163 -0.054077137 2.585696 2.160812e-38
0.80448467 -0.062851779 2.5738001 2.160812e-38
0.42300701 -0.024473852 2.5763333 2.160812e-38
0.44985595 -0.011773598 2.5858338 2.160812e-38
0.78285402 -0.022387709 2.5824356 2.160812e-38
0.80265659 -0.017953226 2.5721111 2.160812e-38
0.43742448 0.012937416 2.5700002 2.160812e-38
0.45582333 0.020648671 2.5813994 2.160812e-38
0.78325641 0.02065408 2.5774138 2.160812e-38
0.81070572 0.017677249 2.5699999 2.160812e-38
0.47279844 0.048952386 2.5699999 2.160812e-38
0.49897656 0.059640199 2.5855093 2.160812e-38
0.52574515 0.067122236 2.5890005 2.160812e-38
0.75408792 0.066187732 2.5847781 2.160812e-38
0.76869917 0.056104936 2.5757573 2.160812e-38
0.50315773 0.098386884 2.5749564 2.160812e-38
0.53043681 0.10217305 2.5889997 2.160812e-38
0.74877053 0.099764198 2.5777943 2.160812e-38
0.76414675 0.08958286 2.5700002 2.160812e-38
0.51094049 0.13523094 2.5699999 2.160812e-38
0.53733939 0.13853005 2.5846975 2.160812e-38
0.57451147 0.15534 2.5890002 2.160812e-38
0.74198735 0.13870719 2.5779164 2.160812e-38
0.76120967 0.13461906 2.5700002 2.160812e-38
0.54618478 0.17087257 2.5755417 2.160812e-38
0.5775314 0.18132254 2.5808566 2.160812e-38
0.72771233 0.18191682 2.5798521 2.160812e-38
0.5862419 0.21429814 2.5800002 2.160812e-38
0.61478484 0.23506479 2.5890005 2.160812e-38
0.7024312 0.22680514 2.579212 2.160812e-38
0.72492003 0.20712002 2.5890002 2.160812e-38
0.59660715 0.25577623 2.5699999 2.160812e-38
0.62120456 0.26206395 2.5875378 2.160812e-38
0.65512151 0.26724559 2.5890005 2.160812e-38
0.69404656 0.26174253 2.5810192 2.160812e-38
0.57958597 0.30481032 2.5852001 2.160812e-38
0.62981027 0.29726812 2.5757828 2.160812e-38
0.65850532 0.2939702 2.5884058 2.160812e-38
0.6916998 0.29700264 2.5840964 2.160812e-38
0.19629622 -0.52676952 2.6090002 2.160812e-38
0.22001441 -0.52880251 2.6090009 2.160812e-38
0.25967428 -0.52920181 2.6162732 2.160812e-38
0.29721901 -0.52773082 2.6147151 2.160812e-38
0.33967671 -0.52931857 2.6164289 2.160812e-38
0.37869349 -0.53065437 2.6160007 2.160812e-38
0.41946939 -0.52864277 2.6097701 2.160812e-38
0.46114263 -0.52720803 2.6090007 2.160812e-38
0.50142503 -0.526604 2.6090007 2.160812e-38
0.54366589 -0.52826041 2.6090009 2.160812e-38
0.58212012 -0.53215349 2.6159768 2.160812e-38
0.6206829 -0.52962023 2.6156671 2.160812e-38
0.6608274 -0.52998763 2.612685 2.160812e-38
0.70275038 -0.53296423 2.6159773 2.160812e-38
0.7396853 -0.53379744 2.6158004 2.160812e-38
0.78039253 -0.52923787 2.6190009 2.160812e-38
0.82178217 -0.53149277 2.6153419 2.160812e-38
0.85989147 -0.53691554 2.6128595 2.160812e-38
0.90055358 -0.53756768 2.6176796 2.160812e-38
0.9394632 -0.53857613 2.6166356 2.160812e-38
0.96160293 -0.54084986 2.6090002 2.160812e-38
0.1939771 -0.5007624 2.6090007 2.160812e-38
0.21956974 -0.50396317 2.6196237 2.160812e-38
0.25985199 -0.5011186 2.6283538 2.160812e-38
0.29775366 -0.50721836 2.6284592 2.160812e-38
0.34156138 -0.51286364 2.6290007 2.160812e-38
0.38107985 -0.51267999 2.6290004 2.160812e-38
0.42213714 -0.51150048 2.624238 2.160812e-38
0.46023813 -0.51100898 2.6234188 2.160812e-38
0.50322247 -0.51509243 2.6207247 2.160812e-38
0.539038 -0.51341569 2.6233754 2.160812e-38
0.57838005 -0.51597738 2.6289999 2.160812e-38
0.62370652 -0.51433378 2.6280005 2.160812e-38
0.65850186 -0.51584893 2.6277502 2.160812e-38
0.6993975 -0.51828861 2.6290002 2.160812e-38
0.74296379 -0.51528406 2.6290002 2.160812e-38
0.77868479 -0.51692289 2.6289999 2.160812e-38
0.81783533 -0.51692289 2.6289999 2.160812e-38
0.86549103 -0.5128386 2.6267781 2.160812e-38
0.90780985 -0.4975428 2.6290002 2.160812e-38
0.92919415 -0.50229108 2.6178238 2.160812e-38
0.1943084 -0.4676322 2.6090004 2.160812e-38
0.22114378 -0.46545947 2.6090009 2.160812e-38
0.2560823 -0.46180186 2.6252496 2.160812e-38
0.87883717 -0.4431743 2.6290002 2.160812e-38
0.90673488 -0.4586347 2.6231663 2.160812e-38
0.9288041 -0.46315959 2.6090012 2.160812e-38
0.2313752 -0.41963252 2.6090007 2.160812e-38
0.26051229 -0.41980779 2.6189997 2.160812e-38
0.294238 -0.41377482 2.6289999 2.160812e-38
0.87616658 -0.41880393 2.6290002 2.160812e-38
0.89820659 -0.42246988 2.6180613 2.160812e-38
0.92308915 -0.43607575 2.6090002 2.160812e-38
0.26599389 -0.38253698 2.6101775 2.160812e-38
0.29949573 -0.37959898 2.6254508 2.160812e-38
0.32978749 -0.3694908 2.6290002 2.160812e-38
0.8738296 -0.38057908 2.6290007 2.160812e-38
0.88852936 -0.37871554 2.6175718 2.160812e-38
0.27580863 -0.35035145 2.6090002 2.160812e-38
0.29956526 -0.33897743 2.6093509 2.160812e-38
0.33253685 -0.33821702 2.6273785 2.160812e-38
0.86618 -0.33609885 2.6225994 2.160812e-38
0.88557065 -0.33901346 2.6109054 2.160812e-38
0.30479586 -0.30160928 2.6095138 2.160812e-38
0.33924487 -0.29936448 2.6210632 2.160812e-38
0.36680812 -0.29231977 2.6289999 2.160812e-38
0.83233798 -0.29413795 2.6290007 2.160812e-38
0.85951543 -0.29932541 2.6168861 2.160812e-38
0.88629556 -0.30677256 2.6090007 2.160812e-38
0.313577 -0.27183297 2.6090002 2.160812e-38
0.34060884 -0.26481214 2.6104641 2.160812e-38
0.37185329 -0.25801483 2.6221578 2.160812e-38
0.83190054 -0.26147506 2.6277099 2.160812e-38
0.85363072 -0.25996184 2.6126003 2.160812e-38
0.35432705 -0.21567737 2.6090004 2.160812e-38
0.37818328 -0.21885163 2.621881 2.160812e-38
0.40955174 -0.20960467 2.6290002 2.160812e-38
0.82655776 -0.21839535 2.621222 2.160812e-38
0.85081172 -0.22845195 2.6090007 2.160812e-38
0.35532099 -0.18635716 2.6090002 2.160812e-38
0.38065919 -0.18138996 2.6188238 2.160812e-38
0.41541356 -0.17999192 2.6253259 2.160812e-38
0.79671228 -0.16675372 2.6290002 2.160812e-38
0.82007992 -0.17987069 2.6166184 2.160812e-38
0.84233439 -0.18635717 2.6090002 2.160812e-38
0.39201903 -0.14316054 2.6090007 2.160812e-38
0.41816777 -0.13900092 2.6241717 2.160812e-38
0.4496842 -0.12669276 2.6289999 2.160812e-38
0.78845811 -0.13554183 2.6269484 2.160812e-38
0.81636792 -0.13921371 2.6129999 2.160812e-38
0.39507717 -0.11429906 2.6090002 2.160812e-38
0.42407647 -0.10139707 2.6108871 2.160812e-38
0.46079326 -0.099247217 2.6278455 2.160812e-38
