# .PCD v0.7 - Point Cloud Data file format
VERSION 0.7
FIELDS x y z rgb
SIZE 4 4 4 4
TYPE F F F F
COUNT 1 1 1 1
WIDTH 1015
HEIGHT 1
VIEWPOINT 0 0 0 1 0 0 0
POINTS 1015
DATA ascii
-0.91620487 -0.016700573 1.6329334 1.7252138e-38
-0.96231818 0.0089613609 1.6097146 1.7252138e-38
-0.93770421 0.018850155 1.6118606 1.7252138e-38
-0.90865028 0.023702521 1.6243471 1.7252138e-38
-0.87769139 0.038904764 1.6340001 1.7252138e-38
-0.92821324 0.042601593 1.6038889 1.7252138e-38
-0.89981967 0.059840769 1.615862 1.7252138e-38
-0.86676836 0.065435357 1.6319822 1.7252138e-38
-0.88686645 0.092721283 1.6111784 1.7252138e-38
-0.85942882 0.099937908 1.6192827 1.7252138e-38
-0.83369154 0.10902067 1.6300776 1.7252138e-38
-0.88088673 0.13282001 1.603 1.7252138e-38
-0.8572554 0.13334651 1.6068934 1.7252138e-38
-0.82592642 0.14254802 1.6229775 1.7252138e-38
-0.84293824 0.16902383 1.6030002 1.7252138e-38
-0.81582785 0.17844488 1.6129158 1.7252138e-38
-0.79131156 0.1877736 1.6321973 1.7252138e-38
-0.80812913 0.21598735 1.6050599 1.7252138e-38
-0.78273261 0.22140591 1.6191857 1.7252138e-38
-0.74145406 0.23130654 1.6340002 1.7252138e-38
-0.77053195 0.25716037 1.6108556 1.7252138e-38
-0.74206084 0.26369831 1.6286805 1.7252138e-38
-0.71287674 0.27205038 1.6340003 1.7252138e-38
-0.76180667 0.28243336 1.603 1.7252138e-38
-0.73771995 0.29728508 1.6134475 1.7252138e-38
-0.70483357 0.30445048 1.6285297 1.7252138e-38
-0.7349481 0.32818535 1.6042304 1.7252138e-38
-0.6988911 0.33845782 1.6157635 1.7252138e-38
-0.67215025 0.3485401 1.629691 1.7252138e-38
-0.69117761 0.37609577 1.6060109 1.7252138e-38
-0.66244853 0.38161224 1.6202425 1.7252138e-38
-0.63516426 0.39141083 1.6333848 1.7252138e-38
-0.65552145 0.41687667 1.6093355 1.7252138e-38
-0.62478185 0.42354468 1.6276685 1.7252138e-38
-0.59757715 0.43417716 1.6340001 1.7252138e-38
-0.64476228 0.44324225 1.603 1.7252138e-38
-0.61810064 0.4578177 1.6160289 1.7252138e-38
-0.58547533 0.46593606 1.6278098 1.7252138e-38
-0.60907942 0.49224761 1.6070297 1.7252138e-38
-0.5803656 0.49974924 1.6155734 1.7252138e-38
-0.5525558 0.50580007 1.6271263 1.7252138e-38
-0.68763655 0.55000287 1.6056669 1.7252138e-38
-0.60456002 0.52059329 1.603 1.7252138e-38
-0.57210213 0.53091705 1.6067551 1.7252138e-38
-0.54127365 0.54181081 1.6221929 1.7252138e-38
-0.51254958 0.54867637 1.6312093 1.7252138e-38
-0.56650388 0.58053136 1.6136252 1.7252138e-38
-0.53661412 0.57263553 1.6102589 1.7252138e-38
-0.50741291 0.58435684 1.6255516 1.7252138e-38
-0.5249657 0.60394287 1.626 1.7252138e-38
-0.49537355 0.61812317 1.6249737 1.7252138e-38
-0.46753165 0.63242596 1.6259997 1.7252138e-38
-0.48915097 0.6475752 1.6253181 1.7252138e-38
-0.4591684 0.66150337 1.6169316 1.7252138e-38
-0.43403184 0.67170596 1.6256484 1.7252138e-38
-0.44901013 0.69790286 1.605023 1.7252138e-38
-0.42335296 0.70272607 1.6193687 1.7252138e-38
-0.41429019 0.7230587 1.61605 1.7252138e-38
-0.39846477 0.72716761 1.628 1.7252138e-38
-1.0028689 -0.18045773 1.6704741 1.7252138e-38
-0.98594886 -0.17306398 1.6717093 1.7252138e-38
-1.0029964 -0.15238644 1.6710001 1.7252138e-38
-0.97694308 -0.13920937 1.6609998 1.7252138e-38
-0.95290607 -0.12823761 1.6687899 1.7252138e-38
-0.97497326 -0.10176139 1.6481258 1.7252138e-38
-0.94520718 -0.097744055 1.6626688 1.7252138e-38
-0.90114379 -0.084901914 1.6730002 1.7252138e-38
-0.97723234 -0.078366123 1.641 1.7252138e-38
-0.936046 -0.062489588 1.653973 1.7252138e-38
-0.90100962 -0.058291689 1.6678289 1.7252138e-38
-0.87250942 -0.044932004 1.6730002 1.7252138e-38
-0.93018723 -0.033717446 1.6419599 1.7252138e-38
-0.89951861 -0.021814901 1.653923 1.7252138e-38
-0.86855757 -0.017259808 1.6660254 1.7252138e-38
-0.89502591 0.016799686 1.6439909 1.7252138e-38
-0.86319929 0.020347437 1.6606978 1.7252138e-38
-0.83330977 0.030343484 1.672086 1.7252138e-38
-0.88891846 0.050532375 1.6410004 1.7252138e-38
-0.85151196 0.055055436 1.6473457 1.7252138e-38
-0.82627982 0.062952243 1.6662034 1.7252138e-38
-0.81733501 0.097839326 1.6560884 1.7252138e-38
-0.79069883 0.10634886 1.6720293 1.7252138e-38
-0.80909318 0.13303067 1.6478574 1.7252138e-38
-0.78122085 0.14224806 1.6633928 1.7252138e-38
-0.74931639 0.14856231 1.6714004 1.7252138e-38
-0.80330861 0.16410001 1.641 1.7252138e-38
-0.77687454 0.17687958 1.6528091 1.7252138e-38
-0.74173588 0.18073994 1.6647002 1.7252138e-38
-0.71806258 0.19571008 1.6707146 1.7252138e-38
-0.76542753 0.21287788 1.6430949 1.7252138e-38
-0.73877692 0.21881945 1.6498796 1.7252138e-38
-0.70735055 0.22357847 1.6671374 1.7252138e-38
-0.73434085 0.24831012 1.6429998 1.7252138e-38
-0.6988095 0.25949076 1.6581385 1.7252138e-38
-0.67284888 0.27277821 1.66987 1.7252138e-38
-0.6874603 0.29364929 1.6488982 1.7252138e-38
-0.66360497 0.30093598 1.6628358 1.7252138e-38
-0.68296856 0.32038572 1.641 1.7252138e-38
-0.65618402 0.3363114 1.6523699 1.7252138e-38
-0.62487531 0.34898764 1.6658959 1.7252138e-38
-0.59750003 0.35690665 1.6730001 1.7252138e-38
-0.64897633 0.3658565 1.6416668 1.7252138e-38
-0.62032825 0.37911555 1.6550647 1.7252138e-38
-0.58653927 0.38557187 1.6642336 1.7252138e-38
-0.61128497 0.41231468 1.6473749 1.7252138e-38
-0.58136833 0.4206996 1.6557004 1.7252138e-38
-0.55065536 0.43490067 1.6695719 1.7252138e-38
-0.57251787 0.45458785 1.6476563 1.7252138e-38
-0.5416683 0.46213722 1.6611555 1.7252138e-38
-0.51783335 0.47800004 1.6730001 1.7252138e-38
-0.53627491 0.49797657 1.6522479 1.7252138e-38
-0.50881344 0.50950837 1.6652915 1.7252138e-38
-0.52949589 0.52675796 1.6439996 1.7252138e-38
-0.49819589 0.53745389 1.6548352 1.7252138e-38
-0.46643263 0.54571879 1.6681104 1.7252138e-38
-0.58236408 0.59240746 1.6482 1.7252138e-38
-0.49219638 0.57581234 1.6480964 1.7252138e-38
-0.45855069 0.57974803 1.6564037 1.7252138e-38
-0.43287921 0.58581299 1.6720395 1.7252138e-38
-0.48370254 0.60267782 1.6436666 1.7252138e-38
-0.45876858 0.61755931 1.6450719 1.7252138e-38
-0.42458427 0.6233412 1.6622617 1.7252138e-38
-0.39992669 0.63733339 1.6730001 1.7252138e-38
-0.44399351 0.64886993 1.6410002 1.7252138e-38
-0.41785568 0.65855646 1.6472824 1.7252138e-38
-0.38711146 0.66508383 1.6673706 1.7252138e-38
-0.3585 0.67557335 1.6730001 1.7252138e-38
-0.40915179 0.69514668 1.6423109 1.7252138e-38
-0.37946069 0.69746691 1.6534215 1.7252138e-38
-0.34372458 0.70476693 1.6715611 1.7252138e-38
-0.31587836 0.71222007 1.6730002 1.7252138e-38
-0.40269619 0.72151911 1.6410002 1.7252138e-38
-0.37871659 0.72856873 1.6475456 1.7252138e-38
-0.34000656 0.73270696 1.6648192 1.7252138e-38
-0.31086841 0.73927182 1.6715879 1.7252138e-38
-1.0277305 -0.32759741 1.7145715 1.7252138e-38
-1.013757 -0.29895189 1.7077334 1.7252138e-38
-0.99535334 -0.28713998 1.715 1.7252138e-38
-1.009232 -0.26296541 1.6981293 1.7252138e-38
-0.98613936 -0.25642774 1.708588 1.7252138e-38
-1.0069988 -0.22109933 1.6860164 1.7252138e-38
-0.98026377 -0.21956435 1.6982508 1.7252138e-38
-0.94347876 -0.21319824 1.714335 1.7252138e-38
-0.9179334 -0.20416668 1.715 1.7252138e-38
-1.0037973 -0.19691716 1.6810001 1.7252138e-38
-0.97166258 -0.18466869 1.6852224 1.7252138e-38
-0.94217193 -0.17903964 1.7043085 1.7252138e-38
-0.91147405 -0.17668478 1.7131326 1.7252138e-38
-0.9636448 -0.15377457 1.6819 1.7252138e-38
-0.93798524 -0.14088964 1.6929281 1.7252138e-38
-0.90166152 -0.13880198 1.7048686 1.7252138e-38
-0.87709999 -0.1225 1.715 1.7252138e-38
-0.92708886 -0.10459807 1.6841835 1.7252138e-38
-0.89838856 -0.10087474 1.6927125 1.7252138e-38
-0.86960638 -0.097305439 1.707875 1.7252138e-38
-0.92374957 -0.078446671 1.6810001 1.7252138e-38
-0.88950908 -0.071837209 1.685375 1.7252138e-38
-0.86123204 -0.059124205 1.698705 1.7252138e-38
-0.83645064 -0.0483553 1.707158 1.7252138e-38
-0.85105062 -0.021295803 1.6892931 1.7252138e-38
-0.82592261 -0.014647865 1.7044859 1.7252138e-38
-0.79761112 -0.0054444447 1.715 1.7252138e-38
-0.84287119 0.010250382 1.6819 1.7252138e-38
-0.82030207 0.018474024 1.6979707 1.7252138e-38
-0.79395187 0.024608858 1.7130435 1.7252138e-38
-0.80745065 0.055861745 1.6897326 1.7252138e-38
-0.78149658 0.061415404 1.7054977 1.7252138e-38
-0.75206959 0.067362748 1.7123917 1.7252138e-38
-0.8042118 0.082715876 1.6810001 1.7252138e-38
-0.77742225 0.097088896 1.690717 1.7252138e-38
-0.74417049 0.10349914 1.7014323 1.7252138e-38
-0.71703333 0.11759999 1.715 1.7252138e-38
-0.76820916 0.12871747 1.6819643 1.7252138e-38
-0.73736149 0.13769792 1.6926379 1.7252138e-38
-0.71014857 0.14398952 1.7075156 1.7252138e-38
-0.72721672 0.1715495 1.6858045 1.7252138e-38
-0.70168525 0.18068253 1.6985499 1.7252138e-38
-0.67179006 0.19142666 1.715 1.7252138e-38
-0.69125879 0.21701646 1.6895257 1.7252138e-38
-0.66417623 0.22250436 1.7039911 1.7252138e-38
-0.62619495 0.23180772 1.715 1.7252138e-38
-0.68218356 0.24921495 1.681 1.7252138e-38
-0.6585893 0.25836295 1.6926459 1.7252138e-38
-0.62300283 0.26143795 1.7065197 1.7252138e-38
-0.59698337 0.27848333 1.715 1.7252138e-38
-0.64715463 0.29589027 1.6838332 1.7252138e-38
-0.62010115 0.2999112 1.6936741 1.7252138e-38
-0.58579576 0.30471531 1.7097931 1.7252138e-38
-0.5558778 0.31741112 1.715 1.7252138e-38
-0.64198196 0.32659429 1.6810001 1.7252138e-38
-0.61613935 0.33266196 1.6842675 1.7252138e-38
-0.57855457 0.33977503 1.6972041 1.7252138e-38
-0.54748946 0.34436604 1.7141107 1.7252138e-38
-0.57322973 0.37478125 1.6851075 1.7252138e-38
-0.5441547 0.3826164 1.7049314 1.7252138e-38
-0.51469219 0.38940591 1.715 1.7252138e-38
-0.56353533 0.41304573 1.6809999 1.7252138e-38
-0.53802919 0.4173862 1.6896157 1.7252138e-38
-0.50479162 0.423621 1.7068931 1.7252138e-38
-0.47175783 0.42998922 1.7125852 1.7252138e-38
-0.52470064 0.45368943 1.6823945 1.7252138e-38
-0.50078917 0.45966512 1.695349 1.7252138e-38
-0.463186 0.46211466 1.7068311 1.7252138e-38
-0.43796667 0.47390008 1.7150002 1.7252138e-38
-0.49638504 0.49613577 1.6858864 1.7252138e-38
-0.45875329 0.49968049 1.6951457 1.7252138e-38
-0.42858309 0.503124 1.7122625 1.7252138e-38
-0.48455498 0.52297777 1.6810001 1.7252138e-38
-0.45332792 0.53447175 1.6844858 1.7252138e-38
-0.42269328 0.54138458 1.7055234 1.7252138e-38
-0.39069411 0.55224299 1.7133931 1.7252138e-38
-0.44026193 0.56353533 1.6810001 1.7252138e-38
-0.41597751 0.57593638 1.6896007 1.7252138e-38
-0.38620985 0.58194613 1.7098064 1.7252138e-38
-0.33243874 0.59152377 1.7110624 1.7252138e-38
-0.40741009 0.61299813 1.6837587 1.7252138e-38
-0.38031629 0.62170529 1.6985085 1.7252138e-38
-0.34137765 0.62367535 1.7114059 1.7252138e-38
-0.3136 0.63863331 1.715 1.7252138e-38
-0.37182218 0.65296447 1.6825825 1.7252138e-38
-0.3403497 0.65931541 1.7011725 1.7252138e-38
-0.3069903 0.66660434 1.7084996 1.7252138e-38
-0.33825764 0.69469225 1.6879308 1.7252138e-38
-0.30106544 0.70180297 1.7004278 1.7252138e-38
-0.27177143 0.71158969 1.7068442 1.7252138e-38
-0.3362 0.72202957 1.6810001 1.7252138e-38
-0.29326177 0.73600936 1.6887476 1.7252138e-38
-0.26264861 0.74152148 1.7065908 1.7252138e-38
-0.23683333 0.75786674 1.715 1.7252138e-38
-0.2579945 0.76365495 1.7064803 1.7252138e-38
-0.23510149 0.76622701 1.7130001 1.7252138e-38
-1.0591694 -0.4933576 1.7589999 1.7252138e-38
-1.0549706 -0.45509928 1.7578384 1.7252138e-38
-1.0484024 -0.4196195 1.7535223 1.7252138e-38
-1.0285958 -0.41532224 1.7545003 1.7252138e-38
-1.0442394 -0.38334045 1.739714 1.7252138e-38
-1.0195273 -0.37831628 1.7479395 1.7252138e-38
-0.99219793 -0.36444041 1.7590002 1.7252138e-38
-1.0431994 -0.35636732 1.7350001 1.7252138e-38
-1.01671 -0.34212884 1.7333711 1.7252138e-38
-0.98401028 -0.33528948 1.7483122 1.7252138e-38
-0.95273191 -0.32475686 1.7590001 1.7252138e-38
-1.0044305 -0.30526572 1.726333 1.7252138e-38
-0.97946656 -0.29913023 1.7380315 1.7252138e-38
-0.94335884 -0.29798761 1.7517856 1.7252138e-38
-0.91970575 -0.28479046 1.7590001 1.7252138e-38
-1.0026219 -0.27403903 1.723 1.7252138e-38
-0.96983892 -0.262068 1.7327906 1.7252138e-38
-0.93961382 -0.25974581 1.7409356 1.7252138e-38
-0.91297883 -0.25783482 1.7505217 1.7252138e-38
-0.967583 -0.23758371 1.7263751 1.7252138e-38
-0.93547732 -0.22935243 1.7299131 1.7252138e-38
-0.90178794 -0.21891525 1.743376 1.7252138e-38
-0.87950003 -0.20270382 1.7590001 1.7252138e-38
-0.8941797 -0.18181045 1.7325034 1.7252138e-38
-0.87282628 -0.17847407 1.7489411 1.7252138e-38
-0.88718557 -0.1428756 1.7250377 1.7252138e-38
-0.86069602 -0.13838491 1.7392097 1.7252138e-38
-0.83594382 -0.12631297 1.7590001 1.7252138e-38
-0.85350728 -0.10155303 1.7308748 1.7252138e-38
-0.82710642 -0.096966937 1.7481277 1.7252138e-38
-0.79190904 -0.098839037 1.7590003 1.7252138e-38
-0.84462297 -0.07066381 1.7255713 1.7252138e-38
-0.81907457 -0.059648078 1.7369876 1.7252138e-38
-0.78366876 -0.057999685 1.7548412 1.7252138e-38
-0.75553244 -0.041880958 1.7590002 1.7252138e-38
-0.81356388 -0.026580948 1.7319094 1.7252138e-38
-0.7790373 -0.019395594 1.7442869 1.7252138e-38
-0.75273007 -0.012979699 1.7576878 1.7252138e-38
-0.80503839 0.017091263 1.7240586 1.7252138e-38
-0.77910161 0.018425344 1.7290589 1.7252138e-38
-0.74346036 0.021778261 1.7459244 1.7252138e-38
-0.71042979 0.036468644 1.7590003 1.7252138e-38
-0.77753794 0.044579208 1.7229998 1.7252138e-38
-0.73643595 0.056563962 1.7335608 1.7252138e-38
-0.70608807 0.062164977 1.7542901 1.7252138e-38
-0.67847145 0.078736193 1.7590001 1.7252138e-38
-0.73041707 0.092792191 1.7249459 1.7252138e-38
-0.69899654 0.099839218 1.738663 1.7252138e-38
-0.66460931 0.1059348 1.7566532 1.7252138e-38
-0.63380593 0.11626837 1.758 1.7252138e-38
-0.69291598 0.13695768 1.7270695 1.7252138e-38
-0.66246217 0.14054751 1.7464105 1.7252138e-38
-0.62494695 0.14234601 1.7563543 1.7252138e-38
-0.68566179 0.17402129 1.72329 1.7252138e-38
-0.65752935 0.17802054 1.7317271 1.7252138e-38
-0.6188547 0.18095578 1.744589 1.7252138e-38
-0.58509052 0.18902133 1.7578099 1.7252138e-38
-0.55673748 0.19823653 1.7590002 1.7252138e-38
-0.65030587 0.21360634 1.723333 1.7252138e-38
-0.61757016 0.21801256 1.7289581 1.7252138e-38
-0.5809738 0.2208712 1.7489134 1.7252138e-38
-0.55092603 0.22266465 1.7582867 1.7252138e-38
-0.60683298 0.25457206 1.7238433 1.7252138e-38
-0.58028656 0.25966504 1.734982 1.7252138e-38
-0.54271227 0.26286083 1.753154 1.7252138e-38
-0.51630843 0.27708438 1.7590001 1.7252138e-38
-0.57269144 0.29185018 1.7256471 1.7252138e-38
-0.54101163 0.30008954 1.740484 1.7252138e-38
-0.50217265 0.3051708 1.7557142 1.7252138e-38
-0.47419816 0.31366819 1.7579414 1.7252138e-38
-0.53168273 0.33648178 1.7320008 1.7252138e-38
-0.50046182 0.34119546 1.74177 1.7252138e-38
-0.47077882 0.34365913 1.7550409 1.7252138e-38
-0.52940673 0.37081093 1.7229997 1.7252138e-38
-0.49767193 0.37943035 1.7274697 1.7252138e-38
-0.46034068 0.38046482 1.7460865 1.7252138e-38
-0.4317899 0.38847914 1.7554876 1.7252138e-38
-0.49387246 0.41117185 1.7236791 1.7252138e-38
-0.45747381 0.41802934 1.7351874 1.7252138e-38
-0.42538771 0.42235497 1.75 1.7252138e-38
-0.44861817 0.45058995 1.7281923 1.7252138e-38
-0.4201037 0.45993614 1.741727 1.7252138e-38
-0.38994238 0.46458712 1.7528291 1.7252138e-38
-0.35134342 0.47172406 1.7509475 1.7252138e-38
-0.41261581 0.49675661 1.7314546 1.7252138e-38
-0.38156497 0.50155836 1.7455842 1.7252138e-38
-0.35340482 0.50300515 1.7474884 1.7252138e-38
-0.4046469 0.53107381 1.7271781 1.7252138e-38
-0.37924781 0.53938192 1.7359842 1.7252138e-38
-0.35168904 0.54309368 1.7381309 1.7252138e-38
-0.36890039 0.57579225 1.7294066 1.7252138e-38
-0.34868306 0.58265543 1.7296778 1.7252138e-38
-0.36527601 0.60354227 1.7229999 1.7252138e-38
-0.34588936 0.61172366 1.7229998 1.7252138e-38
-0.31998572 0.63340759 1.723 1.7252138e-38
-0.32165715 0.6416648 1.7320001 1.7252138e-38
-0.30607849 0.65870285 1.7266483 1.7252138e-38
-0.24550247 0.74407464 1.7265999 1.7252138e-38
-0.22743075 0.75209302 1.7301997 1.7252138e-38
-0.21613133 0.76749796 1.729049 1.7252138e-38
-0.184089 0.7747106 1.7399998 1.7252138e-38
-1.0821286 -0.61953151 1.7950001 1.7252138e-38
-1.0746068 -0.60072672 1.7950001 1.7252138e-38
-1.0821286 -0.58579689 1.7950001 1.7252138e-38
-1.0735496 -0.58039504 1.7940519 1.7252138e-38
-1.0640317 -0.53990215 1.7911657 1.7252138e-38
-1.0541339 -0.50130349 1.7811522 1.7252138e-38
-1.0374073 -0.49583334 1.7913181 1.7252138e-38
-1.0505619 -0.46414241 1.7726794 1.7252138e-38
-1.026432 -0.4560408 1.783028 1.7252138e-38
-1.043962 -0.43947431 1.7680001 1.7252138e-38
-1.0146414 -0.42295802 1.7773833 1.7252138e-38
-0.98046869 -0.4173713 1.7885897 1.7252138e-38
-0.95708925 -0.40662247 1.7950002 1.7252138e-38
-1.0038053 -0.39043656 1.7693499 1.7252138e-38
-0.98162776 -0.3806453 1.7779553 1.7252138e-38
-0.94948918 -0.37638077 1.7845995 1.7252138e-38
-0.9709025 -0.34710169 1.7725 1.7252138e-38
-0.93772948 -0.34000438 1.779884 1.7252138e-38
-0.90822124 -0.33287126 1.7919998 1.7252138e-38
-0.92837095 -0.30760768 1.7766302 1.7252138e-38
-0.89967138 -0.29851797 1.7851045 1.7252138e-38
-0.87416458 -0.28787658 1.7915711 1.7252138e-38
-0.89603138 -0.26103652 1.7725351 1.7252138e-38
-0.867477 -0.25721598 1.7848408 1.7252138e-38
-0.88364291 -0.22504504 1.7698007 1.7252138e-38
-0.86072689 -0.21928826 1.7827568 1.7252138e-38
-0.83664095 -0.20206571 1.7950001 1.7252138e-38
-0.8539992 -0.18188141 1.771078 1.7252138e-38
-0.82042933 -0.17609195 1.7858598 1.7252138e-38
-0.79766387 -0.16650763 1.7950001 1.7252138e-38
-0.84685081 -0.14964922 1.7687302 1.7252138e-38
-0.81950563 -0.14185044 1.7768205 1.7252138e-38
-0.78755766 -0.13716665 1.7904562 1.7252138e-38
-0.81367463 -0.10469061 1.770177 1.7252138e-38
-0.7787025 -0.10003301 1.7776934 1.7252138e-38
-0.74986416 -0.086124249 1.7935479 1.7252138e-38
-0.80570292 -0.074087627 1.7680001 1.7252138e-38
-0.76785558 -0.0667402 1.7725788 1.7252138e-38
-0.74271929 -0.059093725 1.7883089 1.7252138e-38
-0.71710449 -0.054623354 1.7950001 1.7252138e-38
-0.76613337 -0.03704381 1.7680001 1.7252138e-38
-0.73787445 -0.023405198 1.7756639 1.7252138e-38
-0.71041465 -0.016878903 1.7867993 1.7252138e-38
-0.72730672 0.014163813 1.7680006 1.7252138e-38
-0.69902563 0.018984871 1.7791688 1.7252138e-38
-0.65846699 0.026954034 1.7943238 1.7252138e-38
-0.63055134 0.033138461 1.7949997 1.7252138e-38
-0.68800133 0.057787564 1.7689184 1.7252138e-38
-0.66093594 0.060810585 1.7815002 1.7252138e-38
-0.62129653 0.063594632 1.7896967 1.7252138e-38
-0.59594005 0.071458094 1.7950001 1.7252138e-38
-0.65388769 0.092716254 1.7700278 1.7252138e-38
-0.61759657 0.10042811 1.7785558 1.7252138e-38
-0.58297735 0.10565325 1.7928016 1.7252138e-38
-0.55901432 0.11795714 1.7950001 1.7252138e-38
-0.65163434 0.12796955 1.768 1.7252138e-38
-0.60644686 0.13606152 1.7731817 1.7252138e-38
-0.58033109 0.14020471 1.7864758 1.7252138e-38
-0.55022579 0.14487115 1.7947263 1.7252138e-38
-0.60112 0.16332954 1.7680001 1.7252138e-38
-0.5762223 0.17490107 1.7730372 1.7252138e-38
-0.54236543 0.18130021 1.7894207 1.7252138e-38
-0.50722581 0.18593588 1.7949992 1.7252138e-38
-0.53329462 0.21778895 1.778636 1.7252138e-38
-0.50014347 0.22116348 1.7894273 1.7252138e-38
-0.47576147 0.22592905 1.7905002 1.7252138e-38
-0.52781117 0.25097606 1.7719771 1.7252138e-38
-0.498905 0.26002648 1.7785866 1.7252138e-38
-0.46374667 0.26409826 1.790215 1.7252138e-38
-0.43934765 0.27352381 1.7950001 1.7252138e-38
-0.49464983 0.28902596 1.7726803 1.7252138e-38
-0.45903262 0.29947203 1.7807585 1.7252138e-38
-0.43286693 0.3036029 1.7933791 1.7252138e-38
-0.45238027 0.33823434 1.7725434 1.7252138e-38
-0.42219153 0.3419801 1.7868489 1.7252138e-38
-0.39633581 0.35302484 1.7897058 1.7252138e-38
-0.44508505 0.3616336 1.7702501 1.7252138e-38
-0.41825891 0.37777215 1.7778233 1.7252138e-38
-0.38688365 0.38278219 1.7891756 1.7252138e-38
-0.35121217 0.38350317 1.7950001 1.7252138e-38
-0.40803635 0.41592845 1.7716289 1.7252138e-38
-0.38000557 0.42045751 1.7814987 1.7252138e-38
-0.35567051 0.42292389 1.7862997 1.7252138e-38
-0.4024305 0.44284195 1.7680001 1.7252138e-38
-0.37541491 0.45686549 1.7718824 1.7252138e-38
-0.35688946 0.45278281 1.7712142 1.7252138e-38
-0.37298205 0.4886938 1.7701602 1.7252138e-38
-0.72174168 0.13788018 1.629517 1.7252138e-38
-0.7633732 0.061778367 1.6801382 1.7252138e-38
-1.0610073 -0.64771557 1.794872 1.7252138e-38
-1.0768163 -0.69564706 1.8150712 1.7252138e-38
-1.0860286 -0.66242212 1.8182155 1.7252138e-38
-1.0747918 -0.6518032 1.8242975 1.7252138e-38
-1.084316 -0.62471479 1.810667 1.7252138e-38
-1.0688213 -0.61768705 1.8232714 1.7252138e-38
-1.0806819 -0.57556194 1.8040001 1.7252138e-38
-1.0592055 -0.57941973 1.8145741 1.7252138e-38
-1.0368176 -0.56494772 1.8313637 1.7252138e-38
-1.0479543 -0.54363245 1.8143953 1.7252138e-38
-1.0241354 -0.53429753 1.8251443 1.7252138e-38
-0.98797536 -0.5250265 1.8323574 1.7252138e-38
-1.042906 -0.50446486 1.8140001 1.7252138e-38
-1.0194905 -0.49998286 1.8133264 1.7252138e-38
-0.9836278 -0.49755961 1.8270173 1.7252138e-38
-1.0417544 -0.47855049 1.8140001 1.7252138e-38
-1.0120376 -0.46504772 1.8085681 1.7252138e-38
-0.97888094 -0.45973104 1.8136348 1.7252138e-38
-0.9450351 -0.4514707 1.8228474 1.7252138e-38
-0.91799641 -0.45712781 1.8330002 1.7252138e-38
-1.0016496 -0.43811432 1.8040001 1.7252138e-38
-0.9664402 -0.42861333 1.8068004 1.7252138e-38
-0.93880761 -0.41941336 1.8147676 1.7252138e-38
-0.91698325 -0.41517612 1.8305001 1.7252138e-38
-0.93257475 -0.3829706 1.8089495 1.7252138e-38
-0.9063018 -0.37830958 1.8234257 1.7252138e-38
-0.92519432 -0.3582229 1.8040001 1.7252138e-38
-0.89569783 -0.34426251 1.8114117 1.7252138e-38
-0.87173271 -0.33129385 1.8225694 1.7252138e-38
-0.8845548 -0.31229687 1.8040004 1.7252138e-38
-0.86075723 -0.30025721 1.8158573 1.7252138e-38
-0.82921726 -0.29522344 1.827913 1.7252138e-38
-0.85100323 -0.26226118 1.8106295 1.7252138e-38
-0.82136822 -0.25847569 1.8244581 1.7252138e-38
-0.79580259 -0.25299239 1.8320001 1.7252138e-38
-0.84322059 -0.22553505 1.8044004 1.7252138e-38
-0.81788862 -0.21984309 1.8112186 1.7252138e-38
-0.7864961 -0.214083 1.8294349 1.7252138e-38
-0.81584078 -0.19287214 1.8040006 1.7252138e-38
-0.78163981 -0.1801822 1.8203675 1.7252138e-38
-0.75364989 -0.17332451 1.8330002 1.7252138e-38
-0.76985067 -0.1432168 1.8081074 1.7252138e-38
-0.74416059 -0.13804644 1.8256842 1.7252138e-38
-0.71690673 -0.12860096 1.8330001 1.7252138e-38
-0.76534545 -0.11352647 1.8040004 1.7252138e-38
-0.73591214 -0.10310217 1.8102976 1.7252138e-38
-0.70770586 -0.091337882 1.8244028 1.7252138e-38
-0.66938448 -0.085927948 1.8329999 1.7252138e-38
-0.72446358 -0.076168895 1.8040003 1.7252138e-38
-0.70146769 -0.061601289 1.820379 1.7252138e-38
-0.66085398 -0.057812553 1.8282013 1.7252138e-38
-0.63439256 -0.044690285 1.8330001 1.7252138e-38
-0.6933164 -0.023435261 1.807855 1.7252138e-38
-0.65942985 -0.020593651 1.8178016 1.7252138e-38
-0.62382978 -0.015169624 1.8300954 1.7252138e-38
-0.59703428 -0.0034914287 1.8330001 1.7252138e-38
-0.68208385 0.010308573 1.8040001 1.7252138e-38
-0.660501 0.012831707 1.8060553 1.7252138e-38
-0.61767161 0.019029463 1.8191825 1.7252138e-38
-0.58741564 0.025761841 1.8309143 1.7252138e-38
-0.66146672 0.042952381 1.8040001 1.7252138e-38
-0.60751176 0.050703958 1.8120645 1.7252138e-38
-0.57946318 0.06027849 1.8242309 1.7252138e-38
-0.54563725 0.064266138 1.832881 1.7252138e-38
-0.51708061 0.075764 1.8330001 1.7252138e-38
-0.57497096 0.090925254 1.8142816 1.7252138e-38
-0.54250747 0.10165957 1.8241872 1.7252138e-38
-0.50988203 0.10797424 1.8302144 1.7252138e-38
-0.47192478 0.10765239 1.8330001 1.7252138e-38
-0.56353527 0.12198477 1.8040001 1.7252138e-38
-0.5329603 0.13787256 1.812243 1.7252138e-38
-0.498337 0.14026308 1.8224669 1.7252138e-38
-0.47298324 0.14483304 1.832206 1.7252138e-38
-0.52554637 0.17142773 1.8040005 1.7252138e-38
-0.49629354 0.17757843 1.8125633 1.7252138e-38
-0.46244752 0.18297414 1.8258076 1.7252138e-38
-0.43817428 0.19028287 1.8330001 1.7252138e-38
-0.48867539 0.20960765 1.8040004 1.7252138e-38
-0.46065259 0.21922244 1.8153777 1.7252138e-38
-0.42799842 0.22768067 1.8275934 1.7252138e-38
-0.39162192 0.22356783 1.8330002 1.7252138e-38
-0.45135957 0.25052416 1.8080008 1.7252138e-38
-0.4201929 0.26038647 1.8200276 1.7252138e-38
-0.39233208 0.26157063 1.83156 1.7252138e-38
-0.41573653 0.29806221 1.8106085 1.7252138e-38
-0.38433647 0.30391771 1.824561 1.7252138e-38
-0.35490209 0.30813202 1.8177999 1.7252138e-38
-0.40710741 0.33010796 1.8056132 1.7252138e-38
-0.37946856 0.33944839 1.8159201 1.7252138e-38
-0.35396037 0.34513658 1.812387 1.7252138e-38
-0.37127668 0.37505829 1.8076241 1.7252138e-38
-0.35389793 0.37578869 1.8056004 1.7252138e-38
-0.36351335 0.40141621 1.8090003 1.7252138e-38
-0.35672349 0.40213451 1.8060001 1.7252138e-38
-0.85946256 -0.12527615 1.7142349 1.7252138e-38
-0.92670673 -0.33625922 1.7736751 1.7252138e-38
-1.0843114 -0.69988871 1.8482778 1.7252138e-38
-1.0731322 -0.69979024 1.8601431 1.7252138e-38
-1.0836285 -0.67660981 1.8474445 1.7252138e-38
-1.061492 -0.65945065 1.8593465 1.7252138e-38
-1.0300541 -0.64661831 1.8718578 1.7252138e-38
-1.0531616 -0.62244248 1.855268 1.7252138e-38
-1.0210311 -0.61907226 1.8678192 1.7252138e-38
-0.99352849 -0.61035186 1.8703533 1.7252138e-38
-1.0505148 -0.59035665 1.8488331 1.7252138e-38
-1.0226443 -0.58116704 1.8534224 1.7252138e-38
-0.98413557 -0.57753283 1.8599304 1.7252138e-38
-1.0164646 -0.54911703 1.846962 1.7252138e-38
-0.97861886 -0.54279304 1.8521421 1.7252138e-38
-0.94943619 -0.5360083 1.8689044 1.7252138e-38
-0.96780831 -0.5034343 1.8444288 1.7252138e-38
-0.93849957 -0.49937311 1.8575451 1.7252138e-38
-0.91222745 -0.49207333 1.8720008 1.7252138e-38
-0.96284568 -0.47527948 1.8430002 1.7252138e-38
-0.93697304 -0.46550021 1.8459584 1.7252138e-38
-0.90140665 -0.45684528 1.8568101 1.7252138e-38
-0.87665051 -0.450102 1.8713337 1.7252138e-38
-0.92150009 -0.42501837 1.8430002 1.7252138e-38
-0.89704317 -0.42094567 1.8485636 1.7252138e-38
-0.86050373 -0.4153724 1.8685777 1.7252138e-38
-0.83157974 -0.40881673 1.8730009 1.7252138e-38
-0.88910246 -0.38318545 1.8453441 1.7252138e-38
-0.86025912 -0.38035789 1.8564352 1.7252138e-38
-0.8285352 -0.37878346 1.8684223 1.7252138e-38
-0.88288486 -0.35631332 1.8430002 1.7252138e-38
-0.85677314 -0.34335142 1.8471742 1.7252138e-38
-0.81982112 -0.33882287 1.8597149 1.7252138e-38
-0.79323208 -0.33038032 1.8730007 1.7252138e-38
-0.84778011 -0.31638166 1.8430002 1.7252138e-38
-0.81326622 -0.30302545 1.8517753 1.7252138e-38
-0.78586042 -0.29561639 1.8653919 1.7252138e-38
-0.80518645 -0.26878545 1.8430004 1.7252138e-38
-0.78006601 -0.25981784 1.8547107 1.7252138e-38
-0.74787688 -0.24935533 1.8717811 1.7252138e-38
-0.80214381 -0.23344669 1.8430002 1.7252138e-38
-0.77006572 -0.22517098 1.8448312 1.7252138e-38
-0.74289143 -0.21810783 1.8641818 1.7252138e-38
-0.7120645 -0.20789492 1.8730009 1.7252138e-38
-0.76001811 -0.19483143 1.8430002 1.7252138e-38
-0.73769379 -0.18240106 1.8520302 1.7252138e-38
-0.70277208 -0.179281 1.8700007 1.7252138e-38
-0.67033017 -0.17570528 1.8730011 1.7252138e-38
-0.72807461 -0.14905456 1.8435261 1.7252138e-38
-0.70205641 -0.1400294 1.856768 1.7252138e-38
-0.66412336 -0.13824666 1.8688346 1.7252138e-38
-0.62938744 -0.12962353 1.8730009 1.7252138e-38
-0.69596785 -0.10496033 1.8467208 1.7252138e-38
-0.65912759 -0.10158217 1.855165 1.7252138e-38
-0.62353784 -0.09770485 1.8683788 1.7252138e-38
-0.59168959 -0.086158015 1.8730007 1.7252138e-38
-0.68419188 -0.075475246 1.8430001 1.7252138e-38
-0.64980161 -0.069784045 1.8469392 1.7252138e-38
-0.6205039 -0.060531668 1.8605189 1.7252138e-38
-0.58604449 -0.056114625 1.8705301 1.7252138e-38
-0.61182624 -0.027904369 1.8533627 1.7252138e-38
-0.58064502 -0.019107584 1.8613474 1.7252138e-38
-0.54050517 -0.014050364 1.869112 1.7252138e-38
-0.51908857 -0.016054286 1.8730001 1.7252138e-38
-0.57429767 0.0132928 1.8517667 1.7252138e-38
-0.5411756 0.019756731 1.8596678 1.7252138e-38
-0.5017575 0.024030019 1.8640125 1.7252138e-38
-0.53319907 0.053117536 1.8466767 1.7252138e-38
-0.5004831 0.059590142 1.8548752 1.7252138e-38
-0.52545446 0.092070214 1.8430003 1.7252138e-38
-0.49685529 0.097382098 1.8459706 1.7252138e-38
-0.47199312 0.10656694 1.8477219 1.7252138e-38
-0.45933962 0.14016865 1.8513993 1.7252138e-38
-0.43566495 0.15531296 1.849 1.7252138e-38
-0.44679466 0.17166092 1.8451872 1.7252138e-38
-0.4254564 0.18452133 1.8500446 1.7252138e-38
-0.44056481 0.20536286 1.8430002 1.7252138e-38
-0.4162021 0.2155288 1.8447081 1.7252138e-38
-0.39573872 0.228586 1.8430003 1.7252138e-38
-0.40370476 0.24046762 1.8430001 1.7252138e-38
-0.38692141 0.2625168 1.8435724 1.7252138e-38
-0.37449273 0.28910762 1.8490976 1.7252138e-38
-0.35894617 0.29400238 1.8430001 1.7252138e-38
-0.91823399 -0.031851728 1.6466546 1.7252138e-38
-0.86031169 0.06159801 1.6393179 1.7252138e-38
-1.0804819 -0.73054284 1.8940001 1.7252138e-38
-1.0206449 -0.62579852 1.8717769 1.7252138e-38
-0.99650532 -0.67940474 1.905784 1.7252138e-38
-1.0549889 -0.7023114 1.8879021 1.7252138e-38
-1.0190221 -0.69962209 1.9008051 1.7252138e-38
-0.99536133 -0.68551624 1.9137779 1.7252138e-38
-1.046754 -0.6738584 1.8885 1.7252138e-38
-1.0153918 -0.66275245 1.8870996 1.7252138e-38
-0.98391289 -0.65604347 1.9061496 1.7252138e-38
-0.95567167 -0.6461215 1.9140002 1.7252138e-38
-1.0066578 -0.63543785 1.8830003 1.7252138e-38
-0.97831523 -0.6210416 1.8920565 1.7252138e-38
-0.94828027 -0.61530507 1.9069867 1.7252138e-38
-0.96793383 -0.58529121 1.8851528 1.7252138e-38
-0.94097698 -0.57978648 1.8942704 1.7252138e-38
-0.90782958 -0.57074612 1.9064728 1.7252138e-38
-0.86995715 -0.57541192 1.9150001 1.7252138e-38
-0.93261695 -0.5446893 1.8855793 1.7252138e-38
-0.90164012 -0.53878587 1.8989699 1.7252138e-38
-0.8632015 -0.5307371 1.9135876 1.7252138e-38
-0.9235667 -0.50930667 1.8830001 1.7252138e-38
-0.8962428 -0.50094122 1.8850083 1.7252138e-38
-0.85944951 -0.49921045 1.9011018 1.7252138e-38
-0.83671099 -0.49943727 1.9111743 1.7252138e-38
-0.88945639 -0.47386467 1.8846923 1.7252138e-38
-0.85805619 -0.46150148 1.8896112 1.7252138e-38
-0.8260721 -0.45603505 1.9076627 1.7252138e-38
-0.86259329 -0.43127593 1.8830004 1.7252138e-38
-0.81714934 -0.42221022 1.8996973 1.7252138e-38
-0.79090816 -0.4185181 1.914464 1.7252138e-38
-0.81084567 -0.3814891 1.8893157 1.7252138e-38
-0.78399366 -0.37917736 1.9069743 1.7252138e-38
-0.8072989 -0.35388446 1.8830001 1.7252138e-38
-0.77789009 -0.34179133 1.8987863 1.7252138e-38
-0.74970847 -0.33668768 1.9140685 1.7252138e-38
-0.7712692 -0.30546463 1.8874928 1.7252138e-38
-0.7435441 -0.29825953 1.9044158 1.7252138e-38
-0.70078653 -0.29353473 1.9150008 1.7252138e-38
-0.76370394 -0.27335531 1.8830004 1.7252138e-38
-0.73655349 -0.26451275 1.893262 1.7252138e-38
-0.6990242 -0.25867385 1.9079649 1.7252138e-38
-0.66690123 -0.25429425 1.9147971 1.7252138e-38
-0.7292037 -0.23219399 1.8829998 1.7252138e-38
-0.70056367 -0.2234277 1.8932307 1.7252138e-38
-0.66236788 -0.21843009 1.9078343 1.7252138e-38
-0.63319349 -0.20708531 1.9150003 1.7252138e-38
-0.69581348 -0.18052888 1.8829999 1.7252138e-38
-0.65298349 -0.18158104 1.8937904 1.7252138e-38
-0.62265819 -0.17747729 1.9103909 1.7252138e-38
-0.59395403 -0.16353494 1.9150002 1.7252138e-38
-0.69402003 -0.15960667 1.8830001 1.7252138e-38
-0.64756101 -0.1499528 1.8862998 1.7252138e-38
-0.61565274 -0.14126018 1.8990992 1.7252138e-38
-0.58249927 -0.13658701 1.9120986 1.7252138e-38
-0.54440713 -0.12493096 1.9150001 1.7252138e-38
-0.60936588 -0.10927186 1.8882924 1.7252138e-38
-0.57777226 -0.10043363 1.9003282 1.7252138e-38
-0.54376405 -0.097090863 1.9115689 1.7252138e-38
-0.51403928 -0.087358423 1.9135338 1.7252138e-38
-0.56960499 -0.063729756 1.8900304 1.7252138e-38
-0.54004735 -0.059487913 1.8997608 1.7252138e-38
-0.50319576 -0.055989221 1.9057171 1.7252138e-38
-0.47534746 -0.051339947 1.9113336 1.7252138e-38
-0.56669343 -0.037660003 1.8830001 1.7252138e-38
-0.53945744 -0.029813901 1.8837028 1.7252138e-38
-0.50124085 -0.020899195 1.8929996 1.7252138e-38
-0.4767037 -0.030275919 1.9011431 1.7252138e-38
-0.52186006 0.0053800005 1.8830001 1.7252138e-38
-0.50992912 0.0063244109 1.8835789 1.7252138e-38
-0.81509739 0.036125068 1.6846292 1.7252138e-38
-0.7728864 -0.089962021 1.7710773 1.7252138e-38
-0.99530363 -0.76254362 1.9552501 1.7252138e-38
-1.0605834 -0.75625002 1.9250001 1.7252138e-38
-1.0136639 -0.74055022 1.9273511 1.7252138e-38
-0.98189181 -0.73708963 1.9472675 1.7252138e-38
-0.95032924 -0.72749019 1.9580001 1.7252138e-38
0.66097337 -0.75726289 1.9580001 1.7252138e-38
0.74547994 -0.75663322 1.9499998 1.7252138e-38
0.77943611 -0.75432646 1.949648 1.7252138e-38
0.827151 -0.75023437 1.9497098 1.7252138e-38
0.86055768 -0.74866021 1.9471235 1.7252138e-38
0.9000262 -0.74830234 1.9412438 1.7252138e-38
0.94055218 -0.74903208 1.9381025 1.7252138e-38
0.96622396 -0.74692518 1.946154 1.7252138e-38
-1.0071443 -0.7126236 1.9268332 1.7252138e-38
-0.9803046 -0.69969976 1.9352862 1.7252138e-38
-0.94418007 -0.69719952 1.9496297 1.7252138e-38
-0.91186857 -0.68623245 1.9580001 1.7252138e-38
-0.9709301 -0.6735844 1.9260998 1.7252138e-38
-0.93845284 -0.65993899 1.9319744 1.7252138e-38
-0.90294039 -0.65662235 1.9517661 1.7252138e-38
-0.87199134 -0.64735937 1.9580001 1.7252138e-38
-0.93137825 -0.6255874 1.9285011 1.7252138e-38
-0.90256697 -0.62159169 1.9412851 1.7252138e-38
-0.86437917 -0.61922169 1.950731 1.7252138e-38
-0.83727813 -0.60231811 1.9580001 1.7252138e-38
-0.92290014 -0.59509999 1.9250001 1.7252138e-38
-0.89674348 -0.58477527 1.9254301 1.7252138e-38
-0.8587572 -0.58023661 1.9360015 1.7252138e-38
-0.82775247 -0.57656389 1.9557695 1.7252138e-38
-0.88584936 -0.54991275 1.9249996 1.7252138e-38
-0.85558277 -0.54688281 1.9266585 1.7252138e-38
-0.82245791 -0.53937852 1.9474262 1.7252138e-38
-0.79542452 -0.52772766 1.9579999 1.7252138e-38
-0.84149998 -0.50416666 1.9250001 1.7252138e-38
-0.81908405 -0.5009647 1.9343241 1.7252138e-38
-0.79007643 -0.49606934 1.9530268 1.7252138e-38
-0.81076157 -0.46831137 1.9271572 1.7252138e-38
-0.77869797 -0.45943764 1.9419626 1.7252138e-38
-0.75252795 -0.45455185 1.9580001 1.7252138e-38
-0.71793336 -0.44754285 1.9580001 1.7252138e-38
-0.77386892 -0.42192447 1.9316229 1.7252138e-38
-0.74491405 -0.41762987 1.955323 1.7252138e-38
-0.71126533 -0.4131296 1.9580001 1.7252138e-38
-0.76532084 -0.38576141 1.93366 1.7252138e-38
-0.73958015 -0.37971333 1.9470996 1.7252138e-38
-0.70372838 -0.37806147 1.9535176 1.7252138e-38
-0.73207128 -0.34242177 1.9286215 1.7252138e-38
-0.69900572 -0.33996364 1.9436773 1.7252138e-38
-0.66716367 -0.32958168 1.9579999 1.7252138e-38
-0.72651345 -0.30851337 1.9249995 1.7252138e-38
-0.69485897 -0.30158055 1.9302237 1.7252138e-38
-0.66013545 -0.30064905 1.9502407 1.7252138e-38
-0.63305855 -0.29104048 1.9576206 1.7252138e-38
-0.69850004 -0.27622223 1.9250001 1.7252138e-38
-0.6532101 -0.26423615 1.9346976 1.7252138e-38
-0.62338686 -0.25871602 1.9487523 1.7252138e-38
-0.59295082 -0.24943033 1.9571853 1.7252138e-38
-0.64616668 -0.23083337 1.925 1.7252138e-38
-0.61950779 -0.22188282 1.939182 1.7252138e-38
-0.58320135 -0.2168518 1.9526739 1.7252138e-38
-0.54980642 -0.21041974 1.9579999 1.7252138e-38
-0.60980266 -0.18922487 1.9311873 1.7252138e-38
-0.57933247 -0.1806919 1.939894 1.7252138e-38
-0.53952724 -0.17782427 1.9483761 1.7252138e-38
-0.5013895 -0.17561832 1.9573774 1.7252138e-38
-0.57046032 -0.14943786 1.9317501 1.7252138e-38
-0.53891921 -0.14076462 1.9377327 1.7252138e-38
-0.50268823 -0.13888393 1.9461734 1.7252138e-38
-0.47666669 -0.12283334 1.9250001 1.7252138e-38
-0.53194219 -0.11099366 1.9310507 1.7252138e-38
-0.49854237 -0.10207646 1.93401 1.7252138e-38
-0.47629437 -0.094307631 1.9350001 1.7252138e-38
-0.49243978 -0.071947448 1.9316585 1.7252138e-38
-0.47510749 -0.070251599 1.9323332 1.7252138e-38
-0.79614443 -0.29131874 1.8603951 1.7252138e-38
-0.82889295 -0.41852936 1.8984202 1.7252138e-38
-0.83566022 -0.54872561 1.8590273 1.7252138e-38
-0.40162432 -0.68655562 1.8935001 1.7252138e-38
-0.64291596 -0.25861681 1.7541677 1.7252138e-38
-0.65311229 0.47923395 1.5867287 1.7252138e-38
0.6183781 -0.76962912 1.981966 1.7252138e-38
0.65152663 -0.76554531 1.9804446 1.7252138e-38
0.69996089 -0.7661562 1.9836668 1.7252138e-38
0.73170924 -0.76659667 1.989542 1.7252138e-38
0.99650162 -0.76472223 1.9690001 1.7252138e-38
-0.96803069 -0.75131834 1.9690005 1.7252138e-38
-0.93848544 -0.74297714 1.9738109 1.7252138e-38
-0.90382391 -0.73445928 1.9869996 1.7252138e-38
-0.87370729 -0.73273498 1.9920005 1.7252138e-38
0.66147447 -0.75286388 1.9833859 1.7252138e-38
0.7003867 -0.75199157 1.9899659 1.7252138e-38
0.74427128 -0.75266421 1.9871963 1.7252138e-38
0.78072542 -0.74449128 1.9844052 1.7252138e-38
0.82051218 -0.74042886 1.982964 1.7252138e-38
0.86158329 -0.73150909 1.9803199 1.7252138e-38
0.89969122 -0.73339152 1.9846457 1.7252138e-38
0.94024175 -0.73673606 1.9792634 1.7252138e-38
0.98033202 -0.73560905 1.9749756 1.7252138e-38
1.0158567 -0.7449218 1.9879994 1.7252138e-38
-0.92844021 -0.7059778 1.9690009 1.7252138e-38
-0.89969772 -0.70088279 1.9785163 1.7252138e-38
-0.86348879 -0.69517428 1.9897006 1.7252138e-38
0.8578248 -0.71838474 1.9920005 1.7252138e-38
0.89734858 -0.71854281 1.9920003 1.7252138e-38
0.95349008 -0.71772432 1.9845003 1.7252138e-38
0.98067802 -0.71499074 1.9868997 1.7252138e-38
1.0153583 -0.71550542 1.990286 1.7252138e-38
-0.89628887 -0.67171019 1.9690005 1.7252138e-38
-0.85814106 -0.66124016 1.9749699 1.7252138e-38
-0.83334863 -0.64991093 1.9872003 1.7252138e-38
-0.84742612 -0.6275999 1.9690007 1.7252138e-38
-0.82164598 -0.61797786 1.9756685 1.7252138e-38
-0.79583848 -0.60466784 1.990286 1.7252138e-38
-0.81004333 -0.5824638 1.9704436 1.7252138e-38
-0.78922826 -0.57731706 1.9835142 1.7252138e-38
-0.75696003 -0.56345147 1.9920001 1.7252138e-38
-0.80281037 -0.55027825 1.9690001 1.7252138e-38
-0.7789337 -0.54155403 1.9761299 1.7252138e-38
-0.74630296 -0.53307933 1.989431 1.7252138e-38
-0.77338117 -0.5062542 1.9705794 1.7252138e-38
-0.74282724 -0.49795681 1.9826416 1.7252138e-38
-0.71453297 -0.49325714 1.9920005 1.7252138e-38
-0.73912388 -0.46341231 1.9730653 1.7252138e-38
-0.70460916 -0.4561992 1.9865563 1.7252138e-38
-0.7290926 -0.42455393 1.9690002 1.7252138e-38
-0.69671893 -0.42187482 1.9825426 1.7252138e-38
-0.67133576 -0.41142711 1.9920006 1.7252138e-38
-0.68692625 -0.38390139 1.9761519 1.7252138e-38
-0.6640833 -0.37626624 1.9881207 1.7252138e-38
-0.63364571 -0.36235431 1.9920001 1.7252138e-38
-0.68164909 -0.35535765 1.9690001 1.7252138e-38
-0.65643144 -0.34371457 1.9769059 1.7252138e-38
-0.62508208 -0.33651912 1.989659 1.7252138e-38
-0.64314735 -0.31625527 1.9726667 1.7252138e-38
-0.61742836 -0.30202881 1.9808302 1.7252138e-38
-0.58338475 -0.29206839 1.9913564 1.7252138e-38
-0.55607367 -0.29173842 1.9920003 1.7252138e-38
-0.60852426 -0.27387419 1.9741334 1.7252138e-38
-0.57784492 -0.26192525 1.9821713 1.7252138e-38
-0.54237217 -0.25709584 1.9872561 1.7252138e-38
-0.51354206 -0.24619077 1.9920005 1.7252138e-38
-0.5706625 -0.23162925 1.9719338 1.7252138e-38
-0.53680044 -0.22267532 1.9770314 1.7252138e-38
-0.50503945 -0.21786848 1.9873984 1.7252138e-38
-0.52697098 -0.19406016 1.9723846 1.7252138e-38
-0.50745291 -0.18604197 1.9716556 1.7252138e-38
-0.49431276 -0.15339449 1.9690001 1.7252138e-38
-0.038575243 0.34464765 1.9920001 1.7252138e-38
-0.63784218 0.21784475 1.7204391 1.7252138e-38
-0.59192008 0.21273938 1.7481554 1.7252138e-38
-0.7743212 -0.39262068 1.9118736 1.7252138e-38
0.40767106 -0.75875604 2.014643 1.7252138e-38
-0.5438965 -0.71301281 2.0055568 1.7252138e-38
-0.54118669 -0.5574702 1.9994806 1.7252138e-38
-0.4984611 -0.4496426 1.9975832 1.7252138e-38
-0.31727368 -0.46171632 1.9951522 1.7252138e-38
-0.4779979 -0.42058378 1.8888025 1.7252138e-38
-0.34627923 -0.45359835 1.9008367 1.7252138e-38
-0.20396735 -0.49998683 1.9348476 1.7252138e-38
-0.42035177 -0.096353695 1.8234562 1.7252138e-38
-0.43959698 0.16374663 1.7798556 1.7252138e-38
-0.45885903 0.40947023 1.739592 1.7252138e-38
-0.37339225 0.52847004 1.7374256 1.7252138e-38
-0.28323933 0.68702352 1.7272139 1.7252138e-38
-0.91529942 -0.69744366 1.9579635 1.7252138e-38
-0.89949346 -0.75092191 1.9981872 1.7252138e-38
-0.86173058 -0.77604574 2.0261812 1.7252138e-38
-0.83501905 -0.77287811 2.0389998 1.7252138e-38
-0.054373324 -0.79423892 2.0390005 1.7252138e-38
-0.029430626 -0.77974784 2.0307069 1.7252138e-38
0.00020683292 -0.76919287 2.0289083 1.7252138e-38
0.065520719 -0.79501331 2.0385003 1.7252138e-38
0.10312521 -0.78610951 2.0316048 1.7252138e-38
0.10692054 -0.7400251 2.0167861 1.7252138e-38
0.14458513 -0.72497934 2.0132835 1.7252138e-38
0.22055727 -0.78667748 2.0272691 1.7252138e-38
0.23204024 -0.76639122 2.0207131 1.7252138e-38
0.20889944 -0.73777193 1.9987763 1.7252138e-38
0.19810212 -0.67581511 1.9799424 1.7252138e-38
0.35849369 -0.7678327 2.016361 1.7252138e-38
0.42123371 -0.77594393 2.0195148 1.7252138e-38
0.45837104 -0.77242005 2.0169592 1.7252138e-38
0.50145823 -0.77204233 2.0159132 1.7252138e-38
0.54083151 -0.77258849 2.0118566 1.7252138e-38
0.57834929 -0.77353448 2.0128617 1.7252138e-38
0.61965507 -0.76412213 2.0056663 1.7252138e-38
0.64516401 -0.76433659 2.0054002 1.7252138e-38
0.7069636 -0.76495522 2.003 1.7252138e-38
0.73252571 -0.76495522 2.003 1.7252138e-38
-0.89429182 -0.74931288 2.0029993 1.7252138e-38
-0.85725349 -0.74176556 2.0122392 1.7252138e-38
-0.82721782 -0.73413283 2.0336673 1.7252138e-38
0.38887528 -0.75864321 2.0372858 1.7252138e-38
0.41922739 -0.75874716 2.0338573 1.7252138e-38
0.45397669 -0.75896955 2.033 1.7252138e-38
0.53873622 -0.75767165 2.0274448 1.7252138e-38
0.58241689 -0.75410038 2.021857 1.7252138e-38
0.62561464 -0.7500717 2.02179 1.7252138e-38
0.66065633 -0.7415272 2.0225163 1.7252138e-38
0.70024627 -0.74227619 2.0215814 1.7252138e-38
0.7393918 -0.73857576 2.0204437 1.7252138e-38
0.77739364 -0.73167676 2.0167143 1.7252138e-38
0.81227189 -0.72757703 2.0133631 1.7252138e-38
0.85092866 -0.72160995 2.0170002 1.7252138e-38
0.90371269 -0.72265071 2.0224288 1.7252138e-38
0.94039142 -0.72461063 2.021894 1.7252138e-38
0.96253747 -0.72691965 2.039 1.7252138e-38
1.0312126 -0.74321991 2.0029993 1.7252138e-38
1.0471634 -0.73087633 2.0143681 1.7252138e-38
-0.88322765 -0.71535712 2.003 1.7252138e-38
-0.85314375 -0.70530742 2.003217 1.7252138e-38
-0.8208968 -0.69882113 2.0181673 1.7252138e-38
-0.79233247 -0.69108838 2.0334291 1.7252138e-38
-0.75151718 -0.68160862 2.039 1.7252138e-38
0.79108971 -0.71316242 2.0326469 1.7252138e-38
0.8202545 -0.71033937 2.0253451 1.7252138e-38
0.86131597 -0.70722377 2.0267949 1.7252138e-38
0.89995408 -0.70518023 2.0324943 1.7252138e-38
0.94214839 -0.70120209 2.0293994 1.7252138e-38
0.97763306 -0.6998986 2.0208368 1.7252138e-38
1.0176764 -0.699727 2.025655 1.7252138e-38
1.0489923 -0.70464659 2.0289359 1.7252138e-38
-0.8439852 -0.67338955 2.0030003 1.7252138e-38
-0.81822735 -0.66219789 2.0097661 1.7252138e-38
-0.78192657 -0.65748674 2.0233481 1.7252138e-38
-0.7441656 -0.65400583 2.0390005 1.7252138e-38
0.95752287 -0.67495024 2.0230002 1.7252138e-38
0.97256196 -0.67466974 2.0320773 1.7252138e-38
1.0136743 -0.67772478 2.039 1.7252138e-38
-0.80895483 -0.63191807 2.0035214 1.7252138e-38
-0.7797296 -0.62133598 2.0149996 1.7252138e-38
-0.73948383 -0.61883301 2.0343034 1.7252138e-38
-0.71267909 -0.61034083 2.0390003 1.7252138e-38
-0.77181965 -0.58301497 2.005482 1.7252138e-38
-0.74067777 -0.57997775 2.016031 1.7252138e-38
-0.7078445 -0.57700682 2.0323851 1.7252138e-38
-0.76495522 -0.55511719 2.003 1.7252138e-38
-0.73862302 -0.54293293 2.0031643 1.7252138e-38
-0.70390749 -0.53846955 2.0208094 1.7252138e-38
-0.73582071 -0.51557744 2.0030003 1.7252138e-38
-0.69613063 -0.50030625 2.0149996 1.7252138e-38
-0.66251624 -0.49775371 2.0381119 1.7252138e-38
-0.68944925 -0.46852642 2.005666 1.7252138e-38
-0.65993696 -0.45939001 2.0202034 1.7252138e-38
-0.63112843 -0.45246074 2.037972 1.7252138e-38
-0.68101996 -0.43302953 2.003 1.7252138e-38
-0.65631282 -0.42306855 2.0049539 1.7252138e-38
-0.62234503 -0.41809466 2.028513 1.7252138e-38
-0.58468229 -0.40872872 2.0390003 1.7252138e-38
1.0563962 -0.40197429 2.039 1.7252138e-38
-0.64859051 -0.3867698 2.0029993 1.7252138e-38
-0.61893815 -0.38058421 2.0160153 1.7252138e-38
-0.57876819 -0.37860939 2.0358164 1.7252138e-38
-0.54632252 -0.37397844 2.039001 1.7252138e-38
1.0563962 -0.39809048 2.039 1.7252138e-38
-0.60828978 -0.34595564 2.0063479 1.7252138e-38
-0.57958204 -0.33995375 2.0141437 1.7252138e-38
-0.54077041 -0.3397145 2.0296543 1.7252138e-38
-0.51354659 -0.33257285 2.037667 1.7252138e-38
1.0524025 -0.33629987 2.0377147 1.7252138e-38
-0.57979947 -0.31031904 2.0029988 1.7252138e-38
-0.5394814 -0.30116221 2.0159898 1.7252138e-38
-0.50544327 -0.29753217 2.0326924 1.7252138e-38
-0.47240072 -0.28701356 2.0389998 1.7252138e-38
1.0374683 -0.29142669 2.0293999 1.7252138e-38
1.0436454 -0.29964396 2.0250912 1.7252138e-38
-0.52902937 -0.27064773 2.0077996 1.7252138e-38
-0.49776733 -0.26146969 2.0172856 1.7252138e-38
-0.46881881 -0.269759 2.0273874 1.7252138e-38
1.0320463 -0.25547972 2.0358579 1.7252138e-38
1.0458949 -0.2614361 2.0277505 1.7252138e-38
-0.49235004 -0.23428124 2.0073636 1.7252138e-38
1.0235965 -0.22684866 2.0247023 1.7252138e-38
1.046617 -0.23110096 2.0291181 1.7252138e-38
-0.04387524 0.35481715 2.0030003 1.7252138e-38
-0.026242455 0.34802228 2.0283957 1.7252138e-38
-0.04304143 0.36257955 2.0090001 1.7252138e-38
-0.018188549 0.38016602 2.0356345 1.7252138e-38
0.0073454655 0.38897195 2.0390003 1.7252138e-38
-0.0087890392 0.41537184 2.0331399 1.7252138e-38
0.017320812 0.42191702 2.0339475 1.7252138e-38
0.042333525 0.43382153 2.039 1.7252138e-38
0.0096523827 0.44207913 2.0270002 1.7252138e-38
-0.64107138 0.021087065 1.8033125 1.7252138e-38
-0.71213692 -0.2988745 1.9103763 1.7252138e-38
-0.72509229 -0.50023735 1.9905305 1.7252138e-38
-0.78705502 -0.80408889 2.0760002 1.7252138e-38
-0.68532658 -0.76810795 2.0354517 1.7252138e-38
-0.61764419 -0.75368339 2.0430257 1.7252138e-38
-0.62874377 -0.64140838 2.0125251 1.7252138e-38
-0.53761864 -0.65131336 2.0313003 1.7252138e-38
-0.45515636 -0.68742514 2.0469439 1.7252138e-38
-0.40342909 -0.68548244 2.0471463 1.7252138e-38
-0.36695129 -0.71274573 2.027169 1.7252138e-38
-0.20730126 -0.77554262 2.0439327 1.7252138e-38
-0.13203494 -0.79425329 2.0530753 1.7252138e-38
-0.042156078 -0.7764625 2.0294497 1.7252138e-38
-0.26596579 -0.76986635 2.0463912 1.7252138e-38
-0.22948277 -0.76475054 2.041245 1.7252138e-38
-0.17059301 -0.74468732 2.0455167 1.7252138e-38
-0.073575556 -0.80412221 2.0510001 1.7252138e-38
-0.025393335 -0.80282003 2.0510001 1.7252138e-38
-0.85249066 -0.79482061 2.0509999 1.7252138e-38
-0.82000816 -0.78021705 2.0605011 1.7252138e-38
-0.78178298 -0.77788448 2.0737529 1.7252138e-38
-0.75651908 -0.77825946 2.0749168 1.7252138e-38
-0.36972573 -0.79678869 2.0760002 1.7252138e-38
-0.34204575 -0.7961297 2.0760002 1.7252138e-38
-0.29757577 -0.79707569 2.0747001 1.7252138e-38
-0.24978583 -0.79545629 2.069643 1.7252138e-38
-0.21934181 -0.79427016 2.0630364 1.7252138e-38
-0.17989406 -0.79524803 2.0671675 1.7252138e-38
-0.13954824 -0.78913569 2.0659332 1.7252138e-38
-0.10062841 -0.79309803 2.0673292 1.7252138e-38
-0.058978703 -0.78245997 2.0597227 1.7252138e-38
-0.021302555 -0.78766876 2.0605156 1.7252138e-38
0.022345398 -0.78180677 2.0625277 1.7252138e-38
0.056349557 -0.78370506 2.0612175 1.7252138e-38
0.098605983 -0.77315706 2.0631616 1.7252138e-38
0.14046621 -0.7704162 2.0650687 1.7252138e-38
0.18086824 -0.77070439 2.0674944 1.7252138e-38
0.21955383 -0.76953471 2.0631588 1.7252138e-38
0.26000518 -0.76783979 2.0627434 1.7252138e-38
0.30080262 -0.76510245 2.0568609 1.7252138e-38
0.34002039 -0.76513994 2.0582716 1.7252138e-38
0.37229472 -0.76431936 2.0564997 1.7252138e-38
0.42246068 -0.76121056 2.0599999 1.7252138e-38
0.46153429 -0.7644338 2.0528467 1.7252138e-38
0.49764043 -0.76536191 2.0510004 1.7252138e-38
0.52544671 -0.76375335 2.0510001 1.7252138e-38
0.61204451 -0.76440448 2.0510004 1.7252138e-38
-0.84188676 -0.75203341 2.0510001 1.7252138e-38
-0.8153246 -0.74530125 2.0531826 1.7252138e-38
-0.7796132 -0.7379449 2.0625384 1.7252138e-38
-0.75448835 -0.73475593 2.0728002 1.7252138e-38
0.13929872 -0.75688642 2.0760002 1.7252138e-38
0.17398858 -0.75428021 2.0760002 1.7252138e-38
0.22144003 -0.75576288 2.0760002 1.7252138e-38
0.27345908 -0.752253 2.0717335 1.7252138e-38
0.29863524 -0.75023019 2.0697517 1.7252138e-38
0.33884093 -0.75246269 2.0712738 1.7252138e-38
0.38183659 -0.75056934 2.0663767 1.7252138e-38
0.42008328 -0.74828809 2.0668931 1.7252138e-38
0.45999193 -0.74403417 2.0610611 1.7252138e-38
