# .PCD v0.7 - Point Cloud Data file format
VERSION 0.7
FIELDS x y z rgb
SIZE 4 4 4 4
TYPE F F F F
COUNT 1 1 1 1
WIDTH 214
HEIGHT 1
VIEWPOINT 0 0 0 1 0 0 0
POINTS 214
DATA ascii
-0.047875375 0.11618684 0.46210641 7.4552329e-39
-0.025852377 0.1157018 0.46043545 1.0956146e-38
-0.046635441 0.12991235 0.47127119 6.9946149e-39
-0.027487775 0.13017045 0.47093999 9.9427143e-39
-0.057627987 0.14692964 0.494003 7.5477915e-39
-0.017578281 0.14658627 0.49090543 1.2890453e-38
0.00070880959 0.13783523 0.49775004 1.8511497e-38
-0.051680434 0.17476353 0.50802916 7.0875336e-39
-0.023021415 0.17551084 0.50723583 9.9427129e-39
0.00049428578 0.16459715 0.51900005 1.7220768e-38
-0.049383044 0.19616157 0.52259368 7.0871763e-39
-0.010669933 0.190524 0.52655375 1.2614587e-38
0.0024412365 0.1847149 0.53625953 1.6575756e-38
-0.050220247 0.2088023 0.53683734 7.0886168e-39
-0.021282224 0.21478979 0.54169899 8.4690247e-39
0.0035808415 0.20530435 0.55198348 1.501023e-38
-0.0064360788 0.22611935 0.56035292 1.1324217e-38
0.0060948581 0.23310702 0.588 1.3995359e-38
0.024571549 0.19625327 0.6376335 1.4730033e-38
0.027767895 0.22127672 0.62379038 1.5837467e-38
0.046007015 0.22456497 0.63464344 1.6206614e-38
-0.0033757051 0.26623303 0.61272568 6.5336452e-39
0.020214681 0.25647643 0.62098497 1.1507879e-38
0.045208607 0.24845374 0.63490784 1.3810971e-38
0.23195794 0.27221829 0.63630098 9.1115159e-39
0.24741575 0.27235568 0.63695204 1.2522394e-38
0.22764111 0.28293979 0.63621777 8.836724e-39
0.25257578 0.28287286 0.63658899 1.2523469e-38
0.015390667 0.15972666 0.67900002 1.3351789e-38
0.027135419 0.17855462 0.65556973 1.4729673e-38
0.058168106 0.18322329 0.66248578 1.6757258e-38
0.087083086 0.19065666 0.67366177 1.8785563e-38
0.039233334 0.20104414 0.64033341 1.5560517e-38
0.064397745 0.21762711 0.6492613 1.7312598e-38
0.090448752 0.21954559 0.66980636 1.7865411e-38
0.23134677 0.23800133 0.67652011 1.2705687e-38
0.25518951 0.23686938 0.67482781 1.5009854e-38
0.036193769 0.27151585 0.64137501 8.0069676e-39
0.062410403 0.25930321 0.6551187 1.1692626e-38
0.085994825 0.25166306 0.67026585 1.2521663e-38
0.18797596 0.26730078 0.66659153 1.0309323e-38
0.21840642 0.25711808 0.65520501 1.0770303e-38
0.26114243 0.25632128 0.65324235 1.6116933e-38
0.29522279 0.26316306 0.66473299 2.0359017e-38
0.32139635 0.27612132 0.67662507 2.1282774e-38
0.05963812 0.28462046 0.66264248 5.5248854e-39
0.15886444 0.29848284 0.67899996 8.00552e-39
0.17839552 0.28833041 0.66328073 8.5590553e-39
0.20849423 0.2841419 0.64263827 8.3757459e-39
0.27246013 0.28461155 0.64318383 1.6026178e-38
0.30159625 0.28845882 0.6591168 1.8699134e-38
0.32322752 0.29128596 0.67620414 2.0543045e-38
0.031959068 0.15820442 0.69853467 1.3533658e-38
0.061378088 0.15431383 0.70314896 1.5189934e-38
0.093508303 0.15446413 0.71003515 1.795472e-38
0.026430296 0.16238864 0.68701732 1.3900278e-38
0.064726681 0.16442925 0.68505496 1.6387035e-38
0.10218485 0.17696236 0.69426042 1.9153984e-38
0.13045301 0.1850756 0.71060729 2.0259614e-38
0.11010595 0.21895146 0.68802983 1.7496985e-38
0.13209102 0.21701497 0.70695674 1.6390641e-38
0.18504356 0.22682197 0.71174175 1.1414585e-38
0.21887854 0.22339216 0.70279193 1.2888998e-38
0.25932756 0.22407778 0.70053959 1.5561948e-38
0.29494712 0.23139767 0.7041806 1.8880995e-38
0.32170445 0.23820542 0.7166667 2.1002216e-38
0.074044451 0.27696508 0.68000001 7.3605122e-39
0.1053239 0.25500497 0.69470298 9.5728443e-39
0.14887634 0.26416549 0.7090342 8.2824657e-39
0.17534326 0.25520676 0.69553351 1.049299e-38
0.20607127 0.24218343 0.68396646 1.1507499e-38
0.27847618 0.24026667 0.68000001 1.7498425e-38
0.30804488 0.24855484 0.68921441 2.0541961e-38
0.33130297 0.26280835 0.70095783 2.06356e-38
0.11900845 0.31467754 0.717125 5.8882674e-39
0.14084005 0.29662612 0.70028818 7.6367375e-39
0.16210189 0.2831935 0.68175006 9.2036975e-39
0.34077978 0.29543772 0.69429612 1.9805117e-38
0.11813428 0.32026002 0.71700001 6.3474504e-39
0.039158478 0.15705106 0.73159999 1.3902436e-38
0.06296809 0.14588833 0.73179549 1.4638559e-38
0.10209973 0.14354219 0.73847091 1.7217872e-38
0.13839532 0.14862534 0.74623191 1.7954355e-38
0.17843637 0.15342543 0.75442696 1.6665058e-38
0.20887546 0.15748191 0.75658005 1.7495176e-38
0.039845716 0.16008192 0.73400003 1.3994269e-38
0.14666137 0.17484033 0.73051125 1.8599726e-38
0.18033494 0.18039553 0.73740911 1.3440735e-38
0.21919958 0.1809103 0.7395795 1.6757615e-38
0.25711599 0.18879288 0.7447558 1.7679214e-38
0.28700763 0.19511804 0.75282425 1.9245818e-38
0.15377824 0.2247359 0.72929621 6.9002585e-39
0.17322712 0.21156678 0.72535729 1.095397e-38
0.22462501 0.2031751 0.72269291 1.5099535e-38
0.26195526 0.20620579 0.72661972 1.6759053e-38
0.30053592 0.21445504 0.73621213 1.9524921e-38
0.33362222 0.22925483 0.74425262 2.0540157e-38
0.11910477 0.27979046 0.74000001 3.4011504e-39
0.13894552 0.26063374 0.72965038 5.5191247e-39
0.34859455 0.25413603 0.73408359 2.0635238e-38
0.36857712 0.26204446 0.74817681 1.9897674e-38
0.10844129 0.30395001 0.7396217 5.059227e-39
0.1254074 0.2892223 0.72637486 5.5191219e-39
0.35802466 0.28320724 0.72588897 2.0453724e-38
0.36478567 0.28378123 0.73005885 1.9713645e-38
0.10003109 0.32610175 0.74258208 6.5329109e-39
0.39646673 0.07929334 0.79800004 1.1785198e-38
0.11566678 0.11934381 0.79033333 1.4915146e-38
0.13883574 0.11802403 0.79290336 1.5375759e-38
0.16956261 0.11842856 0.79589677 1.6389543e-38
0.39249307 0.10296061 0.79698658 7.3688135e-39
0.074194491 0.13922428 0.77193218 1.4824385e-38
0.10172938 0.12905483 0.77407414 1.5099533e-38
0.1409885 0.12868415 0.77193117 1.6388829e-38
0.18037462 0.13375287 0.77518958 1.7494813e-38
0.21755369 0.14500868 0.77861601 1.8324214e-38
0.24952285 0.1547392 0.78830534 1.7770323e-38
0.3941935 0.12677017 0.79659384 4.697294e-39
0.23355278 0.1620405 0.76275009 1.8875953e-38
0.26306194 0.17024507 0.77301902 1.8047275e-38
0.29902521 0.1837007 0.780972 1.8509691e-38
0.32877123 0.19424543 0.79051399 1.9341254e-38
0.31366596 0.20406385 0.7638948 1.980007e-38
0.34226763 0.21380022 0.7731474 2.0354687e-38
0.37649873 0.22786658 0.78256005 1.9894792e-38
0.40052003 0.228 0.79800004 1.9247989e-38
0.35973337 0.24102859 0.76000005 2.0909304e-38
0.37745532 0.24614646 0.76538432 1.9988067e-38
0.079180002 0.31893998 0.77700001 7.4534253e-39
0.089610957 0.31376204 0.76450002 6.7180238e-39
0.077518739 0.34383869 0.78688896 8.008041e-39
0.084982648 0.3325586 0.77182519 7.5474244e-39
0.39292854 -0.0068338909 0.83472496 5.8025653e-39
0.40815094 -0.017622642 0.83166832 8.1042051e-39
0.38358495 0.022512777 0.82525343 1.1139455e-38
0.40441197 0.016550124 0.81734008 9.2969903e-39
0.35545397 0.067354254 0.83387911 9.8512333e-39
0.37863621 0.059746094 0.8135156 1.0311497e-38
0.40129271 0.055177089 0.80384618 1.206106e-38
0.10846096 0.1199181 0.80200005 1.380845e-38
0.14661072 0.11410254 0.80526304 1.500698e-38
0.18060561 0.11391092 0.809017 1.5836382e-38
0.20633771 0.11665416 0.82208091 1.5928923e-38
0.35356241 0.09970405 0.83011657 8.3779039e-39
0.37450868 0.099022619 0.80734473 7.2737269e-39
0.40000007 0.092081644 0.80000013 1.0869718e-38
0.10419976 0.12231961 0.80173343 1.4269069e-38
0.19497572 0.12093379 0.80283332 1.7309703e-38
0.22201826 0.13000631 0.80851966 1.6941633e-38
0.26241156 0.1503946 0.81368107 1.6112595e-38
0.29681167 0.15693201 0.83159453 1.4362681e-38
0.35299483 0.13550825 0.83508605 8.5604931e-39
0.37796572 0.13951048 0.81558537 6.7191098e-39
0.40367427 0.15064093 0.81059992 7.3662897e-39
0.27761853 0.16077171 0.80114293 1.7034913e-38
0.30533874 0.16716203 0.81389368 1.6205875e-38
0.34005931 0.17834029 0.82145059 1.7959036e-38
0.37485564 0.19019385 0.82921934 1.8881716e-38
0.40489206 0.16112494 0.81372732 1.5763617e-38
0.35468069 0.2034166 0.80352938 2.0447601e-38
0.38319427 0.2097766 0.81257999 1.9249781e-38
0.40807489 0.21266428 0.82462597 1.9065746e-38
0.38846567 -0.048285279 0.86532778 3.0399419e-39
0.41371918 -0.056206025 0.85366297 3.8686193e-39
0.35594079 -0.0063674361 0.87423396 8.466508e-39
0.37969303 -0.020281155 0.85883272 3.776781e-39
0.40858424 -0.035305772 0.84496671 5.9862293e-39
0.35079899 0.026795208 0.86589289 1.1415316e-38
0.36697698 0.013275546 0.85351628 7.2730053e-39
0.34342957 0.059643276 0.85839522 1.0587356e-38
0.36176354 0.042717464 0.84100002 9.7597523e-39
0.31704605 0.11268301 0.87319338 1.224399e-38
0.3343471 0.10036908 0.85665494 1.0955413e-38
0.23998667 0.13295428 0.87800002 1.3532569e-38
0.26356661 0.13901378 0.86262721 1.3626561e-38
0.30301249 0.13952082 0.85836035 1.2613488e-38
0.33592567 0.14007841 0.84517074 1.1231274e-38
0.36723265 0.15742302 0.84125781 1.0861054e-38
0.35415444 0.16507342 0.84159994 1.473363e-38
0.38123906 0.17530313 0.84706664 1.7129997e-38
0.41268528 0.19222699 0.8620069 1.8051233e-38
0.44150859 0.19984953 0.87800002 1.6669381e-38
0.4236159 0.20298086 0.85423738 1.759026e-38
0.44083336 0.20083335 0.87500006 1.6761577e-38
0.35527807 -0.042265154 0.89711761 3.4080055e-39
0.38094831 -0.054700505 0.88513595 3.1324962e-39
0.40218174 -0.069629304 0.88246161 3.500913e-39
0.35083875 -0.018060919 0.89421487 6.9038626e-39
0.36413985 -0.03220509 0.88515657 3.0399391e-39
0.33836049 0.01788044 0.8905552 1.0494085e-38
0.31841692 0.064135581 0.91564286 1.0311832e-38
0.32842511 0.058632456 0.89800644 1.049768e-38
0.23344764 0.11780125 0.89670587 1.6122362e-38
0.26312885 0.11830132 0.90281105 1.3810986e-38
0.30714023 0.10540477 0.89920425 1.2153237e-38
0.32220453 0.086124219 0.88703853 1.21536e-38
0.23371965 0.12532383 0.88980323 1.362513e-38
0.26099911 0.12599236 0.89009351 1.3166668e-38
0.29280317 0.12479446 0.88729882 1.279788e-38
0.43015805 0.19295263 0.88474995 1.7129638e-38
0.4494023 0.19418973 0.90337962 1.5747424e-38
0.35886192 -0.041852385 0.93500006 4.6908242e-39
0.36252493 -0.043016352 0.9345001 3.776072e-39
0.35050207 -0.027100297 0.92262876 3.8679005e-39
0.36126095 -0.039942861 0.93200004 3.5927527e-39
0.33138624 0.025046997 0.92524558 5.4345003e-39
0.31980953 0.076228574 0.92000002 8.2007265e-39
0.32283875 0.056260824 0.92114294 4.8834817e-39
0.31267422 0.094946757 0.92308342 1.0588437e-38
0.064726681 0.16442925 0.68505496 1.6387035e-38
0.012342758 0.2759479 0.78553247 1.2986605e-38
-0.1300187 0.21058975 0.74819207 1.2525993e-38
0.13616879 0.2161759 0.68541265 1.2705336e-38
-0.072301634 0.21697515 0.78918403 1.2525991e-38
