# .PCD v0.7 - Point Cloud Data file format
VERSION 0.7
FIELDS x y z rgb
SIZE 4 4 4 4
TYPE F F F F
COUNT 1 1 1 1
WIDTH 439
HEIGHT 1
VIEWPOINT 0 0 0 1 0 0 0
POINTS 439
DATA ascii
-0.28969008 -0.16612792 0.54477382 1.98003e-38
-0.22326322 -0.17248695 0.54640627 1.98003e-38
-0.28995681 -0.15505986 0.55014396 1.98003e-38
-0.2114251 -0.15348832 0.55010766 1.98003e-38
-0.24749775 0.031788696 0.55669969 1.98003e-38
-0.23825994 0.036410287 0.55728 1.98003e-38
-0.32623529 -0.22140783 0.59549505 1.98003e-38
-0.31207269 -0.21281625 0.59233612 1.98003e-38
0.06795378 -0.20533787 0.59900004 1.98003e-38
-0.28786534 -0.16974077 0.57156986 1.98003e-38
-0.27525648 -0.16740084 0.56322992 1.98003e-38
-0.082646802 -0.16788404 0.57198644 1.98003e-38
-0.073987417 -0.17500205 0.57034981 1.98003e-38
0.062488258 -0.18502232 0.59754914 1.98003e-38
-0.28878471 -0.15039578 0.5713129 1.98003e-38
-0.27444834 -0.15652329 0.56157142 1.98003e-38
-0.208 -0.15626666 0.56 1.98003e-38
-0.081714287 -0.15961525 0.57200003 1.98003e-38
-0.078760967 -0.15915017 0.57033342 1.98003e-38
0.071669109 -0.12281542 0.59072733 1.98003e-38
0.083571486 -0.12284894 0.59800005 1.98003e-38
-0.32854468 -0.10182423 0.58637494 1.98003e-38
-0.31080881 -0.089247063 0.57987732 1.98003e-38
0.074919887 -0.116156 0.59098035 1.98003e-38
0.080986105 -0.11637505 0.59140009 1.98003e-38
-0.30367932 -0.073636428 0.56549394 1.98003e-38
-0.30331022 -0.0015777594 0.57503933 1.98003e-38
-0.3220332 0.0058233337 0.59183335 1.98003e-38
-0.29975379 0.0089677703 0.57925361 1.98003e-38
-0.2577031 0.018292857 0.56579494 1.98003e-38
-0.23477133 0.027826868 0.56261921 1.98003e-38
-0.33068746 0.077330887 0.59773684 1.98003e-38
-0.32502005 0.10116458 0.59620005 1.98003e-38
-0.3127712 0.11770368 0.59819984 1.98003e-38
-0.31230259 0.12050477 0.59885716 1.98003e-38
-0.36440778 -0.2221853 0.63877779 1.98003e-38
-0.33775467 -0.21990769 0.60565776 1.98003e-38
-0.3168833 -0.22813091 0.60343903 1.98003e-38
0.068325177 -0.20709498 0.60333985 1.98003e-38
0.082469217 -0.20994672 0.60765922 1.98003e-38
-0.33584762 -0.19977143 0.60800004 1.98003e-38
0.064596266 -0.18922132 0.60182744 1.98003e-38
0.07863076 -0.12536132 0.60061538 1.98003e-38
0.089661382 -0.13106099 0.60942501 1.98003e-38
-0.36320597 -0.082029052 0.63800007 1.98003e-38
-0.35158712 -0.083431304 0.6302768 1.98003e-38
0.093478717 -0.11709906 0.60298181 1.98003e-38
-0.36111993 -0.068320416 0.63742864 1.98003e-38
-0.35443053 -0.072570436 0.63375789 1.98003e-38
-0.25965714 -0.040977146 0.63900006 1.98003e-38
-0.26408011 -0.034419693 0.63829041 1.98003e-38
-0.3368524 0.027600156 0.62577629 1.98003e-38
-0.31407714 0.027044753 0.63135922 1.98003e-38
-0.33865026 0.058821365 0.61150283 1.98003e-38
-0.31888381 0.066337138 0.611 1.98003e-38
-0.3389129 0.10992461 0.60709107 1.98003e-38
-0.31906003 0.11839334 0.60200006 1.98003e-38
-0.33710644 0.12236311 0.60620594 1.98003e-38
-0.31510383 0.12555684 0.60216141 1.98003e-38
-0.36308569 -0.22148277 0.64087498 1.98003e-38
-0.25507888 -0.16687563 0.66998369 1.98003e-38
-0.25805977 -0.13850014 0.67026883 1.98003e-38
-0.36528859 -0.084798694 0.64112502 1.98003e-38
-0.36014509 -0.06172096 0.64166677 1.98003e-38
-0.3555246 -0.064408354 0.64251757 1.98003e-38
-0.25589627 -0.042276669 0.64127779 1.98003e-38
-0.25720116 -0.028123572 0.64758921 1.98003e-38
-0.1730614 -0.2490589 0.70098066 1.98003e-38
-0.17324477 -0.23898192 0.71900004 1.98003e-38
-0.25946668 -0.13186499 0.68542439 1.98003e-38
-0.39041996 -0.055526163 0.71859998 1.98003e-38
-0.20029867 -0.26450744 0.73280007 1.98003e-38
-0.18928753 -0.25251764 0.73075891 1.98003e-38
-0.18017896 -0.23825717 0.72478265 1.98003e-38
-0.40427893 -0.042084083 0.75628579 1.98003e-38
-0.38797826 -0.051111847 0.73240644 1.98003e-38
-0.40192875 -0.037061431 0.75316668 1.98003e-38
-0.38766029 -0.036713596 0.74477941 1.98003e-38
-0.37524545 -0.042256441 0.76451856 1.98003e-38
-0.40765613 -0.03454788 0.7610001 1.98003e-38
-0.38087985 -0.03592005 0.77045071 1.98003e-38
-0.3857927 -0.29001272 0.83160186 1.98003e-38
-0.38895974 -0.2790429 0.83633339 1.98003e-38
-0.37099424 -0.16677088 0.82939535 1.98003e-38
-0.35872349 -0.16329366 0.82300007 1.98003e-38
-0.40187687 -0.14992857 0.81566668 1.98003e-38
-0.37742609 -0.15049596 0.82183778 1.98003e-38
-0.35140574 -0.13925275 0.81430358 1.98003e-38
-0.36594325 -0.051638845 0.83880371 1.98003e-38
-0.35288963 -0.066384025 0.83628565 1.98003e-38
-0.26877606 0.19767338 0.83885723 1.98003e-38
-0.25570765 0.21194716 0.83098572 1.98003e-38
-0.40733296 -0.2817505 0.86760008 1.98003e-38
-0.38207075 -0.28859702 0.84405857 1.98003e-38
-0.40600449 -0.27094829 0.85988057 1.98003e-38
-0.38460633 -0.26663721 0.84700567 1.98003e-38
-0.38479725 -0.17575988 0.84552628 1.98003e-38
-0.36475685 -0.057559635 0.84737915 1.98003e-38
-0.35623944 -0.062235352 0.85981977 1.98003e-38
-0.44354776 0.14611524 0.8639999 1.98003e-38
-0.43514773 0.15274601 0.8689028 1.98003e-38
-0.43061465 0.16477099 0.86375016 1.98003e-38
-0.28464615 0.19541156 0.8650769 1.98003e-38
-0.27809376 0.19800518 0.86428577 1.98003e-38
-0.28780526 0.21168357 0.86093116 1.98003e-38
-0.27108711 0.21006021 0.85169786 1.98003e-38
-0.36226466 -0.20681679 0.91437507 1.98003e-38
-0.35234329 -0.20979892 0.90682507 1.98003e-38
-0.36943215 -0.17664115 0.91202241 1.98003e-38
-0.35824049 -0.17764762 0.90750003 1.98003e-38
-0.2860966 -0.17171842 0.89977545 1.98003e-38
-0.25818825 -0.16612105 0.90079153 1.98003e-38
-0.23719221 -0.16604 0.91116661 1.98003e-38
-0.28059718 -0.14913695 0.90100002 1.98003e-38
-0.26010597 -0.14515501 0.89965075 1.98003e-38
-0.25689349 -0.11878137 0.90471435 1.98003e-38
-0.42952281 0.15419446 0.88302499 1.98003e-38
-0.44113082 0.1909816 0.89133334 1.98003e-38
-0.43159702 0.18272808 0.89883262 1.98003e-38
-0.4053272 -0.36608785 0.95638472 1.98003e-38
-0.38631749 -0.36570352 0.95600003 1.98003e-38
-0.35856572 -0.36130288 0.95800006 1.98003e-38
-0.41249627 -0.3495194 0.95261484 1.98003e-38
-0.39996573 -0.35301718 0.94800007 1.98003e-38
-0.40115318 -0.20267506 0.95600003 1.98003e-38
-0.38271737 -0.20146213 0.93655556 1.98003e-38
-0.35844004 -0.20217431 0.92700005 1.98003e-38
-0.40342146 -0.19457409 0.94521439 1.98003e-38
-0.38412914 -0.19008605 0.93202323 1.98003e-38
-0.35829589 -0.19801399 0.92133331 1.98003e-38
-0.24171111 -0.17507365 0.92066669 1.98003e-38
-0.23945999 -0.17542952 0.921 1.98003e-38
-0.45804185 0.18875541 0.92838413 1.98003e-38
-0.45214206 0.20749816 0.92656183 1.98003e-38
-0.44691661 -0.36762056 0.97830606 1.98003e-38
-0.42094681 -0.36877507 0.96694738 1.98003e-38
-0.38467169 -0.37027383 0.98336899 1.98003e-38
-0.5765022 -0.33458453 0.98072201 1.98003e-38
-0.44469452 -0.35443559 0.97795457 1.98003e-38
-0.41930115 -0.34534904 0.97403646 1.98003e-38
-0.39301759 -0.34861994 0.97420895 1.98003e-38
-0.60139334 -0.29121238 0.99600005 1.98003e-38
-0.58426648 -0.29418579 0.97671753 1.98003e-38
-0.54432863 -0.28007334 0.97700006 1.98003e-38
-0.59072 -0.27926669 0.99400002 1.98003e-38
-0.53506279 -0.2673564 0.97220808 1.98003e-38
-0.52347451 0.17480497 0.99430001 1.98003e-38
-0.5166716 0.17338549 0.99483991 1.98003e-38
-0.50965309 0.21911521 0.99662513 1.98003e-38
-0.36938658 0.22539946 0.98201466 1.98003e-38
-0.35682499 0.22566585 0.97368443 1.98003e-38
-0.44708821 -0.37724009 1.0045109 1.98003e-38
-0.43869162 -0.37800822 1.0017999 1.98003e-38
-0.38978344 -0.37301308 1.0093246 1.98003e-38
-0.61543256 -0.33645672 1.0256364 1.98003e-38
-0.58922368 -0.3348262 1.02272 1.98003e-38
-0.55397385 -0.32170048 1.0205001 1.98003e-38
-0.39648002 -0.35999998 1.008 1.98003e-38
-0.60190475 -0.28761905 1 1.98003e-38
-0.58379126 -0.30512223 1.014267 1.98003e-38
-0.5549916 -0.30395746 1.0121233 1.98003e-38
-0.60494602 -0.16257294 1.0381429 1.98003e-38
-0.59477401 -0.16319168 1.0322499 1.98003e-38
-0.60348392 -0.1497851 1.0323265 1.98003e-38
-0.5945791 -0.14578955 1.0342174 1.98003e-38
-0.61082321 -0.10227873 1.0232103 1.98003e-38
-0.591874 -0.10406698 1.0187149 1.98003e-38
-0.45827213 0.096472532 1.0327692 1.98003e-38
-0.52797961 0.19068268 1.0184567 1.98003e-38
-0.51701039 0.18193839 1.0117 1.98003e-38
-0.4353281 0.1949559 1.0383077 1.98003e-38
-0.52349865 0.20752487 1.0211111 1.98003e-38
-0.50792474 0.22459099 1.0041493 1.98003e-38
-0.41933933 0.21253844 1.0322659 1.98003e-38
-0.38268566 0.22419469 1.0070835 1.98003e-38
-0.50481397 0.24952988 1.0056609 1.98003e-38
-0.60371709 -0.32627723 1.0674837 1.98003e-38
-0.58118176 -0.34229824 1.058385 1.98003e-38
-0.60453379 -0.31654409 1.0682667 1.98003e-38
-0.6197148 -0.16953585 1.0538685 1.98003e-38
-0.61564451 -0.13348761 1.05661 1.98003e-38
-0.5949204 -0.14066109 1.046375 1.98003e-38
-0.64746857 -0.11967428 1.074 1.98003e-38
-0.62592012 -0.11253147 1.0476708 1.98003e-38
-0.45121163 0.09680856 1.0656567 1.98003e-38
-0.42516628 0.095123403 1.0740465 1.98003e-38
-0.45495641 0.19772202 1.0538931 1.98003e-38
-0.43220806 0.19382767 1.0419999 1.98003e-38
-0.45570958 0.20658605 1.0546253 1.98003e-38
-0.42572573 0.22507782 1.0441481 1.98003e-38
-0.61290681 -0.34054464 1.0915716 1.98003e-38
-0.59953046 -0.34600288 1.0910001 1.98003e-38
-0.60223281 -0.16038811 1.0865 1.98003e-38
-0.60150605 -0.15287223 1.0833335 1.98003e-38
-0.596614 -0.15167482 1.0822309 1.98003e-38
-0.45932025 0.092348248 1.0899999 1.98003e-38
-0.43318817 0.099952206 1.0851431 1.98003e-38
0.039173145 -0.14039554 0.6517809 1.98003e-38
-0.52001435 -0.28279433 1.2270001 1.98003e-38
-0.51573348 -0.28296918 1.2328751 1.98003e-38
-0.52204841 -0.27334651 1.2214 1.98003e-38
-0.51096368 -0.27200559 1.2260002 1.98003e-38
-0.70285833 -0.42408046 1.2194626 1.98003e-38
-0.42611161 -0.28709751 0.9457317 1.98003e-38
-0.72336078 -0.47747645 1.2502501 1.98003e-38
-0.71089959 -0.47517502 1.251706 1.98003e-38
-0.53014481 -0.29345143 1.268 1.98003e-38
-0.51442146 -0.28539619 1.2460001 1.98003e-38
-0.30608678 -0.19844609 1.0561882 1.98003e-38
-0.64214003 -0.36452484 1.1759053 1.98003e-38
-0.70926553 -0.48426357 1.2909002 1.98003e-38
-0.69716382 -0.47983429 1.2820001 1.98003e-38
-0.56765342 -0.33762211 1.309878 1.98003e-38
-0.55773342 -0.34216005 1.3160002 1.98003e-38
-0.54653376 -0.30971336 1.3060001 1.98003e-38
-0.7467767 -0.50235432 1.327 1.98003e-38
-0.59139717 -0.36048287 1.3470001 1.98003e-38
-0.57616383 -0.33639753 1.3442326 1.98003e-38
-0.55985242 -0.33842763 1.3210001 1.98003e-38
-0.57706326 -0.30735323 1.3373417 1.98003e-38
-0.60241896 -0.3772068 1.3698752 1.98003e-38
-0.59432608 -0.3767986 1.3751307 1.98003e-38
-0.60337335 -0.34080878 1.3924001 1.98003e-38
-0.59144223 -0.33417878 1.3727001 1.98003e-38
-0.80170286 -0.30712003 1.3960001 1.98003e-38
-0.79570848 -0.30122828 1.3933847 1.98003e-38
-0.60492861 -0.37976286 1.4115 1.98003e-38
-0.59772545 -0.37963846 1.4096667 1.98003e-38
-0.84702003 -0.32119143 1.4230001 1.98003e-38
-0.8226226 -0.32242167 1.4250001 1.98003e-38
-0.84920508 -0.31351528 1.4281198 1.98003e-38
-0.82100165 -0.31090263 1.4174136 1.98003e-38
-0.79980767 -0.3111105 1.4020001 1.98003e-38
-0.84899312 -0.34212533 1.4621998 1.98003e-38
-0.83479232 -0.34525153 1.4644839 1.98003e-38
-0.85692555 -0.30833054 1.4544548 1.98003e-38
-0.8396886 -0.30921429 1.4430001 1.98003e-38
-0.88743818 -0.37029615 1.5073339 1.98003e-38
-0.85372221 -0.36852163 1.4927504 1.98003e-38
-0.83742183 -0.36512762 1.4848001 1.98003e-38
-0.88698208 -0.35364458 1.5070002 1.98003e-38
-0.86276793 -0.35458538 1.4885002 1.98003e-38
-0.83866668 -0.35942855 1.48 1.98003e-38
-0.88533789 -0.30362168 1.4897501 1.98003e-38
-0.87659401 -0.30228573 1.4860001 1.98003e-38
-0.90899199 -0.36271662 1.5320001 1.98003e-38
-0.90984982 -0.35462794 1.5354999 1.98003e-38
-0.43636394 0.18685484 0.89508295 1.98003e-38
-0.41799793 0.03513854 0.88445652 1.98003e-38
-0.20029867 -0.26450744 0.73280007 1.98003e-38
-0.18928753 -0.25251764 0.73075891 1.98003e-38
-0.60615683 -0.42154121 1.4706353 1.98003e-38
-0.54432863 -0.28007334 0.97700006 1.98003e-38
-0.41266665 -0.26168481 1.3219826 1.98003e-38
-0.70127237 -0.34556308 1.4176449 1.98003e-38
-0.31273961 -0.10935573 1.1610819 1.98003e-38
-0.21222916 -0.11895786 0.87382352 1.98003e-38
-0.63276422 -0.2779853 1.2743688 1.98003e-38
-0.63890195 -0.30882645 1.257211 1.98003e-38
-0.46363205 0.21856472 1.0182076 1.98003e-38
-0.83866668 -0.35942855 1.48 1.98003e-38
-0.88698208 -0.35364458 1.5070002 1.98003e-38
-0.84557199 -0.36682463 1.4887753 1.98003e-38
-0.099948697 -0.068195403 0.94912112 1.98003e-38
-1.6177152 -0.69435167 3.0730002 3.7014374e-39
-1.6221051 -0.67093843 3.0730002 3.7014374e-39
-1.5950334 -0.67020673 3.0730002 3.7014374e-39
-1.6548512 -0.69167078 3.1010005 3.7014374e-39
-1.6183174 -0.69950247 3.1010003 3.7014374e-39
-1.6195148 -0.66356742 3.1010008 3.7014374e-39
-1.6837335 -0.72761333 3.1570001 3.7014374e-39
-1.6583333 -0.72737998 3.1430001 3.7014374e-39
-1.6288681 -0.73248404 3.1290002 3.7014374e-39
-1.6912267 -0.71239334 3.1429999 3.7014374e-39
-1.6652781 -0.70788562 3.1289999 3.7014374e-39
-1.617395 -0.70551509 3.1289999 3.7014374e-39
-1.6241001 -0.67646003 3.1290004 3.7014374e-39
-1.729543 -0.73126292 3.1860001 3.7014374e-39
-1.7083029 -0.73733139 3.1860003 3.7014374e-39
-1.6718916 -0.74946856 3.1860003 3.7014374e-39
-1.72044 -0.71912575 3.1860001 3.7014374e-39
-1.644583 -0.70698857 3.1860001 3.7014374e-39
-1.7335771 -0.77490288 3.2160001 3.7014374e-39
-1.7400433 -0.73950988 3.2159998 3.7014374e-39
-1.6974354 -0.75162518 3.2160001 3.7014374e-39
-1.7305143 -0.70752001 3.2160003 3.7014374e-39
-1.7508544 -0.76463336 3.2770002 3.7014374e-39
-1.7737415 -0.72510135 3.2770002 3.7014374e-39
-1.7482028 -0.73885143 3.2460001 3.7014374e-39
-1.78686 -0.79100865 3.3090005 3.7014374e-39
-1.7553458 -0.77840292 3.3090003 3.7014374e-39
-1.7994658 -0.73428291 3.3090003 3.7014374e-39
-1.8179283 -0.81138575 3.3410001 3.7014374e-39
-1.7818667 -0.80502188 3.3410001 3.7014374e-39
-1.7786847 -0.78593045 3.3410001 3.7014374e-39
-1.8168677 -0.74138379 3.3410001 3.7014374e-39
-1.7150468 -0.74562633 3.3410003 3.7014374e-39
-1.8471191 -0.81808639 3.3730006 3.7014374e-39
-1.8021457 -0.80630767 3.3730001 3.7014374e-39
-1.7957211 -0.80630767 3.3730001 3.7014374e-39
-1.8149954 -0.79602808 3.3730004 3.7014374e-39
-1.7892964 -0.79988289 3.3730001 3.7014374e-39
-1.8246324 -0.73563528 3.3730001 3.7014374e-39
-1.7298672 -0.73402905 3.3730001 3.7014374e-39
-1.8554591 -0.80933058 3.4060001 3.7014374e-39
-1.8295087 -0.80770862 3.4060001 3.7014374e-39
-1.8478903 -0.73201978 3.4060001 3.7014374e-39
-1.83924 -0.72661334 3.4060001 3.7014374e-39
-1.7412771 -0.72855967 3.4060001 3.7014374e-39
-1.7549011 -0.71688193 3.4060001 3.7014374e-39
-1.9027088 -0.89963871 3.4694731 3.7014374e-39
-1.8765 -0.89357144 3.4750001 3.7014374e-39
-1.8980119 -0.87095642 3.4749999 3.7014374e-39
-1.9037479 -0.82426274 3.4588461 3.7014374e-39
-1.8663366 -0.81577146 3.4400001 3.7014374e-39
-1.7474287 -0.8306905 3.4750001 3.7014374e-39
-1.7728016 -0.77332544 3.4750001 3.7014374e-39
-1.7557119 -0.76791191 3.4458337 3.7014374e-39
-1.8657905 -0.74205714 3.4400001 3.7014374e-39
-1.7756357 -0.74333334 3.4575002 3.7014374e-39
-1.7509857 -0.74913085 3.4534614 3.7014374e-39
-1.898743 -0.92597151 3.5100002 3.7014374e-39
-1.9254858 -0.89588577 3.5100002 3.7014374e-39
-1.9008123 -0.90241224 3.5100012 3.7014374e-39
-1.7717144 -0.83571434 3.5100002 3.7014374e-39
-1.7550001 -0.83237147 3.5100002 3.7014374e-39
-1.7683716 -0.78022289 3.5100002 3.7014374e-39
-1.8853716 -0.75548577 3.5100002 3.7014374e-39
-1.875343 -0.75548577 3.5100002 3.7014374e-39
-1.8018001 -0.73877144 3.5100002 3.7014374e-39
-1.7951144 -0.7287429 3.5100002 3.7014374e-39
-1.8033943 -1.131343 3.5460002 3.7014374e-39
-1.8000174 -1.1178343 3.5460002 3.7014374e-39
-1.7831316 -1.1178343 3.5460002 3.7014374e-39
-1.9300373 -0.94053435 3.5460002 3.7014374e-39
-1.9047086 -0.9084515 3.5460002 3.7014374e-39
-1.8022687 -0.84766293 3.5460002 3.7014374e-39
-1.7898858 -0.8544172 3.5460002 3.7014374e-39
-1.8033944 -0.83415431 3.5460002 3.7014374e-39
-1.7763773 -0.77674288 3.546 3.7014374e-39
-1.8165243 -1.1323417 3.5830002 3.7014374e-39
-1.7924751 -1.1294981 3.5830004 3.7014374e-39
-1.8460982 -0.84627056 3.5830002 3.7014374e-39
-1.8317661 -0.85377783 3.5830002 3.7014374e-39
-1.8324488 -0.82579613 3.5830002 3.7014374e-39
-1.8392733 -0.74389911 3.5830002 3.7014374e-39
-1.8139489 -1.1621686 3.6210003 3.7014374e-39
-1.8125695 -1.137339 3.6210008 3.7014374e-39
-1.8877481 -1.0987149 3.6210003 3.7014374e-39
-1.8748735 -1.1023935 3.6210003 3.7014374e-39
-1.8863686 -1.0725058 3.6210003 3.7014374e-39
-1.8725743 -0.97594577 3.6210003 3.7014374e-39
-1.8449858 -0.90007716 3.6210003 3.7014374e-39
-1.8649107 -0.87018955 3.6210005 3.7014374e-39
-1.8346401 -0.87938583 3.6210003 3.7014374e-39
-1.8277431 -0.73799431 3.6210003 3.7014374e-39
-1.8991951 -1.0949124 3.6590002 3.7014374e-39
-1.8782867 -1.1116391 3.6590002 3.7014374e-39
-1.8655093 -1.0465902 3.6590002 3.7014374e-39
-1.8657416 -0.90115947 3.6590002 3.7014374e-39
-1.9123944 -1.0953125 3.6980002 3.7014374e-39
-1.8983067 -1.0671371 3.6980002 3.7014374e-39
-1.9546572 -0.95443624 3.6980002 3.7014374e-39
-1.9194382 -0.93330479 3.6980002 3.7014374e-39
-1.9030026 -0.9098255 3.6980004 3.7014374e-39
-1.8666096 -0.86991054 3.6980002 3.7014374e-39
-1.8842191 -0.7677753 3.6980002 3.7014374e-39
-1.90816 -1.0858001 3.7380002 3.7014374e-39
-1.9259601 -1.07868 3.7380002 3.7014374e-39
-1.9046001 -1.07868 3.7380004 3.7014374e-39
-2.0042801 -0.97188002 3.7380002 3.7014374e-39
-1.9868037 -0.97317457 3.7380002 3.7014374e-39
-2.0042801 -0.95052004 3.7380002 3.7014374e-39
-1.9876668 -0.95170665 3.7380004 3.7014374e-39
-1.9402001 -0.93272007 3.7380002 3.7014374e-39
-1.8974801 -0.92916006 3.7380002 3.7014374e-39
-1.9295201 -0.91136003 3.7380002 3.7014374e-39
-1.8903601 -0.8579601 3.7379999 3.7014374e-39
-1.8732719 -0.85226405 3.7380002 3.7014374e-39
-1.8939201 -0.83660007 3.7380002 3.7014374e-39
-1.89303 -0.77697003 3.7380004 3.7014374e-39
-1.9398867 -1.1085067 3.7790003 3.7014374e-39
-2.0190659 -1.0041343 3.779 3.7014374e-39
-1.9974716 -1.0041343 3.7790003 3.7014374e-39
-2.0159812 -0.98151177 3.779 3.7014374e-39
-1.9920731 -0.97174293 3.7790003 3.7014374e-39
-2.0136671 -0.94475001 3.7789998 3.7014374e-39
-1.9812759 -0.9375518 3.7789996 3.7014374e-39
-1.9830754 -0.91775721 3.7790003 3.7014374e-39
-1.9542829 -0.91775721 3.7790003 3.7014374e-39
-1.8918995 -0.88656545 3.7790003 3.7014374e-39
-1.9038963 -0.86737055 3.779 3.7014374e-39
-1.8990977 -0.78579211 3.7790003 3.7014374e-39
-1.9662988 -1.129318 3.8210001 3.7014374e-39
-1.9687248 -1.1135485 3.8210001 3.7014374e-39
-1.9541686 -1.1171876 3.8210001 3.7014374e-39
-2.048784 -1.0007381 3.8210001 3.7014374e-39
-1.9905592 -0.97162575 3.8210001 3.7014374e-39
-2.048784 -0.94979143 3.8210001 3.7014374e-39
-2.0151227 -0.93796444 3.8209996 3.7014374e-39
-1.985707 -0.94615239 3.8209999 3.7014374e-39
-1.914139 -0.88428861 3.8210001 3.7014374e-39
-1.97616 -1.13712 3.8640001 3.7014374e-39
-2.0056002 -1.0193599 3.8640001 3.7014374e-39
-2.0186846 -0.97928894 3.8640001 3.7014374e-39
-1.9872 -0.96048003 3.8640001 3.7014374e-39
-1.9442667 -0.94576001 3.8640001 3.7014374e-39
-1.9944305 -1.1497743 3.9070003 3.7014374e-39
-2.0517333 -1.01582 3.9070003 3.7014374e-39
-2.0353611 -1.0282233 3.9070003 3.7014374e-39
-2.1023381 -0.97861058 3.9070003 3.7014374e-39
-1.968384 -0.96744776 3.9070003 3.7014374e-39
-1.9423372 -0.96744776 3.9070001 3.7014374e-39
-2.0130353 -0.95132363 3.9070003 3.7014374e-39
-1.9795468 -0.95628482 3.9070003 3.7014374e-39
-1.9423373 -0.95256388 3.9070003 3.7014374e-39
-2.0211658 -1.1780725 3.9520004 3.7014374e-39
-2.0061104 -1.1554896 3.9520001 3.7014374e-39
-2.0838962 -1.0551213 3.9520004 3.7014374e-39
-2.0663316 -1.0501028 3.9520001 3.7014374e-39
-2.0813868 -1.0275201 3.9520001 3.7014374e-39
-2.0663316 -1.0300293 3.9520004 3.7014374e-39
-2.0061104 -0.98988187 3.9520001 3.7014374e-39
-1.9948192 -0.98611814 3.9520001 3.7014374e-39
-1.9820223 -0.95676041 3.9520001 3.7014374e-39
-2.0484991 -1.1993999 3.9980001 3.7014374e-39
-2.0370762 -1.1993999 3.9980001 3.7014374e-39
-2.0916519 -1.0648642 3.9980006 3.7014374e-39
-2.0751524 -1.0775563 3.9980001 3.7014374e-39
-2.15892 -1.0014038 3.9980001 3.7014374e-39
-2.1056135 -1.03948 3.9980001 3.7014374e-39
-2.1538434 -0.99125022 3.9980001 3.7014374e-39
-2.0648763 -1.2192786 4.0450001 3.7014374e-39
-2.1226618 -1.0902238 4.0450001 3.7014374e-39
-2.1127677 -1.2746773 4.0930004 3.7014374e-39
-2.1361566 -1.1109573 4.0930004 3.7014374e-39
-2.1262267 -1.2899373 4.1420002 3.7014374e-39
-2.1183372 -1.2899373 4.1420002 3.7014374e-39
-2.1998022 -1.1378286 4.1920004 3.7014374e-39
