# .PCD v0.7 - Point Cloud Data file format
VERSION 0.7
FIELDS x y z rgb
SIZE 4 4 4 4
TYPE F F F F
COUNT 1 1 1 1
WIDTH 1019
HEIGHT 1
VIEWPOINT 0 0 0 1 0 0 0
POINTS 1019
DATA ascii
-0.42441428 0.011693408 1.9326794 1.3212116e-38
-0.076455235 0.3188743 1.9580001 1.3212116e-38
-0.86594778 -0.48256335 1.8999013 1.3212116e-38
-0.8565191 -0.54043341 1.9285085 1.3212116e-38
-0.71307284 0.19316219 1.6663914 1.3212116e-38
-0.77033079 0.41452211 1.531877 1.3212116e-38
-0.63469261 -0.011025419 1.7054563 1.3212116e-38
0.58972603 -0.7367835 1.9786854 1.3212116e-38
0.6594466 -0.76406378 1.9781909 1.3212116e-38
0.69970351 -0.76688468 1.97702 1.3212116e-38
0.73313534 -0.76429743 1.9850005 1.3212116e-38
0.99432153 -0.76709557 1.97175 1.3212116e-38
-0.96799797 -0.75253326 1.9690002 1.3212116e-38
-0.93737495 -0.74352413 1.9730612 1.3212116e-38
-0.90716213 -0.73380512 1.986113 1.3212116e-38
-0.86471778 -0.72432917 1.9920002 1.3212116e-38
0.59633529 -0.75190103 1.9920001 1.3212116e-38
0.61909211 -0.75391877 1.990667 1.3212116e-38
0.66192037 -0.75566667 1.9835819 1.3212116e-38
0.6984846 -0.75313944 1.9883767 1.3212116e-38
0.74302995 -0.74875236 1.984701 1.3212116e-38
0.78221548 -0.74159628 1.9805009 1.3212116e-38
0.82131183 -0.74010867 1.980889 1.3212116e-38
0.86248064 -0.73316139 1.9784398 1.3212116e-38
0.89959341 -0.73370689 1.9821851 1.3212116e-38
0.94010812 -0.73828471 1.9776847 1.3212116e-38
0.97926944 -0.73932153 1.9783936 1.3212116e-38
1.0151103 -0.74568367 1.9908289 1.3212116e-38
-0.92802238 -0.70872974 1.969 1.3212116e-38
-0.90049332 -0.69988585 1.9798198 1.3212116e-38
-0.86122435 -0.69564933 1.9879467 1.3212116e-38
0.87201607 -0.71814632 1.9896001 1.3212116e-38
0.89260584 -0.71806854 1.9920003 1.3212116e-38
0.94490004 -0.71569622 1.9850001 1.3212116e-38
0.98006058 -0.71533257 1.9870592 1.3212116e-38
1.0143551 -0.71542645 1.9912504 1.3212116e-38
-0.89337075 -0.66391706 1.9712511 1.3212116e-38
-0.85881478 -0.66120923 1.9746337 1.3212116e-38
-0.83296692 -0.64766175 1.9896004 1.3212116e-38
-0.88448733 -0.63820606 1.9690002 1.3212116e-38
-0.84837979 -0.63460261 1.969 1.3212116e-38
-0.82182711 -0.61877996 1.9786628 1.3212116e-38
-0.79585147 -0.6023429 1.9920001 1.3212116e-38
-0.81138515 -0.5838235 1.9724827 1.3212116e-38
-0.78721064 -0.57702297 1.9831283 1.3212116e-38
-0.77887905 -0.53972816 1.9763222 1.3212116e-38
-0.75239193 -0.52243268 1.9885716 1.3212116e-38
-0.77287966 -0.50540876 1.9704901 1.3212116e-38
-0.74686426 -0.49752504 1.9824558 1.3212116e-38
-0.71332568 -0.49325711 1.9920005 1.3212116e-38
-0.76375777 -0.46907744 1.9690001 1.3212116e-38
-0.73817945 -0.46312809 1.9732623 1.3212116e-38
-0.70490944 -0.45645449 1.9869883 1.3212116e-38
-0.72616726 -0.42387885 1.9690005 1.3212116e-38
-0.69989371 -0.42116007 1.9824405 1.3212116e-38
-0.6703555 -0.41357723 1.9919999 1.3212116e-38
-0.69168049 -0.38544342 1.973618 1.3212116e-38
-0.66297424 -0.37756002 1.9874715 1.3212116e-38
-0.63679874 -0.36632767 1.990667 1.3212116e-38
-0.68399316 -0.35395119 1.969 1.3212116e-38
-0.65472043 -0.34599906 1.9747643 1.3212116e-38
-0.62545311 -0.33554125 1.9895825 1.3212116e-38
-0.64320666 -0.31691524 1.9690001 1.3212116e-38
-0.61830646 -0.30195549 1.9781318 1.3212116e-38
-0.59033722 -0.29206476 1.9913335 1.3212116e-38
-0.54922289 -0.28646857 1.9920003 1.3212116e-38
-0.60647631 -0.27442294 1.9735835 1.3212116e-38
-0.57874191 -0.26170444 1.9827882 1.3212116e-38
-0.54185957 -0.25725526 1.9889661 1.3212116e-38
-0.51235509 -0.24574329 1.9920006 1.3212116e-38
-0.56742924 -0.23206776 1.972385 1.3212116e-38
-0.53872329 -0.22135726 1.9772397 1.3212116e-38
-0.50747132 -0.21817634 1.9872978 1.3212116e-38
-0.52689731 -0.18827258 1.9695792 1.3212116e-38
-0.49834532 -0.18186231 1.9790092 1.3212116e-38
-0.46912685 -0.17355201 1.9913443 1.3212116e-38
0.99387628 -0.16970906 1.969 1.3212116e-38
1.0203166 -0.18057069 1.9832944 1.3212116e-38
-0.49014533 -0.14593774 1.9729122 1.3212116e-38
-0.45844057 -0.14029461 1.9824572 1.3212116e-38
-0.42952341 -0.13315895 1.9920001 1.3212116e-38
-0.39650288 -0.12331429 1.9920001 1.3212116e-38
-0.45105082 -0.10377222 1.9720892 1.3212116e-38
-0.42276213 -0.099221706 1.9855583 1.3212116e-38
-0.39583638 -0.10908667 1.9887146 1.3212116e-38
-0.44068098 -0.076884761 1.9690001 1.3212116e-38
-0.42010072 -0.063573629 1.977429 1.3212116e-38
-0.075213812 0.31780049 1.9745002 1.3212116e-38
-0.073134288 0.32548779 1.9690001 1.3212116e-38
-0.051527306 0.39487824 1.9881113 1.3212116e-38
-0.050727926 0.41414711 1.9916922 1.3212116e-38
-0.034137141 0.42202589 1.9913684 1.3212116e-38
-0.73996419 0.12734839 1.6983624 1.3212116e-38
-0.54150915 0.11333614 1.6742563 1.3212116e-38
-0.91607475 -0.77693504 2.0014408 1.3212116e-38
-0.8565191 -0.54043341 1.9285085 1.3212116e-38
-0.11474918 -0.75406647 1.9930201 1.3212116e-38
0.58441764 -0.76094276 1.999135 1.3212116e-38
-0.20008969 -0.73074239 1.9993509 1.3212116e-38
-0.70743316 -0.51140934 1.8800822 1.3212116e-38
-0.6567049 -0.3858178 1.8812311 1.3212116e-38
-0.49825773 -0.34288076 1.9096695 1.3212116e-38
-0.6691066 -0.02900121 1.8136536 1.3212116e-38
-0.60166854 0.20325057 1.7430475 1.3212116e-38
-0.55497694 0.27519774 1.7403554 1.3212116e-38
-0.48554173 0.37742564 1.7378355 1.3212116e-38
-0.39376813 0.47383773 1.7424417 1.3212116e-38
-1.057685 -0.52891368 1.7883114 1.3212116e-38
-0.8378213 -0.57744646 1.9687408 1.3212116e-38
-0.8463704 -0.70899236 1.9628372 1.3212116e-38
-0.86129957 -0.77582675 2.0250216 1.3212116e-38
-0.83307707 -0.77166438 2.0389998 1.3212116e-38
0.050752021 -0.78775489 2.0327222 1.3212116e-38
-0.13779421 -0.74967921 2.026577 1.3212116e-38
-0.019509096 -0.77863562 2.0340979 1.3212116e-38
0.060686659 -0.79519588 2.0373454 1.3212116e-38
0.063725382 -0.70706379 2.0191567 1.3212116e-38
0.044611525 -0.6346612 2.0112503 1.3212116e-38
0.085882887 -0.69201303 2.0043805 1.3212116e-38
0.10459637 -0.70067048 2.0064464 1.3212116e-38
0.20612545 -0.72668982 2.0155275 1.3212116e-38
0.19274288 -0.7205795 1.9924951 1.3212116e-38
0.18920405 -0.68998057 1.9796621 1.3212116e-38
0.34938559 -0.76152807 2.0127685 1.3212116e-38
0.41948467 -0.77458078 2.0167453 1.3212116e-38
0.45858431 -0.77221262 2.0142345 1.3212116e-38
0.50052083 -0.7712211 2.0155327 1.3212116e-38
0.5383206 -0.76972502 2.0117886 1.3212116e-38
0.57777709 -0.7734679 2.0167501 1.3212116e-38
0.61669904 -0.76316065 2.0067894 1.3212116e-38
0.66003621 -0.76304758 2.003 1.3212116e-38
0.68292761 -0.76113999 2.003 1.3212116e-38
0.75160193 -0.76304758 2.003 1.3212116e-38
-0.89727616 -0.74127227 2.0037489 1.3212116e-38
-0.85912251 -0.74203265 2.0097039 1.3212116e-38
-0.82663381 -0.7337507 2.0313129 1.3212116e-38
-0.79579258 -0.72433043 2.039 1.3212116e-38
0.34371719 -0.75928485 2.039 1.3212116e-38
0.3771179 -0.75928479 2.039 1.3212116e-38
0.43487602 -0.75801277 2.0294003 1.3212116e-38
0.46099812 -0.75808477 2.0283334 1.3212116e-38
0.49062762 -0.75815272 2.0256665 1.3212116e-38
0.54180753 -0.75864935 2.027 1.3212116e-38
0.58688265 -0.75286674 2.0189998 1.3212116e-38
0.62291008 -0.75019133 2.0253255 1.3212116e-38
0.66089493 -0.7398814 2.0205307 1.3212116e-38
0.69936508 -0.73798651 2.0205176 1.3212116e-38
0.73762035 -0.73791301 2.0228207 1.3212116e-38
0.77891767 -0.73041373 2.0194814 1.3212116e-38
0.81734437 -0.72639 2.0239999 1.3212116e-38
0.86002427 -0.72447163 2.016021 1.3212116e-38
0.90262812 -0.72367567 2.0204997 1.3212116e-38
0.93669921 -0.72404432 2.0136666 1.3212116e-38
1.028481 -0.74108052 2.0048254 1.3212116e-38
1.0457921 -0.73636872 2.012913 1.3212116e-38
-0.88867807 -0.71590227 2.0030003 1.3212116e-38
-0.85206568 -0.70440888 2.0037491 1.3212116e-38
-0.8206445 -0.69902116 2.0168381 1.3212116e-38
-0.79133683 -0.69117856 2.0334871 1.3212116e-38
0.78366524 -0.71139598 2.0367506 1.3212116e-38
0.82178885 -0.71043575 2.0342004 1.3212116e-38
0.86310476 -0.70601982 2.0312269 1.3212116e-38
0.90039414 -0.70155227 2.0311835 1.3212116e-38
0.93980223 -0.7016905 2.0214343 1.3212116e-38
0.9795931 -0.69967049 2.0213585 1.3212116e-38
1.0190758 -0.70204008 2.0244849 1.3212116e-38
1.0486265 -0.71142918 2.0256667 1.3212116e-38
-0.84447241 -0.67138243 2.0046 1.3212116e-38
-0.81810457 -0.66198665 2.0085812 1.3212116e-38
-0.78279334 -0.65802509 2.0237377 1.3212116e-38
-0.73393774 -0.64931172 2.039 1.3212116e-38
0.97760987 -0.6773479 2.0339999 1.3212116e-38
1.0278225 -0.67661512 2.039 1.3212116e-38
1.0428028 -0.66995716 2.039 1.3212116e-38
-0.80836809 -0.62901592 2.0047138 1.3212116e-38
-0.77962011 -0.62113249 2.0128462 1.3212116e-38
-0.7396673 -0.61779201 2.0340819 1.3212116e-38
-0.71332633 -0.6107291 2.0389998 1.3212116e-38
-0.76973271 -0.58200306 2.0045841 1.3212116e-38
-0.74071717 -0.58011073 2.0199602 1.3212116e-38
-0.70840305 -0.57668209 2.0361884 1.3212116e-38
-0.76512116 -0.54798436 2.0029995 1.3212116e-38
-0.73988235 -0.54043889 2.0044413 1.3212116e-38
-0.70219636 -0.53837812 2.0215456 1.3212116e-38
-0.67772478 -0.53402388 2.039 1.3212116e-38
-0.73378968 -0.50637877 2.0044994 1.3212116e-38
-0.69548267 -0.5007906 2.0146565 1.3212116e-38
-0.66256112 -0.49685383 2.0370507 1.3212116e-38
-0.63888663 -0.48353428 2.039 1.3212116e-38
-0.73061806 -0.47881237 2.003 1.3212116e-38
-0.69002461 -0.46722913 2.0035706 1.3212116e-38
-0.66014141 -0.45964313 2.0184596 1.3212116e-38
-0.63127422 -0.45791787 2.0368955 1.3212116e-38
-0.655101 -0.42358091 2.0054615 1.3212116e-38
-0.62183672 -0.41811162 2.0257998 1.3212116e-38
-0.58201665 -0.40752259 2.0389998 1.3212116e-38
-0.55344284 -0.40197429 2.039 1.3212116e-38
-0.6494081 -0.39215198 2.0029995 1.3212116e-38
-0.61828679 -0.38108924 2.0137649 1.3212116e-38
-0.57827622 -0.37687206 2.0371308 1.3212116e-38
-0.54555374 -0.37745771 2.039001 1.3212116e-38
1.0544543 -0.36507809 2.039 1.3212116e-38
-0.60966706 -0.34667906 2.0059991 1.3212116e-38
-0.58014917 -0.34047633 2.0182824 1.3212116e-38
-0.54028636 -0.34035259 2.0292854 1.3212116e-38
-0.51042539 -0.32953829 2.0364552 1.3212116e-38
1.038919 -0.35148478 2.039 1.3212116e-38
1.0523738 -0.34260741 2.0390005 1.3212116e-38
-0.57657439 -0.30405 2.0052786 1.3212116e-38
-0.53770512 -0.30046728 2.0085642 1.3212116e-38
-0.50455523 -0.29889572 2.0329998 1.3212116e-38
-0.4713763 -0.28748634 2.0390003 1.3212116e-38
1.0366231 -0.29395169 2.03075 1.3212116e-38
1.0445044 -0.29860148 2.0267005 1.3212116e-38
-0.56465518 -0.27660474 2.003 1.3212116e-38
-0.52990496 -0.26987615 2.0067234 1.3212116e-38
-0.49728879 -0.26187921 2.0168457 1.3212116e-38
-0.4654102 -0.2571955 2.0357571 1.3212116e-38
-0.43692857 -0.2427381 2.039 1.3212116e-38
1.0330544 -0.2566317 2.0334396 1.3212116e-38
1.0455421 -0.26138988 2.0258574 1.3212116e-38
-0.48884672 -0.22266126 2.0073011 1.3212116e-38
-0.45962238 -0.21974309 2.0229347 1.3212116e-38
-0.43026251 -0.21635175 2.0387454 1.3212116e-38
-0.37672955 -0.20001619 2.039 1.3212116e-38
1.0296012 -0.21748325 2.0266621 1.3212116e-38
1.044175 -0.22644642 2.0210001 1.3212116e-38
-0.48644286 -0.19648476 2.003 1.3212116e-38
-0.45379868 -0.18455622 2.0128026 1.3212116e-38
-0.42195588 -0.17809376 2.0313101 1.3212116e-38
-0.3867597 -0.18043037 2.0267897 1.3212116e-38
1.0218936 -0.19166912 2.0185294 1.3212116e-38
-0.44193172 -0.15706065 2.003 1.3212116e-38
-0.41624895 -0.14306144 2.0132387 1.3212116e-38
-0.39294022 -0.14575668 2.0154283 1.3212116e-38
-0.4084951 -0.1086506 2.0062001 1.3212116e-38
-0.056500569 0.31024003 2.0334191 1.3212116e-38
-0.034954287 0.31653047 2.039 1.3212116e-38
-0.053231295 0.33797571 2.019186 1.3212116e-38
-0.023834927 0.34376979 2.0362439 1.3212116e-38
0.0038838095 0.35925236 2.039 1.3212116e-38
-0.04817865 0.37636912 2.0080762 1.3212116e-38
-0.01954391 0.38062567 2.0266771 1.3212116e-38
0.0054879915 0.38458154 2.0390003 1.3212116e-38
-0.057228576 0.42330059 2.0029998 1.3212116e-38
-0.015127716 0.4181115 2.0162299 1.3212116e-38
0.016075809 0.42194176 2.0333002 1.3212116e-38
0.04401651 0.42139336 2.039 1.3212116e-38
-0.011417586 0.44472128 2.0238004 1.3212116e-38
0.010856382 0.44325638 2.0342 1.3212116e-38
-0.73820591 -0.0088451114 1.762444 1.3212116e-38
-0.79623014 -0.41273999 1.9110378 1.3212116e-38
-0.75238657 -0.46618885 1.9550173 1.3212116e-38
-0.79248518 -0.76571512 2.0562794 1.3212116e-38
-0.66112757 -0.20209384 1.9020571 1.3212116e-38
-0.53541851 -0.58375281 1.9980553 1.3212116e-38
-0.38532758 -0.67122459 1.9353169 1.3212116e-38
-0.30309531 -0.78180265 2.0088115 1.3212116e-38
-0.57747501 -0.75943732 2.0200202 1.3212116e-38
-0.53685278 -0.75193912 2.0375655 1.3212116e-38
-0.46257246 -0.74212217 2.0440738 1.3212116e-38
-0.40344805 -0.72515762 2.047452 1.3212116e-38
-0.3543168 -0.70771766 2.0497839 1.3212116e-38
-0.30531308 -0.68770653 2.0485115 1.3212116e-38
-0.28690097 -0.58214623 2.0183923 1.3212116e-38
-0.059835847 -0.75033277 2.0153208 1.3212116e-38
-0.054225869 -0.8003459 2.0452011 1.3212116e-38
0.03084336 -0.79509395 2.0452752 1.3212116e-38
-0.076180004 -0.80282003 2.0510001 1.3212116e-38
-0.025393335 -0.80282003 2.0510001 1.3212116e-38
-0.85048145 -0.79422534 2.0510001 1.3212116e-38
-0.81862432 -0.78119838 2.0586808 1.3212116e-38
-0.78263187 -0.77748221 2.0714009 1.3212116e-38
-0.75363058 -0.77772713 2.0753813 1.3212116e-38
-0.36181718 -0.79678869 2.0760002 1.3212116e-38
-0.34841478 -0.79750609 2.0727501 1.3212116e-38
-0.29790702 -0.79666817 2.0745556 1.3212116e-38
-0.24705991 -0.79687929 2.071125 1.3212116e-38
-0.21880272 -0.79312432 2.0648727 1.3212116e-38
-0.18068779 -0.7951889 2.0640204 1.3212116e-38
-0.13932168 -0.7911182 2.0660951 1.3212116e-38
-0.10032178 -0.79295039 2.0693016 1.3212116e-38
-0.058682218 -0.78330934 2.0593622 1.3212116e-38
-0.021794315 -0.78682286 2.0616636 1.3212116e-38
0.02194046 -0.78013861 2.0616086 1.3212116e-38
0.057490107 -0.78073531 2.0602326 1.3212116e-38
0.09890154 -0.77220243 2.0635552 1.3212116e-38
0.14050406 -0.76979184 2.0642512 1.3212116e-38
0.18105491 -0.76939666 2.0662484 1.3212116e-38
0.21896257 -0.76926666 2.0628145 1.3212116e-38
0.25902191 -0.76970857 2.0618205 1.3212116e-38
0.29946876 -0.76565289 2.0563622 1.3212116e-38
0.33070302 -0.76551062 2.0597582 1.3212116e-38
0.38622245 -0.7626152 2.0585001 1.3212116e-38
0.41755459 -0.7628867 2.0576665 1.3212116e-38
0.46684667 -0.76375335 2.0510001 1.3212116e-38
0.50786674 -0.76375335 2.0510004 1.3212116e-38
0.52544665 -0.76375335 2.0510001 1.3212116e-38
0.56451333 -0.76375335 2.0510001 1.3212116e-38
-0.81638098 -0.74828744 2.0530005 1.3212116e-38
-0.77990848 -0.73897886 2.0662515 1.3212116e-38
-0.75021285 -0.7352317 2.0746553 1.3212116e-38
0.1146743 -0.75724578 2.0760002 1.3212116e-38
0.14150697 -0.75611603 2.0760002 1.3212116e-38
0.17860194 -0.75566423 2.0760002 1.3212116e-38
0.22136679 -0.75314504 2.0760002 1.3212116e-38
0.27347162 -0.7491461 2.0729048 1.3212116e-38
0.2991167 -0.74991018 2.0694053 1.3212116e-38
0.34179845 -0.75244105 2.0686584 1.3212116e-38
0.37987539 -0.75086147 2.0666435 1.3212116e-38
0.4221068 -0.74736822 2.0673509 1.3212116e-38
0.45988524 -0.74443495 2.06077 1.3212116e-38
0.49988022 -0.74649119 2.0628104 1.3212116e-38
0.54099405 -0.74643421 2.0614092 1.3212116e-38
0.58016688 -0.7427839 2.0588729 1.3212116e-38
0.62042838 -0.73208445 2.0563505 1.3212116e-38
0.65544152 -0.72903073 2.060605 1.3212116e-38
0.70269907 -0.72739464 2.0566196 1.3212116e-38
0.74207461 -0.72618771 2.0563905 1.3212116e-38
0.76953751 -0.72706068 2.0641 1.3212116e-38
-0.77640706 -0.70334899 2.0551023 1.3212116e-38
-0.73981905 -0.6973688 2.0640652 1.3212116e-38
-0.71770293 -0.68211436 2.0760002 1.3212116e-38
0.61779803 -0.71576357 2.067765 1.3212116e-38
0.67185944 -0.7168386 2.0621819 1.3212116e-38
0.70374644 -0.71504962 2.0569999 1.3212116e-38
0.73116988 -0.71335381 2.0651431 1.3212116e-38
0.78953093 -0.70749325 2.0658078 1.3212116e-38
0.82118011 -0.70021075 2.0670168 1.3212116e-38
0.86221647 -0.69165564 2.0616846 1.3212116e-38
0.89702773 -0.68397701 2.0601611 1.3212116e-38
0.94259351 -0.68761212 2.0700011 1.3212116e-38
0.97147852 -0.6852513 2.063875 1.3212116e-38
1.0139247 -0.68894792 2.0509996 1.3212116e-38
1.0643679 -0.69908684 2.0656517 1.3212116e-38
1.0814974 -0.69397724 2.0760002 1.3212116e-38
-0.76668328 -0.66550076 2.0510001 1.3212116e-38
-0.74073571 -0.66330647 2.0532179 1.3212116e-38
-0.70407295 -0.65534723 2.0682895 1.3212116e-38
0.87476748 -0.67809671 2.0734003 1.3212116e-38
0.90115714 -0.67803264 2.069154 1.3212116e-38
0.94600189 -0.67567039 2.0741429 1.3212116e-38
0.98113936 -0.66862047 2.0699899 1.3212116e-38
1.0172157 -0.66486591 2.0625625 1.3212116e-38
1.0564592 -0.67224848 2.0670912 1.3212116e-38
1.0814973 -0.67618293 2.0760002 1.3212116e-38
-0.73738337 -0.63288003 2.0510001 1.3212116e-38
-0.69823998 -0.62169915 2.0549903 1.3212116e-38
-0.67465401 -0.61384922 2.0715518 1.3212116e-38
-0.68972075 -0.58286721 2.052525 1.3212116e-38
-0.67068988 -0.57966864 2.0703523 1.3212116e-38
-0.68334121 -0.54074782 2.0510006 1.3212116e-38
-0.66001481 -0.54020435 2.056982 1.3212116e-38
-0.630786 -0.53473115 2.0711124 1.3212116e-38
1.0739481 -0.52933508 2.0760002 1.3212116e-38
-0.65062284 -0.50607616 2.0509999 1.3212116e-38
-0.6244216 -0.49855658 2.0636334 1.3212116e-38
-0.5832572 -0.48511901 2.0760002 1.3212116e-38
-0.55557722 -0.48044574 2.0760002 1.3212116e-38
1.0722705 -0.50878489 2.0760002 1.3212116e-38
-0.61243963 -0.4616372 2.054177 1.3212116e-38
-0.58298045 -0.45917726 2.0713003 1.3212116e-38
-0.55401719 -0.45560211 2.0747631 1.3212116e-38
1.0660061 -0.4574939 2.0731375 1.3212116e-38
-0.60748672 -0.43228775 2.0510006 1.3212116e-38
-0.5806365 -0.42090505 2.0548406 1.3212116e-38
-0.5426231 -0.41784796 2.0663199 1.3212116e-38
1.036682 -0.40926859 2.0760002 1.3212116e-38
1.0571866 -0.4173809 2.0692465 1.3212116e-38
-0.58326542 -0.3904714 2.0510001 1.3212116e-38
-0.52885109 -0.38318366 2.0601492 1.3212116e-38
-0.50382984 -0.37577939 2.0760026 1.3212116e-38
-0.47490975 -0.36498061 2.0760002 1.3212116e-38
1.0326189 -0.37748748 2.0725963 1.3212116e-38
1.0547158 -0.38235041 2.0647194 1.3212116e-38
-0.521101 -0.35850573 2.0570002 1.3212116e-38
-0.49552742 -0.34227887 2.0654843 1.3212116e-38
-0.46897104 -0.33239844 2.0756063 1.3212116e-38
1.0312444 -0.33639416 2.0676506 1.3212116e-38
1.0492058 -0.34015989 2.0561414 1.3212116e-38
-0.48945305 -0.31007087 2.053 1.3212116e-38
-0.45819148 -0.30111292 2.0660257 1.3212116e-38
-0.42271376 -0.28752577 2.0749168 1.3212116e-38
-0.39740574 -0.28668576 2.0760002 1.3212116e-38
1.0308703 -0.29975712 2.0696919 1.3212116e-38
1.0434307 -0.30849484 2.0633335 1.3212116e-38
-0.45027974 -0.26664388 2.0559232 1.3212116e-38
-0.42034957 -0.25983131 2.0687621 1.3212116e-38
-0.38647678 -0.25502786 2.0745018 1.3212116e-38
-0.35786289 -0.24516574 2.0760002 1.3212116e-38
1.022454 -0.25934118 2.0668876 1.3212116e-38
1.0432887 -0.27113718 2.0630002 1.3212116e-38
-0.41375059 -0.22134383 2.0599115 1.3212116e-38
-0.3819117 -0.22221819 2.0621905 1.3212116e-38
-0.35870719 -0.23258479 2.0695002 1.3212116e-38
0.99393803 -0.21324901 2.0760002 1.3212116e-38
1.0155221 -0.22072959 2.063972 1.3212116e-38
-0.40746537 -0.19572401 2.0510004 1.3212116e-38
0.99252588 -0.19376001 2.0760002 1.3212116e-38
1.0149981 -0.19457833 2.0676191 1.3212116e-38
-0.019893609 0.17571813 2.0597146 1.3212116e-38
-0.045085531 0.26967508 2.0670002 1.3212116e-38
-0.024095464 0.26727402 2.0710177 1.3212116e-38
0.0019771431 0.27482289 2.0760002 1.3212116e-38
-0.052127913 0.29452506 2.0564167 1.3212116e-38
-0.019499222 0.30061093 2.0617929 1.3212116e-38
0.0038021982 0.30706552 2.0760002 1.3212116e-38
-0.0099758897 0.33226159 2.0528951 1.3212116e-38
0.017197605 0.3433463 2.0621867 1.3212116e-38
0.041520007 0.34863624 2.0760002 1.3212116e-38
0.023802653 0.37867528 2.056684 1.3212116e-38
0.051651001 0.38783252 2.0689597 1.3212116e-38
0.027792986 0.4076055 2.0527141 1.3212116e-38
0.055751119 0.40976772 2.0596178 1.3212116e-38
0.081062868 0.40333718 2.0760002 1.3212116e-38
-0.35661113 0.588 1.715 1.3212116e-38
-0.70767778 -0.4939639 1.9935272 1.3212116e-38
-0.75649661 -0.73304754 2.0517268 1.3212116e-38
-0.68659961 -0.72924095 2.0766976 1.3212116e-38
-0.64081633 -0.7152524 2.0762999 1.3212116e-38
-0.59330678 -0.69455737 2.0729036 1.3212116e-38
-0.57103252 -0.74545503 2.0662286 1.3212116e-38
-0.53926277 -0.80672401 2.1015298 1.3212116e-38
-0.43818539 -0.80787879 2.0902369 1.3212116e-38
-0.46142051 -0.80862802 2.0973759 1.3212116e-38
-0.42427805 -0.80684865 2.0967543 1.3212116e-38
-0.38412932 -0.80293196 2.0947413 1.3212116e-38
-0.32897866 -0.80229771 2.0955834 1.3212116e-38
-0.29624459 -0.8017894 2.0932002 1.3212116e-38
-0.27113795 -0.80310214 2.0954287 1.3212116e-38
-0.76758862 -0.78548568 2.0880001 1.3212116e-38
-0.73773414 -0.7791754 2.0942974 1.3212116e-38
-0.71227777 -0.78179663 2.1077704 1.3212116e-38
-0.57785571 -0.79545343 2.1096668 1.3212116e-38
-0.54377574 -0.79789031 2.1131337 1.3212116e-38
-0.50803113 -0.7992934 2.1140001 1.3212116e-38
-0.45030111 -0.79858768 2.112143 1.3212116e-38
-0.41001716 -0.78987116 2.1100602 1.3212116e-38
-0.38109541 -0.79241234 2.1100745 1.3212116e-38
-0.33923194 -0.79242939 2.1082213 1.3212116e-38
-0.29985008 -0.79061776 2.1041505 1.3212116e-38
-0.25942457 -0.78818053 2.1048322 1.3212116e-38
-0.22210956 -0.77869451 2.1029246 1.3212116e-38
-0.17939523 -0.77982575 2.1026397 1.3212116e-38
-0.14082131 -0.77308506 2.1011553 1.3212116e-38
-0.099610649 -0.77602708 2.10201 1.3212116e-38
-0.060441084 -0.76785624 2.0946269 1.3212116e-38
-0.018436458 -0.77033401 2.0924678 1.3212116e-38
0.017165855 -0.76712811 2.091042 1.3212116e-38
0.062871374 -0.7665832 2.0922322 1.3212116e-38
0.090902396 -0.76625508 2.0945005 1.3212116e-38
0.16505143 -0.76361144 2.0880001 1.3212116e-38
0.25718856 -0.76162291 2.0880003 1.3212116e-38
-0.76294863 -0.73643434 2.0880001 1.3212116e-38
-0.73497772 -0.74145418 2.0889015 1.3212116e-38
-0.70384949 -0.73942214 2.1018753 1.3212116e-38
-0.24361333 -0.75902671 2.1140001 1.3212116e-38
-0.23354667 -0.75902671 2.1140001 1.3212116e-38
-0.17076726 -0.75683033 2.1140003 1.3212116e-38
-0.14718528 -0.75584769 2.1139998 1.3212116e-38
-0.11677334 -0.75902671 2.1140001 1.3212116e-38
-0.055842753 -0.75323772 2.1076665 1.3212116e-38
-0.020623051 -0.75407726 2.1083856 1.3212116e-38
0.018529575 -0.75656676 2.1096661 1.3212116e-38
0.060795993 -0.75217181 2.1065707 1.3212116e-38
0.10355479 -0.7509383 2.1048763 1.3212116e-38
0.13969332 -0.75028872 2.1016181 1.3212116e-38
0.18059292 -0.74657917 2.0972073 1.3212116e-38
0.21821895 -0.74462676 2.0984418 1.3212116e-38
0.25978073 -0.74251056 2.0959866 1.3212116e-38
0.29972953 -0.73574877 2.1047909 1.3212116e-38
0.33851141 -0.73401302 2.1006999 1.3212116e-38
0.37886617 -0.73912627 2.1049197 1.3212116e-38
0.41843867 -0.73144102 2.104579 1.3212116e-38
0.45990917 -0.72805512 2.0979996 1.3212116e-38
0.50212538 -0.72839582 2.0947087 1.3212116e-38
0.54107434 -0.72960263 2.0966663 1.3212116e-38
0.57763559 -0.72621888 2.0959125 1.3212116e-38
0.61006129 -0.72722274 2.1010003 1.3212116e-38
0.6577127 -0.72380757 2.0905998 1.3212116e-38
0.70509064 -0.72440809 2.0879998 1.3212116e-38
0.74372578 -0.72185147 2.0880001 1.3212116e-38
0.77241808 -0.72298783 2.0880003 1.3212116e-38
-0.72450292 -0.70826292 2.0879998 1.3212116e-38
-0.6994468 -0.69990671 2.0932722 1.3212116e-38
-0.6675424 -0.69452298 2.1096659 1.3212116e-38
0.29596001 -0.71876007 2.1140001 1.3212116e-38
0.34562221 -0.71741778 2.1140001 1.3212116e-38
0.36441332 -0.71876007 2.1140001 1.3212116e-38
0.4181022 -0.71831262 2.1140001 1.3212116e-38
0.46283081 -0.71104366 2.1103888 1.3212116e-38
0.50253516 -0.71559256 2.1104138 1.3212116e-38
0.54016066 -0.71245849 2.1110203 1.3212116e-38
0.5822643 -0.71208197 2.1101475 1.3212116e-38
0.62259376 -0.70827651 2.1012056 1.3212116e-38
0.66059542 -0.70696175 2.1023917 1.3212116e-38
0.70027137 -0.70461494 2.1011326 1.3212116e-38
0.7396211 -0.70366001 2.0993741 1.3212116e-38
0.77850574 -0.70622462 2.0999451 1.3212116e-38
0.81778443 -0.69116211 2.0977492 1.3212116e-38
0.85923153 -0.69224077 2.0966661 1.3212116e-38
0.90035439 -0.68230832 2.1010001 1.3212116e-38
-0.69057065 -0.66764766 2.0886841 1.3212116e-38
-0.66015857 -0.65881139 2.0991054 1.3212116e-38
-0.63621336 -0.64426672 2.1140001 1.3212116e-38
0.83355021 -0.6770224 2.0917146 1.3212116e-38
0.85788578 -0.67501849 2.1053333 1.3212116e-38
0.90247226 -0.67427707 2.0995946 1.3212116e-38
0.93938416 -0.66487807 2.0983989 1.3212116e-38
0.97570682 -0.65159941 2.0979846 1.3212116e-38
1.0167756 -0.64932537 2.1046393 1.3212116e-38
1.0623997 -0.65845877 2.0999331 1.3212116e-38
1.0898279 -0.65664786 2.1078815 1.3212116e-38
-0.65684229 -0.62206209 2.0926847 1.3212116e-38
-0.63085032 -0.617176 2.106369 1.3212116e-38
0.98443133 -0.63359725 2.1114998 1.3212116e-38
1.0161581 -0.63765144 2.1140003 1.3212116e-38
1.0706836 -0.62267298 2.1062002 1.3212116e-38
1.0886654 -0.61951441 2.1057556 1.3212116e-38
-0.65321141 -0.58388585 2.0879991 1.3212116e-38
-0.62216049 -0.57910305 2.0986586 1.3212116e-38
-0.5883745 -0.56704265 2.1123042 1.3212116e-38
1.0771334 -0.56843114 2.1140001 1.3212116e-38
1.0890548 -0.58030766 2.1084278 1.3212116e-38
-0.61368346 -0.5408113 2.0917904 1.3212116e-38
-0.5822807 -0.53941518 2.1045852 1.3212116e-38
-0.55205601 -0.52467471 2.1140001 1.3212116e-38
1.0683895 -0.53278846 2.1042492 1.3212116e-38
1.0845388 -0.55118054 2.0984004 1.3212116e-38
-0.61049145 -0.51054406 2.0880003 1.3212116e-38
-0.58012998 -0.50410634 2.0907722 1.3212116e-38
-0.54236579 -0.49863541 2.1034458 1.3212116e-38
1.0668287 -0.50016844 2.1028559 1.3212116e-38
1.0837716 -0.49714288 2.0880003 1.3212116e-38
-0.58762294 -0.47626287 2.0880001 1.3212116e-38
-0.53568923 -0.46285477 2.0919166 1.3212116e-38
-0.51015973 -0.45313978 2.1046271 1.3212116e-38
1.0329306 -0.45275116 2.1121426 1.3212116e-38
1.0510112 -0.46122697 2.0993106 1.3212116e-38
-0.5275138 -0.42844677 2.0880003 1.3212116e-38
-0.50218666 -0.42011964 2.0979476 1.3212116e-38
-0.46331319 -0.4055849 2.1112144 1.3212116e-38
1.0307834 -0.41836438 2.1035151 1.3212116e-38
1.0462486 -0.43247437 2.0898573 1.3212116e-38
-0.49306646 -0.39258221 2.0902417 1.3212116e-38
-0.46048987 -0.37970135 2.0982232 1.3212116e-38
-0.41350034 -0.36767301 2.1139996 1.3212116e-38
-0.39662668 -0.36038667 2.1140001 1.3212116e-38
1.0240631 -0.38023385 2.1033139 1.3212116e-38
1.0412595 -0.39695764 2.0945001 1.3212116e-38
-0.45617029 -0.34440699 2.0896237 1.3212116e-38
-0.42079479 -0.33866525 2.1025133 1.3212116e-38
-0.38892263 -0.33366781 2.1131866 1.3212116e-38
1.0217373 -0.34015802 2.1034062 1.3212116e-38
1.0436302 -0.34954834 2.0912502 1.3212116e-38
-0.44504228 -0.31300116 2.0880001 1.3212116e-38
-0.42005041 -0.30383524 2.0906339 1.3212116e-38
-0.38039398 -0.29881823 2.1067765 1.3212116e-38
-0.35209647 -0.29382825 2.1140001 1.3212116e-38
0.99418402 -0.28629598 2.1140001 1.3212116e-38
1.0163279 -0.29969844 2.103332 1.3212116e-38
-0.41561145 -0.27243429 2.0880001 1.3212116e-38
-0.37209469 -0.26694846 2.1005263 1.3212116e-38
-0.34716907 -0.26871231 2.1125548 1.3212116e-38
0.9948833 -0.26232553 2.1101003 1.3212116e-38
1.007502 -0.26323217 2.1000707 1.3212116e-38
-0.32213333 -0.22952001 2.1140001 1.3212116e-38
-0.3127988 -0.2318994 2.1140003 1.3212116e-38
0.98973179 -0.21717 2.106571 1.3212116e-38
1.0036442 -0.23123321 2.1025293 1.3212116e-38
0.98827684 -0.19365677 2.0999167 1.3212116e-38
1.0245101 -0.19508016 2.0901668 1.3212116e-38
1.0442177 -0.1865319 2.0945001 1.3212116e-38
-0.018075982 0.19266284 2.1096668 1.3212116e-38
-0.041759998 0.23067428 2.0880001 1.3212116e-38
-0.019767223 0.22215241 2.0980582 1.3212116e-38
0.01263581 0.23332869 2.1098402 1.3212116e-38
-0.043579455 0.25206846 2.0935717 1.3212116e-38
-0.015597578 0.25061414 2.0898192 1.3212116e-38
0.017959848 0.2620081 2.1028342 1.3212116e-38
0.048637893 0.27180001 2.1139998 1.3212116e-38
-0.059071977 0.29077211 2.0972857 1.3212116e-38
-0.0033142855 0.28304002 2.0880001 1.3212116e-38
0.021839244 0.29840645 2.0944986 1.3212116e-38
0.048208036 0.30164155 2.1111889 1.3212116e-38
0.027855685 0.32745257 2.0888672 1.3212116e-38
0.057686027 0.34172359 2.1007035 1.3212116e-38
0.083553329 0.35132667 2.1140001 1.3212116e-38
0.065836109 0.37556434 2.094208 1.3212116e-38
0.093869567 0.38633579 2.1027617 1.3212116e-38
0.08948572 0.40368003 2.0880001 1.3212116e-38
-0.69299638 -0.80435741 2.1316423 1.3212116e-38
-0.65945494 -0.80575085 2.13486 1.3212116e-38
-0.62194926 -0.80492455 2.1349998 1.3212116e-38
-0.52961177 -0.80195785 2.1270001 1.3212116e-38
-0.49649295 -0.80324399 2.1270001 1.3212116e-38
-0.46321338 -0.80150771 2.1270003 1.3212116e-38
-0.42995787 -0.80167645 2.1270001 1.3212116e-38
-0.69598043 -0.78275871 2.136651 1.3212116e-38
-0.65932834 -0.7779085 2.1427855 1.3212116e-38
-0.62371242 -0.7865032 2.1490161 1.3212116e-38
-0.58008987 -0.78354013 2.1388023 1.3212116e-38
-0.54011011 -0.78649461 2.1368375 1.3212116e-38
-0.49989003 -0.78767794 2.1408551 1.3212116e-38
-0.45999426 -0.78795123 2.1422834 1.3212116e-38
-0.4205578 -0.77658278 2.138212 1.3212116e-38
-0.3803106 -0.77502573 2.1383557 1.3212116e-38
-0.34112823 -0.77312726 2.137059 1.3212116e-38
-0.29954585 -0.77486557 2.1377995 1.3212116e-38
-0.2635859 -0.77288949 2.1373014 1.3212116e-38
-0.21515281 -0.76608586 2.1362438 1.3212116e-38
-0.19336653 -0.76398182 2.1335006 1.3212116e-38
-0.12700601 -0.76116508 2.1438999 1.3212116e-38
-0.098414317 -0.76291889 2.1403608 1.3212116e-38
-0.077447623 -0.76154351 2.1400003 1.3212116e-38
-0.68697941 -0.74373662 2.1282184 1.3212116e-38
-0.65998566 -0.73987055 2.1425726 1.3212116e-38
-0.62399477 -0.73291999 2.1529999 1.3212116e-38
-0.5953216 -0.7251851 2.1530004 1.3212116e-38
-0.40804479 -0.75662571 2.1530001 1.3212116e-38
-0.35129273 -0.75646162 2.1486669 1.3212116e-38
-0.24457145 -0.75610369 2.1400001 1.3212116e-38
-0.22078763 -0.75225395 2.1483958 1.3212116e-38
-0.18079364 -0.7516908 2.1463857 1.3212116e-38
-0.13963835 -0.75160551 2.1462398 1.3212116e-38
-0.10233551 -0.74993455 2.1512272 1.3212116e-38
-0.059403952 -0.74019939 2.1429996 1.3212116e-38
-0.02054766 -0.73849052 2.141571 1.3212116e-38
0.021027151 -0.74053091 2.1415753 1.3212116e-38
0.061119683 -0.73907399 2.1419744 1.3212116e-38
0.099620901 -0.73584062 2.1373329 1.3212116e-38
0.1386071 -0.73261887 2.1325462 1.3212116e-38
0.17859292 -0.73183411 2.1330931 1.3212116e-38
0.22068027 -0.73151785 2.1353993 1.3212116e-38
0.25662518 -0.73125839 2.1364539 1.3212116e-38
0.30453238 -0.72507066 2.1270006 1.3212116e-38
0.32776061 -0.72399038 2.1270001 1.3212116e-38
0.3826068 -0.72875082 2.1269996 1.3212116e-38
0.42134857 -0.72318006 2.1270001 1.3212116e-38
0.44920215 -0.72773784 2.1270001 1.3212116e-38
-0.68266571 -0.71912861 2.1270001 1.3212116e-38
-0.65244913 -0.70388746 2.1292069 1.3212116e-38
-0.62298083 -0.69958442 2.1471045 1.3212116e-38
-0.59053725 -0.69848019 2.1530001 1.3212116e-38
0.067665718 -0.7197172 2.1530001 1.3212116e-38
0.1127762 -0.71561623 2.1530001 1.3212116e-38
0.14425996 -0.71723264 2.1500454 1.3212116e-38
0.18024719 -0.71710581 2.1491764 1.3212116e-38
0.21703237 -0.71636093 2.1476204 1.3212116e-38
0.261623 -0.71349126 2.1466444 1.3212116e-38
0.30062264 -0.71362358 2.1404405 1.3212116e-38
0.33966583 -0.71111262 2.135741 1.3212116e-38
0.38244522 -0.71267903 2.1406388 1.3212116e-38
0.42185128 -0.70908469 2.1383328 1.3212116e-38
0.45900023 -0.70154518 2.1425221 1.3212116e-38
0.50020659 -0.70446151 2.1439884 1.3212116e-38
0.53845531 -0.70045322 2.1418278 1.3212116e-38
0.57854432 -0.69810754 2.143611 1.3212116e-38
0.61948729 -0.69882321 2.1415069 1.3212116e-38
0.65994501 -0.68889952 2.138984 1.3212116e-38
0.69905007 -0.6878078 2.1390185 1.3212116e-38
0.73830032 -0.68857807 2.1378331 1.3212116e-38
0.78081602 -0.69083041 2.1410153 1.3212116e-38
0.81471765 -0.68821943 2.1319995 1.3212116e-38
0.85890287 -0.68266571 2.1270001 1.3212116e-38
0.89131427 -0.68266571 2.1270001 1.3212116e-38
-0.64350194 -0.66916096 2.1270001 1.3212116e-38
-0.62072325 -0.66068918 2.1389697 1.3212116e-38
-0.58180887 -0.65970498 2.1449881 1.3212116e-38
-0.55841315 -0.6445331 2.1530004 1.3212116e-38
0.66624707 -0.6735025 2.1530001 1.3212116e-38
0.70187443 -0.67214543 2.1526752 1.3212116e-38
0.74091244 -0.67690945 2.1505625 1.3212116e-38
0.78172451 -0.67646879 2.1518183 1.3212116e-38
0.82166415 -0.66648853 2.1383557 1.3212116e-38
0.85912985 -0.6626119 2.1367083 1.3212116e-38
0.89880085 -0.66146737 2.1378551 1.3212116e-38
0.93965268 -0.65206599 2.1372137 1.3212116e-38
0.96676636 -0.6465463 2.1371112 1.3212116e-38
1.0237961 -0.64377207 2.1270001 1.3212116e-38
1.0646404 -0.64841765 2.1336663 1.3212116e-38
1.0833349 -0.64316607 2.1530004 1.3212116e-38
-0.61421812 -0.62260711 2.1373994 1.3212116e-38
-0.57692266 -0.61926526 2.1339886 1.3212116e-38
-0.54956824 -0.61219662 2.1513333 1.3212116e-38
0.95174927 -0.63655686 2.1400001 1.3212116e-38
0.98138964 -0.62843072 2.136982 1.3212116e-38
1.0213807 -0.62823313 2.140945 1.3212116e-38
1.0632193 -0.61934149 2.1399994 1.3212116e-38
1.0865889 -0.62336582 2.1319997 1.3212116e-38
-0.60678929 -0.59340471 2.1309001 1.3212116e-38
-0.57598156 -0.58280206 2.1280394 1.3212116e-38
-0.54090136 -0.57753772 2.1420679 1.3212116e-38
-0.51544756 -0.56966633 2.151 1.3212116e-38
1.0395916 -0.56798196 2.1530004 1.3212116e-38
1.0628357 -0.57906264 2.1377385 1.3212116e-38
1.0849727 -0.58583659 2.1270003 1.3212116e-38
-0.56492108 -0.54820895 2.1270003 1.3212116e-38
-0.53832436 -0.53995878 2.1293488 1.3212116e-38
-0.50177395 -0.5378027 2.1407642 1.3212116e-38
-0.47460184 -0.52869976 2.1517 1.3212116e-38
1.0355847 -0.53457958 2.148 1.3212116e-38
1.0546961 -0.54260898 2.1334996 1.3212116e-38
-0.52521259 -0.50274557 2.1270001 1.3212116e-38
-0.49972659 -0.50094223 2.1378949 1.3212116e-38
-0.46779722 -0.49810365 2.1495659 1.3212116e-38
1.032341 -0.49906224 2.1356664 1.3212116e-38
1.0505741 -0.49986905 2.1269994 1.3212116e-38
-0.4940818 -0.46325076 2.1305072 1.3212116e-38
-0.4612782 -0.46010011 2.1407466 1.3212116e-38
-0.42042741 -0.44939187 2.146842 1.3212116e-38
-0.39779243 -0.44495338 2.1530001 1.3212116e-38
1.0203192 -0.46238074 2.1334994 1.3212116e-38
-0.48319244 -0.4281407 2.1270003 1.3212116e-38
-0.45766345 -0.42397359 2.1291943 1.3212116e-38
-0.42064175 -0.4201639 2.1369569 1.3212116e-38
-0.39259878 -0.41645029 2.1484118 1.3212116e-38
1.0178255 -0.42094249 2.1320138 1.3212116e-38
-0.44565719 -0.38927478 2.1270003 1.3212116e-38
-0.4225105 -0.38335174 2.1278777 1.3212116e-38
-0.38099921 -0.38042697 2.135937 1.3212116e-38
-0.35401222 -0.36766559 2.1486669 1.3212116e-38
1.0131793 -0.37915587 2.1348538 1.3212116e-38
-0.4233743 -0.35855144 2.1270001 1.3212116e-38
-0.37148213 -0.34382522 2.1288865 1.3212116e-38
-0.34281558 -0.3377251 2.1435132 1.3212116e-38
-0.31313705 -0.33344653 2.1530001 1.3212116e-38
0.9965862 -0.33016765 2.1465001 1.3212116e-38
1.0086761 -0.34131056 2.1364741 1.3212116e-38
-0.36665434 -0.31803715 2.1270003 1.3212116e-38
-0.33643913 -0.30225083 2.1340475 1.3212116e-38
-0.31477004 -0.2958931 2.1508334 1.3212116e-38
0.99110204 -0.29875293 2.141114 1.3212116e-38
1.011272 -0.3024444 2.1275651 1.3212116e-38
-0.3278459 -0.26014441 2.1269996 1.3212116e-38
-0.31135228 -0.25929138 2.1269996 1.3212116e-38
0.99117213 -0.25883222 2.1379604 1.3212116e-38
-0.33019143 -0.23093143 2.1270001 1.3212116e-38
0.98283821 -0.2200781 2.1431568 1.3212116e-38
0.98491836 -0.197395 2.13675 1.3212116e-38
1.0595095 -0.19007652 2.1421669 1.3212116e-38
0.0061514289 0.11687715 2.1530001 1.3212116e-38
-0.0020504766 0.15378574 2.1530004 1.3212116e-38
0.015223769 0.14676793 2.1524467 1.3212116e-38
-0.0050756354 0.180472 2.1334996 1.3212116e-38
0.01986419 0.18010682 2.1440203 1.3212116e-38
0.052517656 0.18860705 2.1494865 1.3212116e-38
-0.0082870135 0.20864858 2.1270003 1.3212116e-38
0.022139397 0.21655145 2.1358774 1.3212116e-38
0.058401499 0.22215877 2.147119 1.3212116e-38
0.0344772 0.2501393 2.1292944 1.3212116e-38
0.063262112 0.25875732 2.1403055 1.3212116e-38
0.099025965 0.266763 2.1530001 1.3212116e-38
0.1217983 0.27189317 2.1530001 1.3212116e-38
-0.062797144 0.29575431 2.1270001 1.3212116e-38
0.068757772 0.30052656 2.1361632 1.3212116e-38
0.10016826 0.30020127 2.1475048 1.3212116e-38
0.13051726 0.30445111 2.1530001 1.3212116e-38
0.072301254 0.32857975 2.1304212 1.3212116e-38
0.10059103 0.34055397 2.1355677 1.3212116e-38
0.13608718 0.34330115 2.1479733 1.3212116e-38
0.165842 0.35214233 2.1497502 1.3212116e-38
0.10557173 0.37212098 2.1283536 1.3212116e-38
0.13755672 0.36901084 2.13463 1.3212116e-38
0.16304763 0.36074287 2.1400001 1.3212116e-38
-0.62045538 -0.77428156 2.180923 1.3212116e-38
-0.57703537 -0.76989245 2.1770909 1.3212116e-38
-0.54027504 -0.77203929 2.1810956 1.3212116e-38
-0.49937922 -0.77009094 2.1763246 1.3212116e-38
-0.46155113 -0.77143192 2.1813715 1.3212116e-38
-0.42916358 -0.7662223 2.1735263 1.3212116e-38
-0.37974095 -0.76464158 2.1670001 1.3212116e-38
-0.33504856 -0.76384938 2.1688669 1.3212116e-38
-0.30104104 -0.76594841 2.1670003 1.3212116e-38
-0.26829523 -0.76464146 2.1670001 1.3212116e-38
-0.61676186 -0.74609727 2.1698 1.3212116e-38
-0.57844359 -0.73969418 2.1805878 1.3212116e-38
-0.54707325 -0.74293441 2.1937234 1.3212116e-38
-0.50096977 -0.75658268 2.1927001 1.3212116e-38
-0.46178475 -0.75693005 2.194 1.3212116e-38
-0.41676903 -0.75253093 2.1824446 1.3212116e-38
-0.37985283 -0.75189453 2.1820517 1.3212116e-38
-0.34176943 -0.74885207 2.1838174 1.3212116e-38
-0.29959416 -0.7486105 2.1825788 1.3212116e-38
-0.25891519 -0.74970114 2.1804562 1.3212116e-38
-0.21911252 -0.73514748 2.1767089 1.3212116e-38
-0.17970689 -0.73449242 2.1777167 1.3212116e-38
-0.14166434 -0.73876017 2.1782422 1.3212116e-38
-0.09943983 -0.73685211 2.1797333 1.3212116e-38
-0.062517025 -0.72647679 2.1793723 1.3212116e-38
-0.019555837 -0.72277063 2.171 1.3212116e-38
0.021030327 -0.72316915 2.1769319 1.3212116e-38
0.060039025 -0.72545511 2.1800425 1.3212116e-38
0.096008033 -0.72380447 2.1761818 1.3212116e-38
0.1279562 -0.72164547 2.1670001 1.3212116e-38
0.2373381 -0.72026956 2.1670001 1.3212116e-38
-0.6142413 -0.70917654 2.1670001 1.3212116e-38
-0.57529294 -0.70160246 2.1743338 1.3212116e-38
-0.54257792 -0.69780433 2.1873028 1.3212116e-38
-0.51611239 -0.68327427 2.194 1.3212116e-38
-0.053943589 -0.71399707 2.1932356 1.3212116e-38
-0.019727359 -0.71269673 2.1910455 1.3212116e-38
0.014433336 -0.71384877 2.1928182 1.3212116e-38
0.061604928 -0.71180713 2.194 1.3212116e-38
0.10395459 -0.70550627 2.1867537 1.3212116e-38
0.14070001 -0.7020396 2.1798253 1.3212116e-38
0.17958744 -0.70077187 2.1821012 1.3212116e-38
0.21957949 -0.70261753 2.1814613 1.3212116e-38
0.25955608 -0.69945276 2.1834366 1.3212116e-38
0.29976699 -0.69625181 2.1767137 1.3212116e-38
0.34125561 -0.69480717 2.176888 1.3212116e-38
0.37932125 -0.69462413 2.1773224 1.3212116e-38
0.41873518 -0.6921407 2.1753974 1.3212116e-38
0.4568215 -0.68866247 2.173579 1.3212116e-38
0.49893349 -0.68806541 2.1699474 1.3212116e-38
0.53908336 -0.68710983 2.1711626 1.3212116e-38
0.57786667 -0.68633121 2.1670001 1.3212116e-38
0.62044907 -0.68774867 2.1764255 1.3212116e-38
0.6432181 -0.68320739 2.1716669 1.3212116e-38
0.73265243 -0.68312097 2.1670001 1.3212116e-38
-0.56548381 -0.66743606 2.1670001 1.3212116e-38
-0.53935075 -0.66010779 2.1806355 1.3212116e-38
-0.50624985 -0.64934033 2.194 1.3212116e-38
0.30698219 -0.67773128 2.1911113 1.3212116e-38
0.34079298 -0.67693764 2.1917393 1.3212116e-38
0.37999484 -0.67670721 2.194 1.3212116e-38
0.42162246 -0.676458 2.1893573 1.3212116e-38
0.46503085 -0.67483467 2.1850588 1.3212116e-38
0.49681795 -0.67485964 2.1846316 1.3212116e-38
0.54509538 -0.67562842 2.181 1.3212116e-38
0.58015782 -0.67430973 2.1827173 1.3212116e-38
0.62297672 -0.67484969 2.1890295 1.3212116e-38
0.65600777 -0.67020571 2.181654 1.3212116e-38
0.69891542 -0.6655646 2.1876819 1.3212116e-38
0.74052554 -0.66748941 2.1896439 1.3212116e-38
0.78014505 -0.66853678 2.1877928 1.3212116e-38
0.81921208 -0.658216 2.1865208 1.3212116e-38
0.85891837 -0.64750296 2.1747916 1.3212116e-38
0.89665407 -0.64551234 2.173655 1.3212116e-38
0.93667412 -0.64685321 2.1815002 1.3212116e-38
0.96327615 -0.64287764 2.1775 1.3212116e-38
1.0601102 -0.64253271 2.1670001 1.3212116e-38
-0.53385001 -0.62219018 2.1727355 1.3212116e-38
-0.50043267 -0.61951256 2.1913412 1.3212116e-38
-0.4759292 -0.61287338 2.1940002 1.3212116e-38
0.78357142 -0.63312566 2.194 1.3212116e-38
0.8334254 -0.63224131 2.1891251 1.3212116e-38
0.86260527 -0.62753552 2.188319 1.3212116e-38
0.90012079 -0.62806898 2.1905167 1.3212116e-38
0.94458359 -0.62768161 2.1886609 1.3212116e-38
0.98053777 -0.62550968 2.1844561 1.3212116e-38
1.0187498 -0.61063027 2.1774776 1.3212116e-38
1.0509597 -0.61406839 2.1706667 1.3212116e-38
1.0835 -0.63771719 2.1670001 1.3212116e-38
-0.52379489 -0.59313887 2.1670001 1.3212116e-38
-0.49837881 -0.58211792 2.1776581 1.3212116e-38
-0.46463877 -0.57722515 2.1897886 1.3212116e-38
-0.42835236 -0.58088756 2.194 1.3212116e-38
1.0295005 -0.5817759 2.1869822 1.3212116e-38
1.0447656 -0.58428174 2.173125 1.3212116e-38
-0.4881655 -0.55453652 2.168 1.3212116e-38
-0.45843601 -0.54152018 2.1809435 1.3212116e-38
-0.42335081 -0.53646964 2.1877999 1.3212116e-38
-0.39909905 -0.52029145 2.194 1.3212116e-38
1.0242416 -0.53828305 2.1807368 1.3212116e-38
1.0454357 -0.54678792 2.1700001 1.3212116e-38
-0.4497714 -0.501867 2.1724782 1.3212116e-38
-0.41918799 -0.49930981 2.1769893 1.3212116e-38
-0.38237879 -0.49694088 2.1883969 1.3212116e-38
-0.35730857 -0.48685902 2.194 1.3212116e-38
1.0202037 -0.49965936 2.1740386 1.3212116e-38
-0.44800457 -0.47446671 2.1698 1.3212116e-38
-0.41905412 -0.46949106 2.168 1.3212116e-38
-0.38025004 -0.46164826 2.1783531 1.3212116e-38
-0.34987137 -0.44900608 2.1920741 1.3212116e-38
0.99371952 -0.44431123 2.1925557 1.3212116e-38
1.0138819 -0.45658174 2.1788275 1.3212116e-38
-0.37555894 -0.42351407 2.1705005 1.3212116e-38
-0.34184408 -0.42035079 2.1825242 1.3212116e-38
-0.31403407 -0.41747415 2.1825001 1.3212116e-38
0.99241352 -0.42238677 2.1896667 1.3212116e-38
1.0099512 -0.42164001 2.1787949 1.3212116e-38
-0.36254257 -0.3934997 2.1670001 1.3212116e-38
-0.33889055 -0.38149974 2.1673608 1.3212116e-38
-0.31301105 -0.38170657 2.1670001 1.3212116e-38
0.98535979 -0.3847709 2.1940002 1.3212116e-38
1.0101825 -0.38103554 2.1807506 1.3212116e-38
-0.32960251 -0.34975502 2.1670001 1.3212116e-38
-0.31635252 -0.35291144 2.1670001 1.3212116e-38
0.98771298 -0.33539993 2.1848929 1.3212116e-38
1.0050982 -0.3472001 2.1782856 1.3212116e-38
-0.32401809 -0.31163526 2.1670001 1.3212116e-38
-0.3104288 -0.30944851 2.171 1.3212116e-38
0.97936064 -0.30024943 2.179493 1.3212116e-38
0.95560884 -0.24308126 2.1940002 1.3212116e-38
0.97858626 -0.2595368 2.1787374 1.3212116e-38
0.95537663 -0.21963218 2.194 1.3212116e-38
0.9723978 -0.21903048 2.1778774 1.3212116e-38
0.95491236 -0.19850476 2.194 1.3212116e-38
0.97210836 -0.1960057 2.1847999 1.3212116e-38
1.062191 -0.19321378 2.1771817 1.3212116e-38
0.072349757 0.1120507 2.194 1.3212116e-38
0.082536198 0.11596857 2.194 1.3212116e-38
0.029777821 0.14535117 2.1670001 1.3212116e-38
0.062304009 0.14636031 2.1876483 1.3212116e-38
0.093767382 0.14469953 2.194 1.3212116e-38
0.039212383 0.16716859 2.1670003 1.3212116e-38
0.065062024 0.17516533 2.1744444 1.3212116e-38
0.095303223 0.18467167 2.1927004 1.3212116e-38
0.12467492 0.18875365 2.194 1.3212116e-38
0.074985072 0.21165511 2.1670001 1.3212116e-38
0.099965848 0.22008845 2.1821921 1.3212116e-38
0.13409668 0.22570445 2.1908915 1.3212116e-38
0.10326113 0.24950495 2.1716666 1.3212116e-38
0.1402815 0.25885633 2.1861939 1.3212116e-38
0.16651899 0.26633388 2.1940002 1.3212116e-38
0.14803256 0.29681039 2.1756179 1.3212116e-38
0.17695153 0.30285338 2.1909857 1.3212116e-38
0.20268381 0.31342858 2.194 1.3212116e-38
0.15002227 0.33116865 2.1691539 1.3212116e-38
0.18139696 0.33749411 2.1780136 1.3212116e-38
0.20615147 0.33951283 2.1883478 1.3212116e-38
-0.53521931 -0.74105901 2.2125971 1.3212116e-38
-0.50073516 -0.74025422 2.2222664 1.3212116e-38
-0.46071747 -0.74313068 2.2262952 1.3212116e-38
-0.42034179 -0.73688537 2.2256348 1.3212116e-38
-0.37995997 -0.73339641 2.2211139 1.3212116e-38
-0.33845931 -0.73156601 2.2220438 1.3212116e-38
-0.3006337 -0.73188204 2.2239859 1.3212116e-38
-0.26307645 -0.73455143 2.2207439 1.3212116e-38
-0.22485726 -0.72455639 2.2098 1.3212116e-38
-0.17939329 -0.72371507 2.2098 1.3212116e-38
-0.13978153 -0.72732741 2.209579 1.3212116e-38
-0.099795595 -0.7268073 2.2080002 1.3212116e-38
-0.07780572 -0.72758865 2.2080002 1.3212116e-38
-0.52921915 -0.71251816 2.2080002 1.3212116e-38
-0.5017392 -0.69996369 2.2209139 1.3212116e-38
-0.47266138 -0.69423097 2.237 1.3212116e-38
-0.42168209 -0.71020949 2.2369998 1.3212116e-38
-0.38004419 -0.71698719 2.2369998 1.3212116e-38
-0.33810657 -0.71520102 2.2369998 1.3212116e-38
-0.30760798 -0.71534836 2.2369998 1.3212116e-38
-0.25165632 -0.71145737 2.2304997 1.3212116e-38
-0.21931741 -0.70958805 2.2278614 1.3212116e-38
-0.18027467 -0.7121349 2.2278864 1.3212116e-38
-0.14028859 -0.71280265 2.2251911 1.3212116e-38
-0.09947256 -0.71231389 2.2224998 1.3212116e-38
-0.061624732 -0.70623881 2.2208984 1.3212116e-38
-0.020019051 -0.70147401 2.219804 1.3212116e-38
0.021761522 -0.70225209 2.2181878 1.3212116e-38
0.060523614 -0.69687688 2.2190423 1.3212116e-38
0.097277902 -0.6900875 2.216228 1.3212116e-38
0.14124824 -0.68625885 2.2222631 1.3212116e-38
0.17947735 -0.68562227 2.2202284 1.3212116e-38
0.22129135 -0.68598717 2.2130001 1.3212116e-38
0.26059249 -0.68586844 2.21156 1.3212116e-38
0.28656518 -0.68600035 2.2178891 1.3212116e-38
0.46683431 -0.68342859 2.2080002 1.3212116e-38
-0.49619669 -0.66442978 2.214133 1.3212116e-38
-0.46002939 -0.65917313 2.2352922 1.3212116e-38
-0.42619491 -0.65666151 2.2360866 1.3212116e-38
-0.39839906 -0.64127332 2.237 1.3212116e-38
0.11376742 -0.6740827 2.2369998 1.3212116e-38
0.13815923 -0.67497277 2.2357352 1.3212116e-38
0.18212014 -0.67317498 2.2362819 1.3212116e-38
0.22057441 -0.67623049 2.2330511 1.3212116e-38
0.26102319 -0.67374593 2.2282305 1.3212116e-38
0.3012926 -0.66879243 2.227133 1.3212116e-38
0.34002361 -0.66467088 2.2224941 1.3212116e-38
0.37913015 -0.66309738 2.2249763 1.3212116e-38
0.41831529 -0.66516036 2.2233102 1.3212116e-38
0.46088597 -0.66221827 2.2253337 1.3212116e-38
0.5011425 -0.65557766 2.2200761 1.3212116e-38
0.53939605 -0.66020215 2.2203538 1.3212116e-38
0.57935548 -0.65785742 2.223048 1.3212116e-38
0.61949223 -0.65984368 2.2186763 1.3212116e-38
0.66138011 -0.65531063 2.2212846 1.3212116e-38
0.69866872 -0.64937979 2.2161865 1.3212116e-38
0.73903012 -0.64729935 2.2122886 1.3212116e-38
0.77809948 -0.64779443 2.2111251 1.3212116e-38
0.81439543 -0.64807522 2.2106471 1.3212116e-38
-0.48155433 -0.63716573 2.2080002 1.3212116e-38
-0.45777813 -0.62217939 2.2237761 1.3212116e-38
-0.41869357 -0.62056631 2.231461 1.3212116e-38
-0.39271781 -0.61192006 2.2369998 1.3212116e-38
0.49000952 -0.63701236 2.237 1.3212116e-38
0.70233303 -0.63703996 2.2354443 1.3212116e-38
0.73871952 -0.63530892 2.2265215 1.3212116e-38
0.77895349 -0.63335407 2.2236667 1.3212116e-38
0.81727642 -0.63455808 2.2237997 1.3212116e-38
0.86009485 -0.61838371 2.2260768 1.3212116e-38
0.89869446 -0.61363 2.2299442 1.3212116e-38
0.94101411 -0.61776853 2.225646 1.3212116e-38
0.97910953 -0.60995173 2.2207088 1.3212116e-38
1.0105934 -0.60785431 2.2246666 1.3212116e-38
-0.44933316 -0.58877027 2.2098751 1.3212116e-38
-0.41892293 -0.57959247 2.2155831 1.3212116e-38
-0.38229772 -0.57672763 2.2320752 1.3212116e-38
-0.35152858 -0.56031525 2.237 1.3212116e-38
0.8926695 -0.59866381 2.237 1.3212116e-38
0.9565838 -0.59866381 2.237 1.3212116e-38
0.97454053 -0.59501159 2.2369998 1.3212116e-38
1.0185661 -0.57876891 2.222131 1.3212116e-38
1.04445 -0.56970716 2.2155001 1.3212116e-38
-0.40545622 -0.5436216 2.2100456 1.3212116e-38
-0.37872744 -0.53941184 2.2242064 1.3212116e-38
-0.34276816 -0.53528494 2.2359815 1.3212116e-38
-0.31744093 -0.52196664 2.237 1.3212116e-38
0.9988572 -0.52781719 2.2080002 1.3212116e-38
1.0104407 -0.54161555 2.2154872 1.3212116e-38
-0.37034214 -0.50785673 2.2087896 1.3212116e-38
-0.34085149 -0.49968457 2.2261348 1.3212116e-38
-0.31066212 -0.49194631 2.2369998 1.3212116e-38
0.99564254 -0.51131433 2.237 1.3212116e-38
1.0123364 -0.50249434 2.2231722 1.3212116e-38
-0.36379433 -0.47314289 2.2080002 1.3212116e-38
-0.33812481 -0.46412802 2.2146101 1.3212116e-38
-0.31175578 -0.46322086 2.2208283 1.3212116e-38
0.99554884 -0.44895318 2.2325382 1.3212116e-38
