# .PCD v0.7 - Point Cloud Data file format
VERSION 0.7
FIELDS x y z rgb
SIZE 4 4 4 4
TYPE F F F F
COUNT 1 1 1 1
WIDTH 101
HEIGHT 1
VIEWPOINT 0 0 0 1 0 0 0
POINTS 101
DATA ascii
0.23189504 -0.0043225097 0.58711278 1.0400807e-38
0.24504888 -0.0084165651 0.59452993 8.1924378e-39
0.22569874 0.0026850284 0.58711988 1.0216057e-38
0.24145734 0.0014974892 0.59654552 1.0586636e-38
0.23323502 -0.15427285 0.639 1.7972746e-38
0.23903525 -0.020210477 0.60625005 6.5347312e-39
0.25590923 -0.023039527 0.60905659 4.0515658e-39
0.23435386 -0.16854206 0.65329075 1.834117e-38
0.24738774 -0.17792276 0.65638036 1.8433727e-38
0.23215868 -0.15387473 0.64513218 1.8064581e-38
0.24371333 -0.15206023 0.64719999 1.7880191e-38
0.25290912 -0.12943847 0.74454075 1.7972026e-38
0.26074183 -0.11683583 0.73408717 1.8340451e-38
0.3181724 -0.20300001 0.87 1.8064583e-38
0.32388622 -0.20201382 0.87650007 1.7788716e-38
0.30432984 -0.18271112 0.87466669 1.7602881e-38
0.32585534 -0.19047435 0.87666684 1.7602881e-38
0.43841338 -0.33448669 0.91700006 1.9910299e-38
0.3027423 -0.2055382 0.89326352 1.8064223e-38
0.33661297 -0.2030665 0.88695341 1.7602884e-38
0.306283 -0.19199662 0.88805348 1.787947e-38
0.32903364 -0.19355631 0.88690025 1.7418852e-38
0.32779151 -0.32111436 0.89889091 2.0371996e-38
0.44357863 -0.36627147 0.95200014 2.0741137e-38
0.43209004 -0.33588442 0.93978184 1.9818103e-38
0.44202569 -0.33726108 0.93350011 1.9726266e-38
0.42717066 -0.31669208 0.95344448 1.9079818e-38
0.44371271 -0.3091439 0.95323527 1.880323e-38
0.43199238 -0.36243427 0.96100003 2.0740057e-38
0.44583258 -0.36227545 0.96400005 2.0463833e-38
0.43223727 -0.33207312 0.96741676 1.9540437e-38
0.44667459 -0.35660443 0.96305001 2.027908e-38
0.4302128 -0.31351554 0.9642902 1.8987262e-38
0.44796804 -0.30349129 0.96640027 1.8709955e-38
0.30915555 -0.40584615 1.039 1.9911376e-38
0.3282274 -0.40294987 1.0352224 2.0186883e-38
0.31187648 -0.39602453 1.0377144 2.0187242e-38
0.33628145 -0.37751856 1.0352899 2.0187244e-38
0.33408734 -0.35130215 1.0380293 2.009433e-38
0.30236471 -0.40516877 1.0492334 2.0002853e-38
0.348692 -0.4061144 1.0529217 2.0187243e-38
0.36920297 -0.40576428 1.0669168 2.0280158e-38
0.30294862 -0.39024073 1.0531621 2.0094329e-38
0.336422 -0.37911257 1.0577606 2.0186884e-38
0.36483243 -0.38271523 1.0633914 2.027944e-38
0.31482542 -0.35166669 1.0550003 1.9910658e-38
0.32884541 -0.35689577 1.0449091 2.0186524e-38
0.38927963 -0.41462204 1.1069367 2.0371993e-38
0.40522084 -0.41841292 1.0977213 2.0371633e-38
0.34844494 -0.37833449 1.0845002 2.0278717e-38
0.3698673 -0.37025562 1.0942221 2.0093971e-38
0.40280002 -0.39750001 1.113 2.0831172e-38
0.28333059 -0.28195286 1.0314493 1.9448598e-38
0.3974264 -0.41237554 1.122 2.02798e-38
0.42303345 -0.42404386 1.130586 2.046383e-38
0.45341173 -0.41756591 1.142866 2.046383e-38
0.39421961 -0.3855806 1.1268752 2.0002494e-38
0.41332102 -0.3890824 1.1257123 2.009469e-38
0.44806153 -0.3948389 1.1435834 2.0002133e-38
0.46815944 -0.43144971 1.1610001 2.0647505e-38
0.50215572 -0.40131384 1.2100002 1.9356408e-38
0.50238365 -0.39030004 1.2239298 1.9171293e-38
0.5296998 -0.38438311 1.2342501 1.8711035e-38
0.528 -0.35434669 1.2320001 1.8433365e-38
0.47152132 -0.25946978 1.2332309 1.7972026e-38
0.50946754 -0.24578743 1.2360001 1.8249334e-38
0.50800842 -0.23661792 1.2336001 1.8525201e-38
0.54315799 -0.40368772 1.256875 1.8711751e-38
0.56613672 -0.40438336 1.2770001 1.8803228e-38
0.50759465 -0.38304859 1.2463604 1.898654e-38
0.53334904 -0.38625711 1.2501085 1.8802869e-38
0.53171718 -0.35804671 1.2490001 1.8434078e-38
0.51323235 -0.28094003 1.2770001 1.8064221e-38
0.47785121 -0.24799991 1.2595 1.7973106e-38
0.49916482 -0.25731027 1.2514187 1.8064941e-38
0.47614723 -0.22648521 1.2483875 1.8157138e-38
0.48247409 -0.22714995 1.247667 1.824933e-38
0.43313247 -0.41632375 1.2941878 1.9541156e-38
0.44943181 -0.41562706 1.3130001 1.9356768e-38
0.54934925 -0.40257972 1.3060001 1.8802511e-38
0.56691742 -0.40892509 1.2900001 1.880323e-38
0.45245337 -0.39981338 1.3160001 1.9172013e-38
0.54458624 -0.39313111 1.3019725 1.8802511e-38
0.51157904 -0.28204003 1.2820001 1.8064221e-38
0.51351738 -0.27400014 1.2831111 1.815642e-38
0.4670653 -0.4440546 1.3398336 1.9817743e-38
0.48285717 -0.44809148 1.3520001 1.963371e-38
0.43760246 -0.40589127 1.3318336 1.9355687e-38
0.46225035 -0.4192524 1.3403332 1.9356405e-38
0.4809882 -0.4270021 1.3498574 1.9264569e-38
0.4669064 -0.39845496 1.3310001 1.9079816e-38
0.49935791 -0.447889 1.3930001 1.9448962e-38
0.45141694 -0.40689027 1.3715386 1.9171293e-38
0.45216635 -0.39875367 1.3717779 1.9171288e-38
0.50859326 -0.45892778 1.4090002 1.9540796e-38
0.17811468 -0.061017759 0.81362855 1.7879827e-38
0.51323235 -0.28094003 1.2770001 1.8064221e-38
0.47785121 -0.24799991 1.2595 1.7973106e-38
0.53171718 -0.35804671 1.2490001 1.8434078e-38
0.56613672 -0.40438336 1.2770001 1.8803228e-38
0.50759465 -0.38304859 1.2463604 1.898654e-38
