# .PCD v0.7 - Point Cloud Data file format
VERSION 0.7
FIELDS x y z rgb
SIZE 4 4 4 4
TYPE F F F F
COUNT 1 1 1 1
WIDTH 253
HEIGHT 1
VIEWPOINT 0 0 0 1 0 0 0
POINTS 253
DATA ascii
-0.043122858 -0.043122858 0.55900002 8.9469614e-39
-0.034138735 -0.04531908 0.55852944 1.1442759e-38
-0.044103023 -0.060309872 0.56963843 7.940043e-39
-0.035094094 -0.060373873 0.56723815 1.0065244e-38
-0.08916422 -0.0050842473 0.59775901 1.2890811e-38
-0.076400898 -0.0044368166 0.59856099 1.4823683e-38
-0.099097677 0.012371814 0.5971933 1.3167036e-38
-0.07698673 0.029508799 0.59878802 1.547084e-38
-0.081753626 0.042083587 0.59900004 1.3810961e-38
-0.076611601 0.041577641 0.59900004 1.7682097e-38
-0.088088676 -0.085815661 0.63533765 1.5473775e-38
-0.088869199 -0.053130187 0.63094586 7.386872e-39
-0.064160533 -0.054374445 0.61960423 6.9266197e-39
-0.1289483 -0.010181287 0.61575496 1.36291e-38
-0.10107569 -0.021528458 0.6211127 8.4769785e-39
-0.064997375 -0.022008769 0.61644244 1.0148377e-38
-0.13390681 0.017930938 0.6210081 1.1324924e-38
-0.10035535 0.024419833 0.60768521 9.0229188e-39
-0.065358117 0.015857557 0.60808104 1.3630528e-38
-0.12726758 0.05009228 0.62281078 1.2615293e-38
-0.098641023 0.058877014 0.60814607 1.0586998e-38
-0.069394402 0.067840666 0.6150021 1.9432739e-38
-0.088288136 0.092670359 0.62028319 9.5742835e-39
-0.062686525 0.097362593 0.6255095 1.4549257e-38
-0.067368999 0.12178761 0.63855565 9.1122333e-39
-0.093192644 -0.08175236 0.64352959 1.362949e-38
-0.12026381 -0.040901907 0.64100003 2.3043856e-38
-0.097481899 -0.067911975 0.64879924 1.0145877e-38
-0.065523751 -0.064093538 0.64578152 1.3843454e-38
-0.037761308 -0.047101319 0.6540001 2.0375607e-38
-0.12588127 -0.029574502 0.64115071 1.3075216e-38
-0.11289971 -0.027339211 0.64138943 9.8566689e-39
-0.046198167 -0.034252115 0.64168 1.6142926e-38
-0.05843658 0.033041961 0.66267377 1.6297013e-38
-0.13653335 0.052419052 0.64000005 2.0369423e-38
-0.080225721 0.050374292 0.65300012 1.8506066e-38
-0.057557113 0.056845471 0.65646571 1.7680659e-38
-0.03994 0.062763497 0.6656667 2.1296483e-38
-0.082588896 0.11929049 0.64233339 8.3793402e-39
-0.049678855 0.10991067 0.6477499 1.9893363e-38
-0.084147364 0.14050524 0.65725499 9.2977036e-39
-0.059825413 0.14071044 0.65086752 1.3351433e-38
-0.038938332 0.15702833 0.67025 1.8510061e-38
-0.084589794 0.1821377 0.66696727 8.5623008e-39
-0.059170466 0.17981909 0.66237879 1.1417125e-38
-0.037773866 0.18090793 0.67708796 1.8050165e-38
-0.084042303 0.21774161 0.67546308 7.7325401e-39
-0.059507418 0.21994624 0.67162961 9.8501613e-39
-0.038266078 0.21540231 0.67850935 1.5746364e-38
-0.080833331 0.24120668 0.67900002 7.4566777e-39
-0.059521895 0.24966215 0.67720246 8.6526971e-39
0.18853152 0.26979172 0.67254514 9.8487138e-39
0.21941462 0.26580575 0.66824472 1.2336917e-38
0.25581306 0.2694883 0.67224717 1.7684262e-38
0.2805815 0.27612668 0.67899996 2.0635605e-38
0.18248177 0.29017067 0.66982043 8.6519726e-39
0.2198634 0.28800547 0.66003883 1.0403688e-38
0.26061621 0.28963417 0.66715735 1.6024738e-38
0.28578725 0.29383987 0.67716241 1.8144876e-38
-0.12572175 -0.058873408 0.68524647 1.1707071e-38
-0.11388367 -0.060267329 0.68162161 6.3720096e-39
-0.092609517 0.19881906 0.68000001 8.2907585e-39
-0.031852234 0.19005688 0.68892318 1.7865408e-38
-0.092838645 0.22371918 0.68634576 8.1920847e-39
-0.027120188 0.22225903 0.69332987 1.6944179e-38
0.19126394 0.2370736 0.71493816 1.1875923e-38
0.22028825 0.23447911 0.70960438 1.3626921e-38
0.25357869 0.23524246 0.71183151 1.6760852e-38
-0.089566179 0.26104546 0.69405621 8.2853565e-39
-0.05957846 0.26742193 0.68325114 8.1920805e-39
-0.024485098 0.26084292 0.69676656 1.3903526e-38
0.15130197 0.26984793 0.70722759 1.1046525e-38
0.1776949 0.25589806 0.69627178 1.1231278e-38
0.21987687 0.24664949 0.68927193 1.371912e-38
0.26227185 0.25103179 0.69325668 1.8236348e-38
0.29545856 0.26421565 0.70240301 2.0911106e-38
0.32236937 0.27616197 0.71727276 2.1002587e-38
-0.087879963 0.29435715 0.70768458 7.5474356e-39
-0.059521396 0.29694301 0.69511908 6.902062e-39
-0.02291139 0.29807439 0.70540106 9.6654071e-39
0.11983334 0.31567526 0.71900004 8.55977e-39
0.14145516 0.29727006 0.70176411 9.3880929e-39
0.16348392 0.29072794 0.68285549 9.2051422e-39
0.30578551 0.29371014 0.6901347 1.9343419e-38
0.33623457 0.30250275 0.7075758 1.7961563e-38
-0.01298508 0.3205578 0.71766675 8.2831929e-39
0.12086572 0.32026002 0.71700001 9.1089907e-39
0.35550004 0.3202886 0.71100008 1.620806e-38
0.18536596 0.19681716 0.75618249 1.4178299e-38
0.21472651 0.19707605 0.7552858 1.5375761e-38
0.2426607 0.19936024 0.75774997 1.7219668e-38
0.068313286 0.23881692 0.75757909 1.1783742e-38
0.085677028 0.23589316 0.75769478 1.2245077e-38
0.14878932 0.22406983 0.74885321 1.1783735e-38
0.17950355 0.21955746 0.73859382 1.2704969e-38
0.21943913 0.21491458 0.73636311 1.4639275e-38
0.25908837 0.21913758 0.73899925 1.7589173e-38
0.29470038 0.23093173 0.74410886 1.9894068e-38
0.32252792 0.2379781 0.75699997 2.0356129e-38
-0.0065094857 0.2590653 0.72569466 1.4270857e-38
0.022464206 0.26936677 0.752756 9.7554349e-39
0.060517214 0.26040176 0.75344121 1.0033102e-38
0.090153299 0.26104867 0.75561637 9.2958987e-39
0.13837634 0.25854102 0.73740387 1.0494076e-38
0.16583474 0.244195 0.72375321 1.1691533e-38
0.30794194 0.25000936 0.73077404 2.0910383e-38
0.33834428 0.26288268 0.74481624 1.9712922e-38
0.36816138 0.27193227 0.75296819 1.6118011e-38
-0.087085716 0.31405714 0.72000003 6.8138362e-39
-0.0039878041 0.30158705 0.72417426 1.0217854e-38
0.019638302 0.29969642 0.74197656 8.2824685e-39
0.057891138 0.29795548 0.75075656 7.6367389e-39
0.10747162 0.30206099 0.74425375 8.2821069e-39
0.12450124 0.29208696 0.72866482 9.7561552e-39
0.34896094 0.29004785 0.72929507 1.8515096e-38
0.3662546 0.2917006 0.73789591 1.6026892e-38
-0.0042645321 0.32318091 0.72858626 8.0058844e-39
0.020735968 0.32526147 0.73876011 7.1764852e-39
0.049278814 0.32737866 0.75189042 5.8861066e-39
0.10097016 0.3262586 0.74296778 7.6374564e-39
0.12 0.3209143 0.72000003 8.7416473e-39
0.15499802 0.15818061 0.79723823 1.4546004e-38
0.17850605 0.15778103 0.79711807 1.5651988e-38
0.20424999 0.15827002 0.79799998 1.694201e-38
0.037223812 0.19979653 0.79766673 1.3715887e-38
0.06380818 0.19463328 0.79088575 1.3808804e-38
0.10064736 0.18968801 0.79010206 1.3901354e-38
0.14212729 0.18263008 0.78288794 1.2980123e-38
0.17938742 0.17820047 0.77621531 1.4730755e-38
0.21970619 0.17917019 0.77744734 1.6481031e-38
0.25695404 0.18838009 0.78198391 1.8323864e-38
0.29000789 0.1951883 0.79360706 1.8509332e-38
-0.0056398343 0.2356589 0.79214495 1.132168e-38
0.023206089 0.224095 0.78111649 1.1689382e-38
0.059524298 0.21947411 0.77006537 1.2428031e-38
0.10022075 0.21849331 0.77033842 1.2520942e-38
0.13180664 0.21637306 0.77140814 1.0033461e-38
0.16285715 0.20049527 0.76000011 1.3073394e-38
0.26861265 0.20447412 0.76536882 1.8878472e-38
0.30258501 0.21347925 0.77636486 1.9340171e-38
0.33762616 0.22639407 0.78069448 1.989407e-38
0.37377116 0.23499799 0.79079443 1.9065749e-38
0.40052003 0.23940001 0.79800004 1.878843e-38
-0.0065759979 0.24973385 0.77528375 1.0306089e-38
0.016835481 0.25077072 0.76518446 1.0306808e-38
0.047358047 0.24267085 0.76006085 1.1046172e-38
0.10902389 0.25944534 0.76520061 7.0853672e-39
0.12352255 0.25179017 0.76488304 7.3623142e-39
0.35014975 0.24759021 0.76511228 1.9434894e-38
0.37730873 0.25229573 0.77380651 1.7868645e-38
0.4000181 0.24061811 0.79700005 1.8512928e-38
0.07473588 0.31374055 0.76298004 5.3336502e-39
0.097983159 0.29953462 0.76613367 4.9666698e-39
0.069223411 0.33553532 0.77246732 3.3100351e-39
0.085697681 0.33037046 0.76819372 4.7833589e-39
0.41825706 -0.044480316 0.83900017 4.0501379e-39
0.38996306 -0.0081820395 0.83388352 8.7495745e-39
0.41003144 -0.018737899 0.83353722 1.0865388e-38
0.35676596 0.031997446 0.83594567 1.1599355e-38
0.3815951 0.02025947 0.82677817 9.5757338e-39
0.4054569 0.022219433 0.81930786 9.3938733e-39
0.35085592 0.06272532 0.82848811 1.0495165e-38
0.37871403 0.059675884 0.81426853 1.1693714e-38
0.40439114 0.06051394 0.81457883 1.0955794e-38
0.34966701 0.099261448 0.8248347 8.0091256e-39
0.37924248 0.10084011 0.80846971 7.5513956e-39
0.40244198 0.094222605 0.80883324 1.0219311e-38
0.10629518 0.151437 0.8290357 1.3993907e-38
0.14081031 0.14472623 0.82143891 1.4638559e-38
0.17883644 0.14244848 0.8185907 1.6113322e-38
0.21702075 0.15046825 0.81998116 1.6481386e-38
0.24905451 0.15703218 0.83007717 1.5745615e-38
0.35424665 0.12885234 0.82928365 6.9949722e-39
0.37973988 0.13607883 0.81424809 6.3521308e-39
0.40384647 0.14080916 0.81063169 7.3680918e-39
0.034324683 0.19538932 0.81546259 1.3718045e-38
0.061896924 0.18120673 0.81872982 1.4270137e-38
0.097886831 0.17001934 0.81182253 1.3993191e-38
0.12980743 0.16537523 0.80373895 1.3809163e-38
0.2292787 0.16231205 0.80386883 1.6757257e-38
0.26371145 0.17040133 0.81528437 1.6942365e-38
0.29997808 0.18129031 0.81970721 1.7128556e-38
0.33508462 0.19172031 0.83070779 1.961856e-38
0.36333838 0.19804969 0.83900011 1.8973189e-38
-0.0099747647 0.23232508 0.80612493 1.1232736e-38
0.015235462 0.21118686 0.80953759 1.2889007e-38
0.31526047 0.20113857 0.80150002 1.9249057e-38
0.34466073 0.20841867 0.81443298 1.9709678e-38
0.38020632 0.21828456 0.81917119 1.897283e-38
0.4084321 0.22489086 0.82490242 1.777465e-38
-0.018430477 0.24179667 0.80600005 1.1413879e-38
0.067733124 0.35511726 0.80111116 1.56336e-39
0.38046667 -0.081110477 0.87800002 3.3168847e-39
0.35788953 -0.041809525 0.87800002 2.6733089e-39
0.38316047 -0.054837007 0.86695361 3.592031e-39
0.41192326 -0.0569809 0.85334712 3.5920352e-39
0.35382816 -0.015421888 0.87088817 3.8682606e-39
0.37628162 -0.022709107 0.85386449 5.9858706e-39
0.40619648 -0.035039488 0.84491968 7.8240183e-39
0.34536511 0.021316789 0.85894775 9.1147543e-39
0.36312982 0.0085632354 0.84231108 1.0679553e-38
0.33359292 0.059095398 0.85778183 1.0035264e-38
0.15073404 0.11692307 0.86494058 1.4731478e-38
0.17312764 0.11701278 0.85924363 1.5100985e-38
0.31434497 0.10688718 0.87404078 1.1968123e-38
0.33075449 0.099883735 0.8565194 9.3898936e-39
0.075527295 0.15662681 0.85926026 1.3901356e-38
0.099654287 0.14157118 0.85614705 1.4270497e-38
0.13804224 0.12596804 0.85167408 1.4915865e-38
0.18158895 0.1249449 0.84981632 1.5929293e-38
0.21933764 0.13990194 0.84835202 1.528428e-38
0.26371574 0.15184376 0.85890877 1.3626202e-38
0.302975 0.14318652 0.86620557 1.2060676e-38
0.33756942 0.14044014 0.85334134 1.0126015e-38
0.36753911 0.15448156 0.84945887 1.0032375e-38
0.06313242 0.16911495 0.84915698 1.399463e-38
0.27606666 0.16081858 0.84325004 1.445524e-38
0.30455032 0.16447389 0.84807897 1.4087179e-38
0.34226876 0.17390329 0.85034996 1.6945247e-38
0.37518367 0.18151405 0.85837227 1.9065386e-38
0.40670609 0.1973771 0.87646174 1.7589537e-38
0.38903069 0.20289938 0.84749228 1.8788796e-38
0.41802484 0.20897852 0.85882801 1.7498423e-38
0.44150859 0.20821144 0.87800002 1.7036725e-38
0.34837395 -0.046795815 0.89646327 3.3154469e-39
0.37343577 -0.062728658 0.88644177 3.5927541e-39
0.31797007 -0.0046008956 0.9042353 1.0950744e-38
0.33725429 -0.020374158 0.89493352 4.8798874e-39
0.3135339 0.02302693 0.90084267 1.1230568e-38
0.32906389 0.015881117 0.89066428 1.0585559e-38
0.31353447 0.060987476 0.89967346 1.1508953e-38
0.32232124 0.057301737 0.88351655 1.1322399e-38
0.3044959 0.10064977 0.89691603 1.2153236e-38
0.23306915 0.14066488 0.91037107 1.3350697e-38
0.2601817 0.13872334 0.89723855 1.3350697e-38
0.29066521 0.12887923 0.89272624 1.2429459e-38
0.39684474 0.18798818 0.88468748 1.9986619e-38
0.41683322 0.19222745 0.89758646 1.7589536e-38
0.45196873 0.19838749 0.91082484 1.5379004e-38
0.43211064 0.20231093 0.88751149 1.6576109e-38
0.44614267 0.20342143 0.89152521 1.6299521e-38
0.33140224 -0.040870797 0.92633343 3.6853029e-39
0.32796258 -0.029000582 0.93230319 3.9593758e-39
0.31112227 0.028901385 0.93541396 5.9869552e-39
0.30748245 0.059816904 0.92655009 7.922332e-39
0.27754563 0.1179385 0.925143 1.2702829e-38
0.29596847 0.10063787 0.92482531 1.1601868e-38
0.22507605 0.13239941 0.92615759 1.3626937e-38
0.26114738 0.12808388 0.92507064 1.2797892e-38
0.28293237 0.12263454 0.92225003 1.233727e-38
0.43394178 0.19248314 0.92854553 1.6575388e-38
0.44727737 0.19463129 0.9232564 1.5193542e-38
0.087195948 0.27269447 0.70047063 1.2891891e-38
