# .PCD v0.7 - Point Cloud Data file format
VERSION 0.7
FIELDS x y z rgb
SIZE 4 4 4 4
TYPE F F F F
COUNT 1 1 1 1
WIDTH 1035
HEIGHT 1
VIEWPOINT 0 0 0 1 0 0 0
POINTS 1035
DATA ascii
0.72617674 0.099246584 2.4136367 8.868888e-39
0.34954932 0.12886611 2.4135337 8.868888e-39
0.37987721 0.14059523 2.4190447 8.868888e-39
0.41970238 0.14774579 2.4216599 8.868888e-39
0.44394153 0.15348165 2.4260004 8.868888e-39
0.71599525 0.15033993 2.4160838 8.868888e-39
0.72422957 0.14759906 2.4090004 8.868888e-39
0.39068988 0.17586038 2.4154484 8.868888e-39
0.42021114 0.18208164 2.4167702 8.868888e-39
0.45386419 0.18628214 2.4260001 8.868888e-39
0.48519999 0.19639048 2.4260001 8.868888e-39
0.7120859 0.18076991 2.4169993 8.868888e-39
0.72270006 0.17482458 2.4090002 8.868888e-39
0.39651415 0.21215566 2.4127781 8.868888e-39
0.42047948 0.21901113 2.4094982 8.868888e-39
0.46112865 0.21901532 2.4208047 8.868888e-39
0.49438268 0.22565655 2.4260006 8.868888e-39
0.52678859 0.23335811 2.4260001 8.868888e-39
0.70410931 0.21687749 2.4200506 8.868888e-39
0.42903146 0.24273546 2.4090002 8.868888e-39
0.462376 0.25952888 2.4110942 8.868888e-39
0.49989197 0.2614862 2.4212182 8.868888e-39
0.53187168 0.27679503 2.4260004 8.868888e-39
0.67693853 0.263484 2.4226003 8.868888e-39
0.68996853 0.25257152 2.4215653 8.868888e-39
0.46206921 0.28984478 2.4090002 8.868888e-39
0.50233889 0.29195979 2.4129226 8.868888e-39
0.53437114 0.29551473 2.4234812 8.868888e-39
0.59624541 0.30810511 2.4203336 8.868888e-39
0.61343145 0.31075907 2.4260001 8.868888e-39
0.020940002 -0.60260665 2.4430001 8.868888e-39
-0.046998676 -0.56863737 2.4430003 8.868888e-39
-0.020004814 -0.57740599 2.4485004 8.868888e-39
0.020974813 -0.58141643 2.4542887 8.868888e-39
0.061087638 -0.57637846 2.456537 8.868888e-39
0.10014181 -0.57628745 2.4582431 8.868888e-39
0.13972926 -0.57446104 2.4564824 8.868888e-39
0.17333104 -0.56790394 2.448741 8.868888e-39
0.22096233 -0.56345171 2.4447505 8.868888e-39
0.26143274 -0.56495702 2.4430006 8.868888e-39
0.29902112 -0.56534725 2.4437397 8.868888e-39
0.33513534 -0.5661236 2.4453187 8.868888e-39
0.37900177 -0.56366557 2.4430003 8.868888e-39
0.40716669 -0.56305337 2.4430001 8.868888e-39
0.59050804 -0.56258804 2.4430001 8.868888e-39
0.66620231 -0.56227779 2.4430003 8.868888e-39
-0.046533339 -0.54909337 2.4430001 8.868888e-39
-0.019339198 -0.54512233 2.4456158 8.868888e-39
0.019514866 -0.54233599 2.4639707 8.868888e-39
0.050625324 -0.54109794 2.4775898 8.868888e-39
0.098333336 -0.55879557 2.4780004 8.868888e-39
0.13976246 -0.55806041 2.4754291 8.868888e-39
0.18216661 -0.55499905 2.4669232 8.868888e-39
0.21939482 -0.55840391 2.4720001 8.868888e-39
0.2625955 -0.55534524 2.4693027 8.868888e-39
0.29977944 -0.55186814 2.467428 8.868888e-39
0.3415007 -0.55549902 2.4665158 8.868888e-39
0.37959799 -0.5503512 2.4610682 8.868888e-39
0.42069885 -0.54558682 2.4616408 8.868888e-39
0.46172142 -0.54365742 2.4641786 8.868888e-39
0.50000554 -0.53949374 2.4675076 8.868888e-39
0.53752929 -0.53934145 2.4669552 8.868888e-39
0.58271658 -0.54595822 2.4633844 8.868888e-39
0.62103736 -0.54215866 2.461885 8.868888e-39
0.66083747 -0.54065663 2.4649997 8.868888e-39
0.70046455 -0.53328842 2.4584906 8.868888e-39
0.73930699 -0.53297114 2.4579005 8.868888e-39
0.77830952 -0.53491098 2.4602757 8.868888e-39
0.81795055 -0.5295704 2.4599636 8.868888e-39
0.86077082 -0.52958 2.4622495 8.868888e-39
0.90749693 -0.52684063 2.4507275 8.868888e-39
-0.0054288893 -0.49868226 2.4430003 8.868888e-39
0.020587875 -0.50013191 2.4510276 8.868888e-39
0.059059512 -0.49677241 2.4684901 8.868888e-39
0.08726 -0.48864061 2.4762006 8.868888e-39
0.53100008 -0.51683998 2.4780002 8.868888e-39
0.69759536 -0.51259303 2.4722142 8.868888e-39
0.73964411 -0.51117516 2.4767146 8.868888e-39
0.77172005 -0.51589602 2.4780004 8.868888e-39
0.81760335 -0.512519 2.4773083 8.868888e-39
0.86548316 -0.51278418 2.4733481 8.868888e-39
0.90003985 -0.50070465 2.4616499 8.868888e-39
0.92074293 -0.50184 2.46 8.868888e-39
0.022443373 -0.46157503 2.4429994 8.868888e-39
0.061796341 -0.45933756 2.4602618 8.868888e-39
0.091958344 -0.45758453 2.4726808 8.868888e-39
0.87208509 -0.45396405 2.4762006 8.868888e-39
0.89182442 -0.45949763 2.4583321 8.868888e-39
0.035675555 -0.43353558 2.4430001 8.868888e-39
0.062791906 -0.42191488 2.4548459 8.868888e-39
0.098702855 -0.41826856 2.4671998 8.868888e-39
0.13000524 -0.41094786 2.4780004 8.868888e-39
0.86768013 -0.41759548 2.4759059 8.868888e-39
0.89380234 -0.421868 2.4571109 8.868888e-39
0.069024429 -0.38596806 2.4430006 8.868888e-39
0.099601507 -0.37898478 2.4550841 8.868888e-39
0.1375832 -0.38017324 2.467731 8.868888e-39
0.86230141 -0.37937379 2.4651225 8.868888e-39
0.89027506 -0.38967615 2.448667 8.868888e-39
0.10535689 -0.34350258 2.4468167 8.868888e-39
0.13988137 -0.33925226 2.4632063 8.868888e-39
0.17973767 -0.33130172 2.4774702 8.868888e-39
0.20437601 -0.32520804 2.4780004 8.868888e-39
0.83240581 -0.33141148 2.4780004 8.868888e-39
0.85516077 -0.33974355 2.4584606 8.868888e-39
0.11478221 -0.30634442 2.4430003 8.868888e-39
0.14007965 -0.29881462 2.451 8.868888e-39
0.17818697 -0.3000721 2.4660792 8.868888e-39
0.20532003 -0.30868801 2.4780004 8.868888e-39
0.82631129 -0.29782486 2.4773064 8.868888e-39
0.84850484 -0.30138338 2.4568627 8.868888e-39
0.14555854 -0.26200542 2.4430006 8.868888e-39
0.17918672 -0.26049143 2.4462898 8.868888e-39
0.21027607 -0.25836396 2.4730344 8.868888e-39
0.82198805 -0.25824302 2.4704492 8.868888e-39
0.84749585 -0.26374575 2.4567499 8.868888e-39
0.15045778 -0.23809557 2.4430001 8.868888e-39
0.17854111 -0.2234825 2.4430006 8.868888e-39
0.21971217 -0.21970637 2.4619992 8.868888e-39
0.24829687 -0.21476004 2.4780004 8.868888e-39
0.79223359 -0.21162146 2.4757504 8.868888e-39
0.82071596 -0.22147916 2.4627364 8.868888e-39
0.8434146 -0.21187358 2.4514999 8.868888e-39
0.16519333 -0.19776668 2.4430001 8.868888e-39
0.22414437 -0.17985325 2.4458814 8.868888e-39
0.25748888 -0.17815907 2.4653268 8.868888e-39
0.28241336 -0.16834669 2.4780004 8.868888e-39
0.79183871 -0.17597526 2.4706147 8.868888e-39
0.8141396 -0.18078288 2.4529192 8.868888e-39
0.23206347 -0.14451186 2.4430006 8.868888e-39
0.25990918 -0.14032646 2.4493561 8.868888e-39
0.29591775 -0.13084891 2.4779994 8.868888e-39
0.32332003 -0.12036 2.4780002 8.868888e-39
0.78637505 -0.14029779 2.4704995 8.868888e-39
0.80971068 -0.14479546 2.4582856 8.868888e-39
0.26389259 -0.10670841 2.444659 8.868888e-39
0.30004469 -0.098568693 2.4600842 8.868888e-39
0.32597643 -0.087834999 2.4757502 8.868888e-39
0.75425595 -0.089207999 2.4780004 8.868888e-39
0.77955359 -0.10062461 2.4655752 8.868888e-39
0.80360001 -0.11245714 2.46 8.868888e-39
0.27687335 -0.069799997 2.4430001 8.868888e-39
0.29937053 -0.061716039 2.4438791 8.868888e-39
0.33393478 -0.05736313 2.4707136 8.868888e-39
0.36108002 -0.044840001 2.4780002 8.868888e-39
0.74813801 -0.057461184 2.4758039 8.868888e-39
0.77014601 -0.062614329 2.4642551 8.868888e-39
0.30705863 -0.023874663 2.4437912 8.868888e-39
0.3391625 -0.020242715 2.4568212 8.868888e-39
0.37597838 -0.015090629 2.4763246 8.868888e-39
0.74785477 -0.022276815 2.4630899 8.868888e-39
0.76367998 -0.030340474 2.4560001 8.868888e-39
0.34868202 0.018150778 2.4449432 8.868888e-39
0.37754664 0.021997551 2.4662027 8.868888e-39
0.42716002 0.030680001 2.4780002 8.868888e-39
0.716968 0.032568004 2.4780004 8.868888e-39
0.73899454 0.020444242 2.4639647 8.868888e-39
0.35471091 0.059858792 2.4430003 8.868888e-39
0.37947252 0.060146954 2.454731 8.868888e-39
0.42117912 0.06280496 2.474263 8.868888e-39
0.44860235 0.061022855 2.4779994 8.868888e-39
0.71640223 0.060491312 2.468848 8.868888e-39
0.72816193 0.058480203 2.4482176 8.868888e-39
0.35598001 0.081433333 2.4430001 8.868888e-39
0.38479102 0.097082883 2.4436421 8.868888e-39
0.41952732 0.10034834 2.4590924 8.868888e-39
0.4568049 0.10032073 2.4779985 8.868888e-39
0.49088004 0.11151001 2.4780004 8.868888e-39
0.71061754 0.10000657 2.4723675 8.868888e-39
0.72756177 0.10172361 2.448276 8.868888e-39
0.39669669 0.12680334 2.4430001 8.868888e-39
0.41979268 0.12890294 2.4512591 8.868888e-39
0.46308565 0.13677424 2.4697082 8.868888e-39
0.49360827 0.1412898 2.4771991 8.868888e-39
0.70321274 0.1392542 2.4676328 8.868888e-39
0.73454177 0.13045357 2.4593499 8.868888e-39
0.41181999 0.18148001 2.4430001 8.868888e-39
0.46494064 0.17311604 2.4462504 8.868888e-39
0.49816456 0.17968932 2.4642251 8.868888e-39
0.5376305 0.18599042 2.477999 8.868888e-39
0.56404006 0.18644001 2.4780002 8.868888e-39
0.69709605 0.17932618 2.4573278 8.868888e-39
0.50802517 0.21505821 2.4508929 8.868888e-39
0.54021513 0.21838906 2.4648345 8.868888e-39
0.57078302 0.22712187 2.4780004 8.868888e-39
0.60180002 0.23600002 2.4780002 8.868888e-39
0.67078477 0.22819386 2.4780004 8.868888e-39
0.68982738 0.22128148 2.4542363 8.868888e-39
0.51884669 0.25360668 2.4430001 8.868888e-39
0.54337394 0.25869071 2.4526143 8.868888e-39
0.57817686 0.26372859 2.472599 8.868888e-39
0.60840809 0.27328801 2.4780004 8.868888e-39
0.6737836 0.26315448 2.4686334 8.868888e-39
0.68341613 0.25672141 2.4604447 8.868888e-39
0.55184621 0.29954809 2.4438505 8.868888e-39
0.58071262 0.29876611 2.4607534 8.868888e-39
0.61823916 0.29829794 2.4730628 8.868888e-39
0.66500419 0.29375023 2.4737201 8.868888e-39
0.68404001 0.28152665 2.4430001 8.868888e-39
0.56462854 0.32097143 2.46 8.868888e-39
0.15451428 -0.56338286 2.4960001 8.868888e-39
0.16402285 -0.56338286 2.4960001 8.868888e-39
0.069169044 -0.54239446 2.4960003 8.868888e-39
0.0996086 -0.54200298 2.5055304 8.868888e-39
0.13980405 -0.5504092 2.5059474 8.868888e-39
0.18202329 -0.54340833 2.5064654 8.868888e-39
0.21958016 -0.54028422 2.504472 8.868888e-39
0.25793239 -0.53976786 2.5027509 8.868888e-39
0.29821485 -0.5349372 2.5024004 8.868888e-39
0.33942011 -0.5397706 2.501334 8.868888e-39
0.38080344 -0.53560925 2.5067236 8.868888e-39
0.41975534 -0.53133923 2.5024617 8.868888e-39
0.45973945 -0.52756733 2.4959998 8.868888e-39
0.49822122 -0.52339095 2.4959998 8.868888e-39
0.54655999 -0.52461714 2.4960003 8.868888e-39
0.57968318 -0.52874458 2.4960001 8.868888e-39
0.61988568 -0.52516586 2.4959993 8.868888e-39
0.66262853 -0.52326858 2.4959998 8.868888e-39
0.68224001 -0.5253486 2.4960001 8.868888e-39
0.78887188 -0.52263188 2.4960001 8.868888e-39
0.075049803 -0.51176494 2.4960001 8.868888e-39
0.10336173 -0.50267941 2.5071602 8.868888e-39
0.13119033 -0.49214956 2.5140002 8.868888e-39
0.39409944 -0.51764458 2.5140002 8.868888e-39
0.43049261 -0.51764464 2.5140002 8.868888e-39
0.46225715 -0.51463526 2.5093043 8.868888e-39
0.50048727 -0.51227283 2.5104001 8.868888e-39
0.54022932 -0.50875211 2.5012107 8.868888e-39
0.57621521 -0.51166183 2.5105383 8.868888e-39
0.62520266 -0.51596105 2.5129414 8.868888e-39
0.65996575 -0.51362509 2.5075195 8.868888e-39
0.69941127 -0.50346911 2.5055001 8.868888e-39
0.73724967 -0.5009678 2.5052571 8.868888e-39
0.77916843 -0.50893074 2.5058708 8.868888e-39
0.81669152 -0.50611228 2.5024796 8.868888e-39
0.86438406 -0.50511515 2.5036364 8.868888e-39
0.88330001 -0.48965713 2.5050001 8.868888e-39
0.11105224 -0.46278989 2.5000908 8.868888e-39
0.13860524 -0.45952493 2.5127809 8.868888e-39
0.17809804 -0.44699481 2.5140004 8.868888e-39
0.86763632 -0.46016732 2.5062857 8.868888e-39
0.11410286 -0.43977144 2.4960001 8.868888e-39
0.14258935 -0.42615753 2.502811 8.868888e-39
0.1784355 -0.42026678 2.5121212 8.868888e-39
0.20830289 -0.412738 2.5140004 8.868888e-39
0.85302448 -0.42114505 2.50545 8.868888e-39
0.15874033 -0.38166347 2.4960001 8.868888e-39
0.18143 -0.38064119 2.506325 8.868888e-39
0.21026185 -0.37307325 2.5140002 8.868888e-39
0.83321142 -0.36872002 2.5140002 8.868888e-39
0.84892911 -0.38309962 2.507647 8.868888e-39
0.15926857 -0.35657144 2.4960001 8.868888e-39
0.18036154 -0.35139281 2.4994609 8.868888e-39
0.22124316 -0.3408666 2.5066676 8.868888e-39
0.24421716 -0.32981288 2.5140002 8.868888e-39
0.82828784 -0.33948162 2.502686 8.868888e-39
0.84388578 -0.35419428 2.4960001 8.868888e-39
0.19730286 -0.30189717 2.4960001 8.868888e-39
0.22029366 -0.29929742 2.4981732 8.868888e-39
0.25687712 -0.29603946 2.5130191 8.868888e-39
0.28013146 -0.28252572 2.5140002 8.868888e-39
0.80979949 -0.2980862 2.5039413 8.868888e-39
0.22883965 -0.26243657 2.4959998 8.868888e-39
0.25713956 -0.25728202 2.497854 8.868888e-39
0.28970858 -0.25268924 2.5140004 8.868888e-39
0.78833359 -0.24805005 2.5111198 8.868888e-39
0.80457795 -0.26336548 2.49913 8.868888e-39
0.26581436 -0.22068737 2.4968784 8.868888e-39
0.30019 -0.21992627 2.5128939 8.868888e-39
0.32496992 -0.21526806 2.5140002 8.868888e-39
0.78436017 -0.22354978 2.5084286 8.868888e-39
0.80109715 -0.23295999 2.4960001 8.868888e-39
0.27337146 -0.19458611 2.4960001 8.868888e-39
0.30290782 -0.18188082 2.507401 8.868888e-39
0.3305001 -0.17247728 2.5140002 8.868888e-39
0.78137296 -0.18195286 2.5041001 8.868888e-39
0.30364221 -0.14601736 2.4965293 8.868888e-39
0.33979261 -0.13908155 2.5066786 8.868888e-39
0.36358941 -0.12826532 2.5140004 8.868888e-39
0.75419998 -0.13407999 2.5140002 8.868888e-39
0.7718609 -0.13854301 2.5059476 8.868888e-39
0.34173882 -0.10224536 2.5014002 8.868888e-39
0.37490064 -0.095938452 2.5140002 8.868888e-39
0.4046343 -0.083800003 2.5140002 8.868888e-39
0.75025058 -0.10007462 2.5068002 8.868888e-39
0.76842862 -0.11181904 2.4980001 8.868888e-39
0.3521024 -0.065704226 2.4959993 8.868888e-39
0.38193607 -0.060030058 2.5032017 8.868888e-39
0.41380101 -0.054794934 2.5140002 8.868888e-39
0.73824632 -0.060085151 2.5038002 8.868888e-39
0.38853079 -0.029053969 2.4959996 8.868888e-39
0.42080522 -0.018661968 2.505564 8.868888e-39
0.4547748 -0.010368097 2.5110002 8.868888e-39
0.71452326 -0.0099191852 2.5140004 8.868888e-39
0.73178804 -0.017535031 2.5057831 8.868888e-39
0.39508113 0.0099839997 2.4960001 8.868888e-39
0.42117003 0.018206228 2.497613 8.868888e-39
0.46095103 0.019404158 2.5081096 8.868888e-39
0.48125145 0.033520002 2.5140002 8.868888e-39
0.70821047 0.022156246 2.5057716 8.868888e-39
0.72822636 0.011272298 2.4999125 8.868888e-39
0.41742626 0.048018288 2.4959996 8.868888e-39
0.4695197 0.057934366 2.4960001 8.868888e-39
0.49903297 0.062498868 2.5127809 8.868888e-39
0.52554578 0.075420007 2.5140002 8.868888e-39
0.70494115 0.060409792 2.5020003 8.868888e-39
0.72027433 0.07131429 2.4960001 8.868888e-39
0.47602287 0.09508571 2.4960001 8.868888e-39
0.5009836 0.097812526 2.498378 8.868888e-39
0.53110117 0.10238459 2.5074546 8.868888e-39
0.56265718 0.11732001 2.5140002 8.868888e-39
0.69654852 0.097374536 2.4992721 8.868888e-39
0.51214218 0.13496891 2.4959996 8.868888e-39
0.53868139 0.14122306 2.5006866 8.868888e-39
0.57194418 0.14082755 2.5140002 8.868888e-39
0.67566741 0.14557259 2.5140002 8.868888e-39
0.68646353 0.14314182 2.5090909 8.868888e-39
0.54190058 0.16930541 2.4959993 8.868888e-39
0.57716513 0.18173145 2.5044007 8.868888e-39
0.60336006 0.19872573 2.5140002 8.868888e-39
0.6743018 0.1836769 2.5107274 8.868888e-39
0.68445188 0.17895998 2.5025449 8.868888e-39
0.58550012 0.21705449 2.4985001 8.868888e-39
0.61505276 0.22275637 2.5066366 8.868888e-39
0.66374838 0.22020753 2.5033641 8.868888e-39
0.68427759 0.21020736 2.4960001 8.868888e-39
0.59309721 0.24841142 2.4960003 8.868888e-39
0.62222153 0.25910604 2.4996011 8.868888e-39
0.65774667 0.25788221 2.5001318 8.868888e-39
0.68224001 0.24009143 2.4960001 8.868888e-39
0.63512939 0.28936315 2.4960003 8.868888e-39
0.65387362 0.29538634 2.4971998 8.868888e-39
0.11816 -0.5305143 2.5320001 8.868888e-39
0.13991801 -0.53265166 2.5329046 8.868888e-39
0.17515185 -0.53170717 2.5374284 8.868888e-39
0.22016041 -0.52287209 2.5403125 8.868888e-39
0.25893787 -0.52493566 2.5410869 8.868888e-39
0.30324143 -0.52471012 2.5375881 8.868888e-39
0.33988971 -0.52566022 2.54264 8.868888e-39
0.37438607 -0.52477872 2.5420592 8.868888e-39
0.4164882 -0.52465802 2.5320001 8.868888e-39
0.11816 -0.51845711 2.5320001 8.868888e-39
0.14588657 -0.50609165 2.5337274 8.868888e-39
0.17997584 -0.50145304 2.5389359 8.868888e-39
0.21286309 -0.5151397 2.549417 8.868888e-39
0.25341445 -0.51693279 2.548286 8.868888e-39
0.29850352 -0.51781142 2.5446672 8.868888e-39
0.33932352 -0.5174886 2.5510004 8.868888e-39
0.38602501 -0.51074231 2.5449548 8.868888e-39
0.41955519 -0.51147145 2.5439427 8.868888e-39
0.45943785 -0.50406903 2.5410252 8.868888e-39
0.50149614 -0.49715474 2.5449364 8.868888e-39
0.53780866 -0.49696743 2.5434 8.868888e-39
0.58175629 -0.49906367 2.543875 8.868888e-39
0.62177706 -0.50352061 2.5454836 8.868888e-39
0.66103786 -0.49746633 2.5466986 8.868888e-39
0.6954782 -0.49355417 2.5403824 8.868888e-39
0.73916781 -0.48841745 2.5359111 8.868888e-39
0.78263813 -0.49293 2.5325429 8.868888e-39
0.81980067 -0.49407125 2.5324745 8.868888e-39
0.85765833 -0.49357748 2.5329266 8.868888e-39
0.88113606 -0.49241373 2.5320001 8.868888e-39
0.15352762 -0.47344384 2.5320001 8.868888e-39
0.1776827 -0.46570674 2.5346596 8.868888e-39
0.21518496 -0.45606261 2.5423267 8.868888e-39
0.63410574 -0.47618669 2.5510001 8.868888e-39
0.70810002 -0.47528648 2.5462499 8.868888e-39
0.74400687 -0.47683743 2.547647 8.868888e-39
0.78400517 -0.46978015 2.5462506 8.868888e-39
0.81979072 -0.46153155 2.5424914 8.868888e-39
0.85318434 -0.46393311 2.5378726 8.868888e-39
0.22223155 -0.42088476 2.5378156 8.868888e-39
0.24821411 -0.41052625 2.5491903 8.868888e-39
0.79445434 -0.40087143 2.5510001 8.868888e-39
0.82737285 -0.4179534 2.5426397 8.868888e-39
0.84442568 -0.42058152 2.5320001 8.868888e-39
0.22482581 -0.38295424 2.5366066 8.868888e-39
0.24781144 -0.38103038 2.5509996 8.868888e-39
0.79391438 -0.37657619 2.5510004 8.868888e-39
0.81926453 -0.38043696 2.541353 8.868888e-39
0.84365547 -0.39168492 2.5320001 8.868888e-39
0.23873143 -0.35930285 2.5320001 8.868888e-39
0.2595416 -0.33861789 2.5395994 8.868888e-39
0.78625923 -0.3388153 2.5454311 8.868888e-39
0.81424111 -0.34197161 2.5328078 8.868888e-39
0.27057916 -0.31240943 2.534111 8.868888e-39
0.29058233 -0.30080143 2.5432591 8.868888e-39
0.79057485 -0.30124062 2.5419524 8.868888e-39
0.80501527 -0.30343813 2.5319998 8.868888e-39
0.3040354 -0.26429886 2.5408218 8.868888e-39
0.33664718 -0.24848877 2.5460434 8.868888e-39
0.75396019 -0.24567837 2.5415001 8.868888e-39
0.77804399 -0.2631886 2.5398238 8.868888e-39
0.80397034 -0.27152687 2.5320001 8.868888e-39
0.31107432 -0.23873143 2.5320001 8.868888e-39
0.34235567 -0.2191491 2.5417211 8.868888e-39
0.36766797 -0.20488986 2.5510004 8.868888e-39
0.75296974 -0.21775031 2.542659 8.868888e-39
0.77261829 -0.21506175 2.5325274 8.868888e-39
0.34712496 -0.18239114 2.534375 8.868888e-39
0.37067598 -0.17856999 2.5509999 8.868888e-39
0.74821329 -0.1792669 2.5416722 8.868888e-39
0.7698487 -0.18105808 2.5320005 8.868888e-39
0.35930285 -0.15674286 2.5320001 8.868888e-39
0.37932372 -0.14142275 2.5424502 8.868888e-39
0.43974382 -0.13119429 2.5510001 8.868888e-39
0.44460285 -0.12876478 2.5510001 8.868888e-39
0.74007428 -0.13955025 2.5410469 8.868888e-39
0.76580083 -0.14778613 2.5320001 8.868888e-39
0.38844129 -0.10815958 2.5348504 8.868888e-39
0.42046121 -0.10172651 2.5439153 8.868888e-39
0.45329255 -0.095757112 2.548286 8.868888e-39
0.71031594 -0.097161166 2.5504065 8.868888e-39
0.73333579 -0.10319766 2.5389087 8.868888e-39
0.4289892 -0.065747164 2.5349233 8.868888e-39
0.45814925 -0.057353519 2.5402324 8.868888e-39
0.48924533 -0.049501546 2.5510001 8.868888e-39
0.71015912 -0.058947217 2.5450006 8.868888e-39
0.72869223 -0.0630024 2.5339997 8.868888e-39
0.43164572 -0.036171429 2.5320001 8.868888e-39
0.46554026 -0.025277819 2.5342352 8.868888e-39
0.49911743 -0.01864838 2.5470569 8.868888e-39
0.52581841 -0.0072885724 2.5510004 8.868888e-39
0.70861268 -0.019854043 2.5338387 8.868888e-39
0.725151 -0.032037552 2.5320001 8.868888e-39
0.47022858 0.0024114286 2.5320001 8.868888e-39
0.50118244 0.018803477 2.5393884 8.868888e-39
0.5310632 0.02318269 2.5504246 8.868888e-39
0.70081222 0.017544683 2.5367503 8.868888e-39
0.51303142 0.045817144 2.5319998 8.868888e-39
0.54045576 0.058480605 2.544667 8.868888e-39
0.56816155 0.06420885 2.5509999 8.868888e-39
0.69589919 0.058939259 2.5450284 8.868888e-39
0.50881141 0.084399998 2.5320001 8.868888e-39
0.55167824 0.096886553 2.5353048 8.868888e-39
0.57646286 0.10152251 2.5477121 8.868888e-39
0.61406231 0.11256795 2.5509996 8.868888e-39
0.67556971 0.10317379 2.5510004 8.868888e-39
0.68980873 0.10088986 2.5445125 8.868888e-39
0.55704004 0.12298286 2.5320001 8.868888e-39
0.58885765 0.13626759 2.535167 8.868888e-39
0.62004924 0.14111601 2.5507116 8.868888e-39
0.66421121 0.14384119 2.5466161 8.868888e-39
0.68733716 0.12531348 2.5374289 8.868888e-39
0.59260857 0.16940285 2.5319998 8.868888e-39
0.62040633 0.17852874 2.5437615 8.868888e-39
0.65956563 0.1787048 2.5453591 8.868888e-39
0.62985265 0.20841181 2.5415006 8.868888e-39
0.6527198 0.21355577 2.5381622 8.868888e-39
0.64626288 0.24355429 2.5320001 8.868888e-39
0.67375314 0.31300345 2.5320001 8.868888e-39
0.27005398 -0.52134287 2.5700002 8.868888e-39
0.2814762 -0.52134287 2.5700002 8.868888e-39
0.34511429 -0.52134287 2.5700002 8.868888e-39
0.36469525 -0.52134287 2.5700002 8.868888e-39
0.22142805 -0.49898794 2.5700014 8.868888e-39
0.26119155 -0.49913937 2.5804648 8.868888e-39
0.29970279 -0.49866575 2.5795014 8.868888e-39
0.33893952 -0.50132197 2.5753448 8.868888e-39
0.37849319 -0.49736515 2.5801551 8.868888e-39
0.42072779 -0.49715462 2.5782607 8.868888e-39
0.46013075 -0.48784122 2.5747497 8.868888e-39
0.49394456 -0.48415187 2.5723751 8.868888e-39
0.54040861 -0.48578799 2.5699999 8.868888e-39
0.58004487 -0.48624966 2.5714071 8.868888e-39
0.61544389 -0.48790407 2.5708637 8.868888e-39
0.66379434 -0.48316008 2.5699999 8.868888e-39
0.69451195 -0.48401672 2.5699999 8.868888e-39
0.23029874 -0.47105545 2.5699999 8.868888e-39
0.2596634 -0.45961511 2.5768795 8.868888e-39
0.28827411 -0.45787245 2.5890007 8.868888e-39
0.46067768 -0.4738282 2.5890007 8.868888e-39
0.49880844 -0.47010362 2.5807829 8.868888e-39
0.53803998 -0.47277677 2.5804827 8.868888e-39
0.57983607 -0.47410473 2.584044 8.868888e-39
0.62141651 -0.47340733 2.5798802 8.868888e-39
0.66084206 -0.47354254 2.5763335 8.868888e-39
0.70243579 -0.46789858 2.5795002 8.868888e-39
0.73705333 -0.46467939 2.5816913 8.868888e-39
0.77742219 -0.46025112 2.5834839 8.868888e-39
0.81056756 -0.44619313 2.5830629 8.868888e-39
0.26399109 -0.42453727 2.5704417 8.868888e-39
0.29749888 -0.41722366 2.5869775 8.868888e-39
0.79196447 -0.41216105 2.5852003 8.868888e-39
0.81232452 -0.42284298 2.5764997 8.868888e-39
0.26774231 -0.38196471 2.5699999 8.868888e-39
0.29945722 -0.38024566 2.5809491 8.868888e-39
0.33650514 -0.36687243 2.5890005 8.868888e-39
0.78359258 -0.37883139 2.5781424 8.868888e-39
0.80281919 -0.38133907 2.5699999 8.868888e-39
0.27413338 -0.35306907 2.5699999 8.868888e-39
0.29895192 -0.34079546 2.5702984 8.868888e-39
0.33973315 -0.33979824 2.5862858 8.868888e-39
0.3683778 -0.33254269 2.5890005 8.868888e-39
0.77184236 -0.34170592 2.5788667 8.868888e-39
0.31006446 -0.29968643 2.5699999 8.868888e-39
0.33854124 -0.29927084 2.5756416 8.868888e-39
0.36609375 -0.30250418 2.5890005 8.868888e-39
0.77712548 -0.29995924 2.5839324 8.868888e-39
0.31574288 -0.27413335 2.5700002 8.868888e-39
0.34329882 -0.26684284 2.570487 8.868888e-39
0.37908587 -0.25879437 2.5798793 8.868888e-39
0.40773952 -0.24993381 2.5890007 8.868888e-39
0.44629431 -0.24410574 2.5890002 8.868888e-39
0.74793673 -0.25740084 2.5788667 8.868888e-39
0.76598942 -0.27216357 2.5786366 8.868888e-39
0.35784194 -0.23056571 2.5700002 8.868888e-39
0.38199738 -0.22145039 2.5732265 8.868888e-39
0.41823769 -0.22103682 2.5882955 8.868888e-39
0.44684225 -0.21725686 2.5890005 8.868888e-39
0.74601912 -0.22137561 2.5815656 8.868888e-39
0.38974744 -0.18299551 2.5699999 8.868888e-39
0.42095819 -0.18082267 2.581593 8.868888e-39
0.45555961 -0.17679347 2.5867188 8.868888e-39
0.71505719 -0.16027145 2.5890002 8.868888e-39
0.73028612 -0.18004824 2.578769 8.868888e-39
0.39787409 -0.14604126 2.5699999 8.868888e-39
0.42010728 -0.14057721 2.5722938 8.868888e-39
0.45860919 -0.14304152 2.5727706 8.868888e-39
0.4893167 -0.13510415 2.589 8.868888e-39
0.71445626 -0.13747513 2.5800593 8.868888e-39
0.72520369 -0.14767554 2.5730002 8.868888e-39
0.43532652 -0.10874423 2.5700002 8.868888e-39
0.47021478 -0.10597285 2.5699999 8.868888e-39
0.49604261 -0.097247407 2.5767288 8.868888e-39
0.52896076 -0.087803766 2.5878129 8.868888e-39
0.70171398 -0.093922108 2.5874803 8.868888e-39
0.47728574 -0.073428579 2.5700002 8.868888e-39
0.5033502 -0.062424578 2.5713899 8.868888e-39
0.53608817 -0.057098459 2.5834575 8.868888e-39
0.56464863 -0.044382863 2.5890002 8.868888e-39
0.70056158 -0.059100885 2.584929 8.868888e-39
0.51481593 -0.033450797 2.5700002 8.868888e-39
0.54220742 -0.022182567 2.5773072 8.868888e-39
0.56599361 -0.019053249 2.5890007 8.868888e-39
0.67807144 -0.0049314289 2.5890002 8.868888e-39
0.6970799 -0.017959004 2.5769088 8.868888e-39
0.54940313 0.014154407 2.5708261 8.868888e-39
0.57997072 0.021203265 2.5785811 8.868888e-39
0.6140995 0.029320953 2.583154 8.868888e-39
0.67560577 0.027944764 2.5890005 8.868888e-39
0.69126058 0.018100047 2.5783949 8.868888e-39
0.55438572 0.046504766 2.5700002 8.868888e-39
0.58748549 0.055839881 2.5699999 8.868888e-39
0.61799645 0.061269794 2.5775108 8.868888e-39
0.66892642 0.059866656 2.5766497 8.868888e-39
0.68700814 0.055264663 2.5699999 8.868888e-39
0.59514803 0.088679127 2.5700002 8.868888e-39
0.62184674 0.094265468 2.5717671 8.868888e-39
0.66138011 0.10121505 2.573221 8.868888e-39
0.66053081 0.13608763 2.5700002 8.868888e-39
0.34397322 -0.48503348 2.6140008 8.868888e-39
0.37671843 -0.48409748 2.6156671 8.868888e-39
0.42583546 -0.48555541 2.612334 8.868888e-39
0.44477242 -0.4845286 2.6090002 8.868888e-39
0.30880916 -0.46324748 2.6160593 8.868888e-39
0.33482111 -0.46769688 2.6253643 8.868888e-39
0.3784788 -0.47680518 2.622685 8.868888e-39
0.42092794 -0.47789216 2.6207652 8.868888e-39
0.46274444 -0.4651117 2.6215 8.868888e-39
0.50200367 -0.45445094 2.619556 8.868888e-39
0.54189086 -0.45594156 2.6235099 8.868888e-39
0.5793196 -0.45847303 2.6221914 8.868888e-39
0.62088555 -0.45909542 2.6208372 8.868888e-39
0.66048574 -0.45973897 2.6214449 8.868888e-39
0.70185417 -0.45759639 2.622617 8.868888e-39
0.74421751 -0.44974902 2.6114006 8.868888e-39
0.77686626 -0.45039016 2.6090009 8.868888e-39
0.80382055 -0.44849956 2.6090002 8.868888e-39
0.30917543 -0.43554333 2.6090002 8.868888e-39
0.3378351 -0.41870528 2.6218567 8.868888e-39
0.3630524 -0.40311337 2.6290002 8.868888e-39
0.5157848 -0.43816671 2.6290002 8.868888e-39
0.52580005 -0.43816671 2.6290002 8.868888e-39
0.57671088 -0.43649751 2.6290002 8.868888e-39
0.7414459 -0.43422556 2.6225719 8.868888e-39
0.7794584 -0.42290112 2.6186957 8.868888e-39
0.80506289 -0.43731815 2.6090002 8.868888e-39
0.34126696 -0.38783485 2.6141617 8.868888e-39
0.37125096 -0.37428588 2.6211433 8.868888e-39
0.75207376 -0.37590954 2.6267781 8.868888e-39
0.77088857 -0.38430452 2.6173875 8.868888e-39
0.35532099 -0.35035145 2.6090002 8.868888e-39
0.38461784 -0.34016249 2.6172357 8.868888e-39
0.41449437 -0.32526767 2.6289999 8.868888e-39
0.74867564 -0.33581635 2.6235001 8.868888e-39
0.7658878 -0.33893973 2.6110008 8.868888e-39
0.38685524 -0.29903957 2.6140006 8.868888e-39
0.41314751 -0.29804951 2.6273782 8.868888e-39
0.45790258 -0.29412398 2.6290002 8.868888e-39
0.74325967 -0.29931253 2.6189992 8.868888e-39
0.77027637 -0.30010405 2.6090007 8.868888e-39
0.39507717 -0.2758086 2.6090002 8.868888e-39
0.4235743 -0.26263371 2.612637 8.868888e-39
0.46209776 -0.25966898 2.6252956 8.868888e-39
0.4832353 -0.2578924 2.6290002 8.868888e-39
0.73568803 -0.25944144 2.6156671 8.868888e-39
0.43582726 -0.23307069 2.6090002 8.868888e-39
0.46450034 -0.21887919 2.6126003 8.868888e-39
0.49215874 -0.21680242 2.6265008 8.868888e-39
0.71608967 -0.20781621 2.6290002 8.868888e-39
0.73307288 -0.2209841 2.6114395 8.868888e-39
0.47251898 -0.19091254 2.6090007 8.868888e-39
0.5015536 -0.17945105 2.6213632 8.868888e-39
0.53459549 -0.177642 2.6289997 8.868888e-39
0.71666747 -0.18200773 2.6289999 8.868888e-39
0.72392112 -0.18354894 2.6177506 8.868888e-39
0.50918293 -0.14134832 2.6096458 8.868888e-39
0.54119289 -0.14035115 2.6248617 8.868888e-39
0.57152754 -0.13059342 2.6290004 8.868888e-39
0.70606768 -0.13581313 2.619257 8.868888e-39
0.5174517 -0.10498119 2.6090002 8.868888e-39
0.54412144 -0.10363547 2.6192436 8.868888e-39
0.57733679 -0.09994375 2.6289992 8.868888e-39
0.67652941 -0.093141712 2.6289999 8.868888e-39
0.6937086 -0.10337276 2.6170957 8.868888e-39
0.55455375 -0.06979923 2.6090004 8.868888e-39
0.58208418 -0.060416158 2.6213071 8.868888e-39
0.60917699 -0.055083811 2.6290004 8.868888e-39
0.67545092 -0.059685346 2.6255226 8.868888e-39
0.68967038 -0.059180528 2.612031 8.868888e-39
0.58672726 -0.019053839 2.6127217 8.868888e-39
0.62097543 -0.020054355 2.624789 8.868888e-39
0.66494977 -0.013854194 2.6260729 8.868888e-39
0.68742794 -0.026928226 2.6135461 8.868888e-39
0.59137338 0.0024847621 2.6090002 8.868888e-39
0.62519479 0.016631234 2.6105394 8.868888e-39
0.66261953 0.018941864 2.6202493 8.868888e-39
0.68330956 0.016150953 2.6090002 8.868888e-39
0.6360991 0.049695242 2.6090002 8.868888e-39
0.65618318 0.058015108 2.6122439 8.868888e-39
0.65473485 0.089451425 2.6090007 8.868888e-39
0.41627145 -0.48186576 2.6490002 8.868888e-39
0.34462231 -0.46050552 2.6490014 8.868888e-39
0.37905368 -0.45744938 2.6496913 8.868888e-39
0.42024967 -0.45917216 2.6542468 8.868888e-39
0.45643607 -0.45322633 2.6532433 8.868888e-39
0.49344125 -0.44595215 2.6490006 8.868888e-39
0.54746002 -0.44150004 2.6490002 8.868888e-39
0.58415616 -0.44425219 2.6490002 8.868888e-39
0.61894095 -0.44514412 2.6490009 8.868888e-39
0.66469872 -0.44506165 2.6490006 8.868888e-39
0.69851607 -0.4446536 2.6490006 8.868888e-39
0.72406006 -0.44150004 2.6490002 8.868888e-39
0.35572287 -0.43645433 2.6490002 8.868888e-39
0.3807556 -0.42102203 2.6557806 8.868888e-39
0.41930619 -0.42038774 2.6689992 8.868888e-39
0.46586278 -0.42725605 2.6629128 8.868888e-39
0.499953 -0.42971504 2.6560595 8.868888e-39
0.53923279 -0.43014568 2.6573873 8.868888e-39
0.57908863 -0.42608246 2.6558297 8.868888e-39
0.61880076 -0.43107945 2.6636665 8.868888e-39
0.65964919 -0.42956516 2.6556673 8.868888e-39
0.70265019 -0.42349201 2.6580572 8.868888e-39
0.74171084 -0.41731185 2.6550384 8.868888e-39
0.76506031 -0.41235504 2.6530004 8.868888e-39
0.38911465 -0.38521573 2.64991 8.868888e-39
0.41990024 -0.37943035 2.6558766 8.868888e-39
0.46011689 -0.38088191 2.6686077 8.868888e-39
0.48550388 -0.37111813 2.6690004 8.868888e-39
0.74173546 -0.37885958 2.649668 8.868888e-39
0.42201641 -0.34323463 2.6503966 8.868888e-39
0.45912045 -0.33870536 2.6574759 8.868888e-39
0.4933511 -0.33638451 2.6678884 8.868888e-39
0.74018943 -0.34232858 2.6542182 8.868888e-39
0.43109325 -0.30463502 2.6490006 8.868888e-39
0.45810995 -0.30141482 2.6495016 8.868888e-39
0.49794728 -0.29789039 2.6564081 8.868888e-39
0.52831489 -0.29124877 2.6689997 8.868888e-39
0.71427524 -0.29631349 2.6690001 8.868888e-39
0.72884011 -0.29967254 2.6664999 8.868888e-39
0.45033002 -0.27120715 2.6490002 8.868888e-39
0.50373751 -0.25962141 2.6549468 8.868888e-39
0.53748685 -0.25967762 2.6652968 8.868888e-39
0.56430292 -0.24910668 2.6690001 8.868888e-39
0.70759445 -0.25492024 2.6662219 8.868888e-39
0.72717464 -0.2621415 2.6584737 8.868888e-39
0.50829566 -0.22501485 2.6490011 8.868888e-39
0.53812611 -0.22161581 2.6548073 8.868888e-39
0.57192862 -0.21728204 2.6689997 8.868888e-39
0.60243148 -0.20335239 2.6690001 8.868888e-39
0.70867175 -0.22131447 2.6592441 8.868888e-39
0.72658294 -0.22958003 2.6490002 8.868888e-39
0.5494222 -0.18837336 2.6490009 8.868888e-39
0.57800967 -0.17818603 2.6630001 8.868888e-39
0.69997722 -0.1792763 2.6593046 8.868888e-39
0.58427465 -0.14570694 2.6502135 8.868888e-39
0.61644173 -0.13555965 2.659286 8.868888e-39
0.66261655 -0.13358054 2.6652157 8.868888e-39
0.69410032 -0.14473704 2.6560276 8.868888e-39
0.59539431 -0.10293257 2.6490002 8.868888e-39
0.6206485 -0.10180337 2.6504052 8.868888e-39
0.66045147 -0.10120652 2.6571264 8.868888e-39
0.68537629 -0.11689239 2.6490002 8.868888e-39
0.62764591 -0.063753292 2.6490016 8.868888e-39
0.65900439 -0.060845569 2.6546612 8.868888e-39
0.6382829 -0.037842859 2.6490002 8.868888e-39
0.66052145 -0.028872704 2.6490014 8.868888e-39
0.45243239 -0.44525906 2.6900003 8.868888e-39
0.42941466 -0.42941469 2.6900003 8.868888e-39
0.45838934 -0.42076027 2.6906004 8.868888e-39
0.50035715 -0.41286567 2.6970005 8.868888e-39
0.53892803 -0.41792578 2.7008882 8.868888e-39
0.57557374 -0.41381881 2.7042794 8.868888e-39
0.62252283 -0.41511467 2.6996922 8.868888e-39
0.6615454 -0.41354033 2.7012684 8.868888e-39
0.69805193 -0.40813741 2.7023525 8.868888e-39
0.73304015 -0.40711802 2.6923337 8.868888e-39
0.46268001 -0.38787237 2.6900003 8.868888e-39
0.50118035 -0.37947947 2.697171 8.868888e-39
0.53284067 -0.3705034 2.7109997 8.868888e-39
0.70879722 -0.38248086 2.7093842 8.868888e-39
0.72997046 -0.37905836 2.6976368 8.868888e-39
0.50855172 -0.34843585 2.6916156 8.868888e-39
0.5380618 -0.33961141 2.7059438 8.868888e-39
0.56715846 -0.33277884 2.7109997 8.868888e-39
0.71181148 -0.33575919 2.7076395 8.868888e-39
0.72922164 -0.34392038 2.6993332 8.868888e-39
0.54493457 -0.30355695 2.6940379 8.868888e-39
0.57592827 -0.30114973 2.7096295 8.868888e-39
0.60158384 -0.30724669 2.7110002 8.868888e-39
0.67387724 -0.29175526 2.711 8.868888e-39
0.70147145 -0.29823413 2.7049417 8.868888e-39
0.72501904 -0.29974288 2.6900001 8.868888e-39
0.55593336 -0.27924761 2.6900001 8.868888e-39
0.5820294 -0.26086783 2.7031858 8.868888e-39
0.61523098 -0.25327259 2.710999 8.868888e-39
0.67043018 -0.25434032 2.7102995 8.868888e-39
0.69362611 -0.26376873 2.6945405 8.868888e-39
0.72501904 -0.27924761 2.6900001 8.868888e-39
0.58882231 -0.22037324 2.6919997 8.868888e-39
0.62026244 -0.21997778 2.7041426 8.868888e-39
0.66343755 -0.21816356 2.7070165 8.868888e-39
0.69343907 -0.22132833 2.6917505 8.868888e-39
0.59564286 -0.19214284 2.6900001 8.868888e-39
0.61975282 -0.17964056 2.6945009 8.868888e-39
0.662561 -0.18047385 2.7039995 8.868888e-39
0.68402863 -0.17933334 2.6900003 8.868888e-39
0.63022864 -0.15042041 2.6900001 8.868888e-39
0.65996891 -0.1502613 2.6899996 8.868888e-39
0.68402863 -0.15627618 2.6900001 8.868888e-39
0.54552823 -0.40711743 2.7330005 8.868888e-39
0.58237827 -0.40474898 2.7372005 8.868888e-39
0.61595738 -0.40456551 2.7347503 8.868888e-39
0.6585229 -0.40344289 2.7330003 8.868888e-39
0.54568547 -0.38684094 2.7330012 8.868888e-39
0.57816178 -0.37971216 2.7415006 8.868888e-39
0.61599207 -0.38575333 2.7482345 8.868888e-39
0.66562879 -0.38758409 2.7455006 8.868888e-39
0.69422179 -0.37762797 2.7355011 8.868888e-39
0.5596143 -0.35659143 2.733 8.868888e-39
0.58512235 -0.34375072 2.733001 8.868888e-39
0.61728817 -0.33474064 2.7404671 8.868888e-39
0.66532314 -0.33796653 2.7485688 8.868888e-39
0.6954602 -0.34060892 2.7340012 8.868888e-39
0.59258378 -0.29846096 2.7330003 8.868888e-39
0.61982208 -0.29900971 2.733825 8.868888e-39
0.65782773 -0.30006307 2.7388806 8.868888e-39
0.68975723 -0.31234282 2.7330003 8.868888e-39
0.62956607 -0.27134788 2.7330005 8.868888e-39
0.65692115 -0.26275507 2.7330012 8.868888e-39
0.6585229 -0.22818381 2.7330003 8.868888e-39
0.62383324 -0.37357265 2.7770002 8.868888e-39
0.65704334 -0.37368724 2.7806675 8.868888e-39
0.63104028 -0.35386917 2.7770002 8.868888e-39
0.6485278 -0.35441849 2.7794447 8.868888e-39
-0.12465002 -0.019863879 0.51673484 1.9957043e-38
-0.11122853 -0.0211326 0.51643378 1.9957043e-38
-0.31526554 0.23146823 0.51880008 1.9957043e-38
-0.10294212 -0.086964503 0.53636456 1.9957043e-38
-0.16613042 -0.046452712 0.52569348 1.9957043e-38
-0.13623802 -0.05082316 0.54267001 1.9957043e-38
-0.1064776 -0.062944271 0.54318851 1.9957043e-38
-0.16912314 -0.017785497 0.53624398 1.9957043e-38
-0.14448883 -0.020736303 0.54108322 1.9957043e-38
-0.11334095 -0.02306726 0.53876799 1.9957043e-38
-0.20134912 0.021988336 0.54116666 1.9957043e-38
-0.1766005 0.018962946 0.54006869 1.9957043e-38
-0.13858716 0.019519035 0.53703552 1.9957043e-38
-0.11664178 0.019386223 0.54451901 1.9957043e-38
-0.17517731 0.059937581 0.54780221 1.9957043e-38
-0.14669386 0.046267979 0.53860635 1.9957043e-38
-0.18001269 0.08656311 0.55343336 1.9957043e-38
-0.30141711 0.1399122 0.54445481 1.9957043e-38
-0.32260227 0.18591821 0.53720683 1.9957043e-38
-0.2982012 0.18623303 0.54136127 1.9957043e-38
-0.27048701 0.19419849 0.55466408 1.9957043e-38
-0.32438302 0.20865837 0.55419999 1.9957043e-38
-0.29556352 0.21995999 0.53510839 1.9957043e-38
-0.27343011 0.21140133 0.53807718 1.9957043e-38
-0.28912035 0.24137576 0.5361287 1.9957043e-38
-0.2590681 0.24651754 0.54908407 1.9957043e-38
-0.23459265 0.25071159 0.55700004 1.9957043e-38
-0.10934849 -0.043449525 0.57561892 1.9957043e-38
-0.11175175 -0.036290441 0.57747823 1.9957043e-38
-0.12461472 0.021949526 0.56198651 1.9957043e-38
-0.1073146 0.025014816 0.579624 1.9957043e-38
-0.12079387 0.058400437 0.59892315 1.9957043e-38
-0.11028939 0.05283406 0.59764677 1.9957043e-38
-0.17723252 0.096495107 0.57249999 1.9957043e-38
-0.15131943 0.092244931 0.59762502 1.9957043e-38
-0.25418329 0.19462061 0.56447482 1.9957043e-38
-0.23599282 0.19877736 0.57603711 1.9957043e-38
-0.32921928 0.21574931 0.56054544 1.9957043e-38
-0.28179437 0.21377498 0.56483871 1.9957043e-38
-0.25457868 0.21767776 0.57204115 1.9957043e-38
-0.22869091 0.22228752 0.5838306 1.9957043e-38
-0.24401271 0.24198301 0.58396876 1.9957043e-38
-0.22863235 0.24209942 0.58701026 1.9957043e-38
-0.11330555 -0.01329279 0.62032849 1.9957043e-38
-0.12741381 0.037478872 0.60922009 1.9957043e-38
-0.096201383 0.035042834 0.60213757 1.9957043e-38
-0.16743723 0.068813674 0.60876179 1.9957043e-38
-0.13973184 0.063189857 0.61005712 1.9957043e-38
-0.10099617 0.062959038 0.60392034 1.9957043e-38
-0.16947824 0.093696766 0.60400653 1.9957043e-38
-0.1362143 0.10022508 0.60641891 1.9957043e-38
-0.10734556 0.099420846 0.62082797 1.9957043e-38
-0.13739082 0.13732581 0.62816131 1.9957043e-38
-0.1141305 0.12952636 0.63383263 1.9957043e-38
-0.21484083 0.23620608 0.60007691 1.9957043e-38
0.22699715 0.28420287 0.63900006 1.9957043e-38
-0.094576687 0.11561464 0.64379591 1.9957043e-38
-0.13137096 0.15668619 0.64056915 1.9957043e-38
-0.10079262 0.14346941 0.65366238 1.9957043e-38
-0.13549685 0.17897631 0.65101504 1.9957043e-38
-0.10294709 0.17952578 0.66204566 1.9957043e-38
-0.13220519 0.2166207 0.66978735 1.9957043e-38
-0.10438675 0.21828455 0.67117393 1.9957043e-38
0.19612403 0.23863608 0.67707705 1.9957043e-38
0.22168666 0.2366547 0.67459089 1.9957043e-38
0.25126195 0.23702848 0.67535055 1.9957043e-38
-0.12286668 0.24120668 0.67900002 1.9957043e-38
-0.10935379 0.24191584 0.67886209 1.9957043e-38
0.15638205 0.27474657 0.67598587 1.9957043e-38
0.18241219 0.26168647 0.66159236 1.9957043e-38
0.2197112 0.25840166 0.65064681 1.9957043e-38
0.25905725 0.259408 0.65743488 1.9957043e-38
0.29208127 0.26672193 0.66989267 1.9957043e-38
0.15349582 0.2908268 0.6739189 1.9957043e-38
0.17741254 0.28685173 0.65561718 1.9957043e-38
0.21929437 0.28405654 0.64135998 1.9957043e-38
0.26167595 0.2855674 0.64812279 1.9957043e-38
0.30095297 0.28996769 0.66646141 1.9957043e-38
0.32229072 0.29925126 0.67816675 1.9957043e-38
-0.083585538 0.18199433 0.68567026 1.9957043e-38
-0.076700546 0.18901084 0.69554818 1.9957043e-38
-0.14510539 0.23003282 0.68520832 1.9957043e-38
-0.085634746 0.22233772 0.68506575 1.9957043e-38
-0.071196422 0.22111399 0.70359117 1.9957043e-38
0.15558234 0.23720592 0.71710789 1.9957043e-38
0.18355505 0.22951214 0.70460081 1.9957043e-38
0.21973455 0.22244747 0.70028174 1.9957043e-38
0.25932223 0.22413999 0.69987959 1.9957043e-38
0.2924732 0.23137118 0.70808613 1.9957043e-38
-0.13083161 0.25589094 0.69047874 1.9957043e-38
-0.098993726 0.25995079 0.69088471 1.9957043e-38
-0.069257438 0.25944796 0.70729077 1.9957043e-38
0.14519028 0.26262754 0.70113993 1.9957043e-38
0.1689238 0.24729957 0.69019091 1.9957043e-38
0.27659121 0.24198231 0.68215793 1.9957043e-38
0.30494687 0.2535376 0.69361496 1.9957043e-38
0.33342046 0.26700282 0.70818061 1.9957043e-38
-0.12019144 0.28927431 0.71300006 1.9957043e-38
-0.098107323 0.29088458 0.71045268 1.9957043e-38
-0.072508514 0.28801739 0.71498293 1.9957043e-38
0.11554329 0.30467388 0.71405458 1.9957043e-38
0.13275993 0.29434687 0.6953969 1.9957043e-38
0.31847933 0.28236791 0.68190002 1.9957043e-38
0.33709034 0.29192188 0.69122952 1.9957043e-38
0.10857429 0.32026002 0.71700001 1.9957043e-38
0.14889531 0.19056289 0.75275004 1.9957043e-38
0.18089208 0.18680766 0.74728942 1.9957043e-38
0.21928383 0.18712197 0.74385822 1.9957043e-38
0.25739488 0.19160908 0.74686146 1.9957043e-38
0.28700674 0.1972153 0.75426531 1.9957043e-38
-0.057077501 0.22752334 0.73884952 1.9957043e-38
-0.0007219048 0.23895048 0.75800002 1.9957043e-38
0.024166038 0.23488452 0.75657529 1.9957043e-38
0.06119246 0.23237815 0.75655228 1.9957043e-38
0.093819059 0.2334335 0.75662386 1.9957043e-38
0.14096969 0.22088516 0.73928982 1.9957043e-38
0.17683387 0.21112277 0.72811389 1.9957043e-38
0.21861471 0.20485574 0.7244845 1.9957043e-38
0.26148322 0.20586899 0.72783178 1.9957043e-38
0.3019155 0.21525049 0.73790771 1.9957043e-38
0.33695042 0.22694983 0.74627388 1.9957043e-38
0.36852434 0.23428318 0.75428134 1.9957043e-38
-0.050828632 0.26004139 0.73410451 1.9957043e-38
-0.017691638 0.26388353 0.75293112 1.9957043e-38
0.019731596 0.25997868 0.75308561 1.9957043e-38
0.058257639 0.25803328 0.75464404 1.9957043e-38
0.11214878 0.26295531 0.74640095 1.9957043e-38
0.12940994 0.25431532 0.73028189 1.9957043e-38
0.31974289 0.24135432 0.72200006 1.9957043e-38
0.34616917 0.253528 0.72908789 1.9957043e-38
0.36579463 0.25341016 0.7392537 1.9957043e-38
-0.095338106 0.31065401 0.72602755 1.9957043e-38
-0.056247924 0.30137938 0.73458278 1.9957043e-38
-0.020591671 0.29938132 0.74692869 1.9957043e-38
0.016466836 0.2946431 0.75286412 1.9957043e-38
0.048019078 0.28440186 0.75671875 1.9957043e-38
0.10351523 0.30038163 0.73839325 1.9957043e-38
0.12068572 0.28114286 0.72000003 1.9957043e-38
-0.088492356 0.32567537 0.7379145 1.9957043e-38
-0.058157012 0.32759392 0.74459332 1.9957043e-38
-0.022557737 0.32847112 0.75316018 1.9957043e-38
0.0024060318 0.32158762 0.75766671 1.9957043e-38
0.092929602 0.32618442 0.74293053 1.9957043e-38
0.38314724 -0.0059669605 0.79026145 1.9957043e-38
0.38514876 0.02766094 0.79531705 1.9957043e-38
0.35769379 0.072040379 0.79740942 1.9957043e-38
0.37681538 0.060397338 0.7899487 1.9957043e-38
0.35716781 0.093667999 0.79713172 1.9957043e-38
0.37581024 0.099701434 0.78810257 1.9957043e-38
0.10952042 0.15355554 0.79442602 1.9957043e-38
0.14145739 0.14773093 0.78705221 1.9957043e-38
0.17887245 0.14762436 0.78411704 1.9957043e-38
0.21745639 0.15220425 0.78621906 1.9957043e-38
0.24759088 0.15672232 0.79290181 1.9957043e-38
0.3819201 0.12875368 0.79332513 1.9957043e-38
-0.0020883335 0.19893286 0.79650003 1.9957043e-38
0.023954112 0.19230512 0.78737092 1.9957043e-38
0.061242919 0.18549637 0.78251916 1.9957043e-38
0.10017672 0.17978097 0.78143871 1.9957043e-38
0.13656731 0.17572391 0.7687487 1.9957043e-38
0.17890231 0.16685839 0.765109 1.9957043e-38
0.22163197 0.16696033 0.76722515 1.9957043e-38
0.26100925 0.17254871 0.77670652 1.9957043e-38
0.29883274 0.18375531 0.77937889 1.9957043e-38
0.33421266 0.19308394 0.78930473 1.9957043e-38
0.36244461 0.19907826 0.79783338 1.9957043e-38
-0.046847064 0.23143025 0.78416419 1.9957043e-38
-0.018103167 0.22322033 0.77695322 1.9957043e-38
0.01892055 0.21562314 0.76774848 1.9957043e-38
0.059319209 0.2123903 0.76330733 1.9957043e-38
0.10160712 0.21786945 0.76651609 1.9957043e-38
0.12382751 0.20849913 0.76429391 1.9957043e-38
0.31382629 0.20186128 0.76270974 1.9957043e-38
0.345072 0.20911917 0.77271849 1.9957043e-38
0.37598467 0.21670014 0.77962279 1.9957043e-38
0.40052003 0.21508001 0.79800004 1.9957043e-38
-0.043677755 0.25155446 0.7676307 1.9957043e-38
-0.028218219 0.24721967 0.76187199 1.9957043e-38
0.074181758 0.27422133 0.76042861 1.9957043e-38
0.09777566 0.25959525 0.76396775 1.9957043e-38
0.028424142 0.31022775 0.76364499 1.9957043e-38
0.061301485 0.30059716 0.76917022 1.9957043e-38
0.089385308 0.29784119 0.77016878 1.9957043e-38
-0.0068225311 0.33289155 0.76134217 1.9957043e-38
0.017926931 0.32751414 0.76985508 1.9957043e-38
0.071185872 0.3345165 0.78384799 1.9957043e-38
0.08202374 0.32907149 0.76303983 1.9957043e-38
0.39510179 -0.081738479 0.83540004 1.9957043e-38
0.40676773 -0.084369279 0.83652663 1.9957043e-38
0.38668418 -0.056262046 0.82965493 1.9957043e-38
0.40556923 -0.062002894 0.82220358 1.9957043e-38
0.35428584 -0.006504206 0.83339584 1.9957043e-38
0.37917894 -0.021333937 0.81819493 1.9957043e-38
0.40242735 -0.029073237 0.80854923 1.9957043e-38
0.34780377 0.02205763 0.82417965 1.9957043e-38
0.37361744 0.015028491 0.806512 1.9957043e-38
0.34162694 0.060287289 0.81807232 1.9957043e-38
0.36269864 0.046595469 0.802154 1.9957043e-38
0.11774453 0.11854596 0.83400005 1.9957043e-38
0.14349177 0.11459383 0.82556826 1.9957043e-38
0.17556697 0.11444941 0.82750916 1.9957043e-38
0.31882 0.11825906 0.83900005 1.9957043e-38
0.33928734 0.10045764 0.81874162 1.9957043e-38
0.36175239 0.11779048 0.80000013 1.9957043e-38
0.068805285 0.15324879 0.82320172 1.9957043e-38
0.10007501 0.14031968 0.81529903 1.9957043e-38
0.13775559 0.12786929 0.80810028 1.9957043e-38
0.18151596 0.12789825 0.80969328 1.9957043e-38
0.2194197 0.13846467 0.81578982 1.9957043e-38
0.26019496 0.14947425 0.81733388 1.9957043e-38
0.3039268 0.14783594 0.82982796 1.9957043e-38
0.34038362 0.13854855 0.82767189 1.9957043e-38
0.37425739 0.14244862 0.81129545 1.9957043e-38
0.40151224 0.14471257 0.80163646 1.9957043e-38
-0.0042169848 0.19700864 0.80600011 1.9957043e-38
0.02249258 0.18128739 0.81198359 1.9957043e-38
0.056745607 0.16669582 0.81123298 1.9957043e-38
0.082166351 0.16102815 0.80133343 1.9957043e-38
0.27581653 0.16165346 0.80112511 1.9957043e-38
0.30299112 0.16551755 0.80806446 1.9957043e-38
0.34234563 0.17575307 0.81728119 1.9957043e-38
0.37632671 0.18516165 0.82304209 1.9957043e-38
0.40827444 0.19498995 0.82910532 1.9957043e-38
-0.040837623 0.22098237 0.80150002 1.9957043e-38
-0.019650362 0.20690884 0.801 1.9957043e-38
0.38921654 0.20475557 0.80343759 1.9957043e-38
0.4047679 0.20529388 0.81140012 1.9957043e-38
0.068032421 0.34242073 0.80871058 1.9957043e-38
0.064488895 0.36098796 0.80933344 1.9957043e-38
0.38522646 -0.085680507 0.85920012 1.9957043e-38
0.40928027 -0.090801068 0.84519345 1.9957043e-38
0.34900206 -0.053253084 0.86396092 1.9957043e-38
0.37156156 -0.064234681 0.85121852 1.9957043e-38
0.31837663 -0.010974933 0.87632012 1.9957043e-38
0.34002259 -0.020109246 0.85906076 1.9957043e-38
0.36235341 -0.030120399 0.8423748 1.9957043e-38
0.31534618 0.021410136 0.86790144 1.9957043e-38
0.33045566 0.017426582 0.85657638 1.9957043e-38
0.31502333 0.063703462 0.8661238 1.9957043e-38
0.3235561 0.056458279 0.84982085 1.9957043e-38
0.11213333 0.11934191 0.84100002 1.9957043e-38
0.13358147 0.11219227 0.84211117 1.9957043e-38
0.17111927 0.10759447 0.84590477 1.9957043e-38
0.30775088 0.10243137 0.85906613 1.9957043e-38
0.32173511 0.094584346 0.84395367 1.9957043e-38
0.068933934 0.1473483 0.84570271 1.9957043e-38
0.094758965 0.1309101 0.84566653 1.9957043e-38
0.22855793 0.13246089 0.86936951 1.9957043e-38
0.26276311 0.13441637 0.86110395 1.9957043e-38
0.29577836 0.13135736 0.85203809 1.9957043e-38
0.38358429 0.15786146 0.8456924 1.9957043e-38
0.046224453 0.16245461 0.8416667 1.9957043e-38
0.38665366 0.17084306 0.84748435 1.9957043e-38
0.41646793 0.18643159 0.85850048 1.9957043e-38
-0.0032121427 0.3742412 0.8432501 1.9957043e-38
0.023221772 0.37673423 0.85769522 1.9957043e-38
0.045577493 0.383726 0.87340611 1.9957043e-38
0.38540924 -0.094695531 0.88084823 1.9957043e-38
0.33443597 -0.049456712 0.89069313 1.9957043e-38
0.31474978 -0.0078706341 0.88229173 1.9957043e-38
0.32759708 -0.032847378 0.89138716 1.9957043e-38
0.31277034 0.022247575 0.89998472 1.9957043e-38
0.30858597 0.059305456 0.89038062 1.9957043e-38
0.22379711 0.11813871 0.90009117 1.9957043e-38
0.265762 0.11614817 0.90272313 1.9957043e-38
0.29272974 0.10036331 0.89286673 1.9957043e-38
0.22426295 0.12436646 0.89015538 1.9957043e-38
0.25698471 0.12374519 0.88677633 1.9957043e-38
0.43169332 0.18157898 0.89258575 1.9957043e-38
