# .PCD v0.7 - Point Cloud Data file format
VERSION 0.7
FIELDS x y z rgb
SIZE 4 4 4 4
TYPE F F F F
COUNT 1 1 1 1
WIDTH 1014
HEIGHT 1
VIEWPOINT 0 0 0 1 0 0 0
POINTS 1014
DATA ascii
-0.81173289 0.1293667 1.642481 1.8420186e-38
-0.77980602 0.13935807 1.6562757 1.8420186e-38
-0.75326782 0.14405797 1.6679537 1.8420186e-38
-0.77084851 0.17634538 1.6503475 1.8420186e-38
-0.74085361 0.18036743 1.6623939 1.8420186e-38
-0.7175312 0.19810447 1.6730001 1.8420186e-38
-0.76167077 0.20153938 1.649 1.8420186e-38
-0.73548263 0.21687809 1.6533502 1.8420186e-38
-0.70755982 0.22251464 1.6677577 1.8420186e-38
-0.72512901 0.24749772 1.6456665 1.8420186e-38
-0.69872773 0.25969359 1.6586887 1.8420186e-38
-0.66492844 0.27232185 1.6694082 1.8420186e-38
-0.68651456 0.29553166 1.648688 1.8420186e-38
-0.65953571 0.2995739 1.6606481 1.8420186e-38
-0.63435942 0.30645677 1.6693811 1.8420186e-38
-0.65853888 0.33151147 1.6494073 1.8420186e-38
-0.62439007 0.34373078 1.6624839 1.8420186e-38
-0.64233428 0.3641457 1.641 1.8420186e-38
-0.61684507 0.37805492 1.6518971 1.8420186e-38
-0.5857805 0.38658297 1.6642202 1.8420186e-38
-0.60626996 0.40769401 1.6438383 1.8420186e-38
-0.58005524 0.4201358 1.6554414 1.8420186e-38
-0.54622376 0.43454769 1.6710869 1.8420186e-38
-0.57159305 0.45540211 1.6471548 1.8420186e-38
-0.54218507 0.46144763 1.6617812 1.8420186e-38
-0.50815594 0.47046191 1.6723336 1.8420186e-38
-0.56106573 0.48292285 1.641 1.8420186e-38
-0.53599232 0.49734789 1.6517806 1.8420186e-38
-0.50227118 0.50435686 1.6647196 1.8420186e-38
-0.47676077 0.51252222 1.6730002 1.8420186e-38
-0.5282495 0.52744091 1.6430641 1.8420186e-38
-0.49772838 0.53725719 1.6483257 1.8420186e-38
-0.46650282 0.54338747 1.6654299 1.8420186e-38
-0.58602524 0.59072328 1.648 1.8420186e-38
-0.48856819 0.57199079 1.6419792 1.8420186e-38
-0.45964974 0.57934707 1.6535808 1.8420186e-38
-0.43218368 0.58842671 1.6717272 1.8420186e-38
-0.45639735 0.61692828 1.6443174 1.8420186e-38
-0.42450342 0.62322819 1.66229 1.8420186e-38
-0.39992672 0.63574004 1.6730001 1.8420186e-38
-0.44362819 0.64635307 1.641 1.8420186e-38
-0.41775367 0.65815145 1.648629 1.8420186e-38
-0.3876003 0.66468108 1.6691431 1.8420186e-38
-0.348977 0.67173535 1.6723517 1.8420186e-38
-0.40800542 0.69554067 1.643389 1.8420186e-38
-0.37912637 0.69725037 1.6547846 1.8420186e-38
-0.34486476 0.70062995 1.6651224 1.8420186e-38
-0.40399855 0.72125858 1.641 1.8420186e-38
-0.37836641 0.72886664 1.6481019 1.8420186e-38
-0.34372646 0.73123211 1.6541163 1.8420186e-38
-1.0266407 -0.32793704 1.715 1.8420186e-38
-1.0162665 -0.30010074 1.7091674 1.8420186e-38
-0.98998183 -0.2911655 1.710937 1.8420186e-38
-1.0095687 -0.26193577 1.6937393 1.8420186e-38
-0.98058522 -0.25901824 1.7033957 1.8420186e-38
-0.9587667 -0.24336669 1.715 1.8420186e-38
-1.0059761 -0.22265777 1.6836665 1.8420186e-38
-0.9773317 -0.22073118 1.692381 1.8420186e-38
-0.94239938 -0.2161869 1.7077146 1.8420186e-38
-0.91956669 -0.20253333 1.715 1.8420186e-38
-0.96876121 -0.19159402 1.684057 1.8420186e-38
-0.93965387 -0.17974374 1.6963258 1.8420186e-38
-0.91239101 -0.17396902 1.7128217 1.8420186e-38
-0.93221408 -0.14201869 1.6907523 1.8420186e-38
-0.90355623 -0.13889873 1.7042023 1.8420186e-38
-0.92756069 -0.11614794 1.6860002 1.8420186e-38
-0.89639771 -0.1030945 1.6943624 1.8420186e-38
-0.86935258 -0.094353303 1.7099619 1.8420186e-38
-0.88568109 -0.062501252 1.6851906 1.8420186e-38
-0.8607192 -0.058670845 1.7008499 1.8420186e-38
-0.83147132 -0.05052346 1.7111462 1.8420186e-38
-0.85205424 -0.023631847 1.6904221 1.8420186e-38
-0.82105303 -0.017716628 1.7030174 1.8420186e-38
-0.79431367 -0.0057597463 1.7102666 1.8420186e-38
-0.84253085 0.010951271 1.684 1.8420186e-38
-0.81829637 0.017713433 1.6911609 1.8420186e-38
-0.78703064 0.02430198 1.7079141 1.8420186e-38
-0.75950003 0.031033332 1.715 1.8420186e-38
-0.80604666 0.047471151 1.6851248 1.8420186e-38
-0.77993751 0.059326041 1.6974506 1.8420186e-38
-0.75397325 0.065224022 1.714325 1.8420186e-38
-0.77155483 0.092934184 1.6858894 1.8420186e-38
-0.74529499 0.10348448 1.7030057 1.8420186e-38
-0.71703333 0.11759999 1.715 1.8420186e-38
-0.73725587 0.13772722 1.6941217 1.8420186e-38
-0.70659405 0.14473724 1.7092683 1.8420186e-38
-0.6756556 0.14137408 1.715 1.8420186e-38
-0.7259118 0.17255434 1.6863247 1.8420186e-38
-0.70117414 0.18020809 1.700076 1.8420186e-38
-0.66577154 0.18371347 1.7103159 1.8420186e-38
-0.69105524 0.21710676 1.6891983 1.8420186e-38
-0.65798891 0.22130552 1.699771 1.8420186e-38
-0.63014251 0.2246448 1.7124677 1.8420186e-38
-0.68302453 0.24814767 1.681 1.8420186e-38
-0.65838557 0.25699052 1.6860472 1.8420186e-38
-0.6228506 0.26112044 1.7020746 1.8420186e-38
-0.59739172 0.27521664 1.715 1.8420186e-38
-0.64358294 0.28176764 1.6810001 1.8420186e-38
-0.61773664 0.29819596 1.6905242 1.8420186e-38
-0.58534461 0.30473629 1.7099031 1.8420186e-38
-0.60965919 0.33238754 1.6827263 1.8420186e-38
-0.57869786 0.34004614 1.6974243 1.8420186e-38
-0.54427761 0.34558648 1.7144681 1.8420186e-38
-0.51613337 0.35770002 1.715 1.8420186e-38
-0.60035717 0.36021432 1.6810001 1.8420186e-38
-0.57293177 0.37463081 1.6859834 1.8420186e-38
-0.54135323 0.38042337 1.7052057 1.8420186e-38
-0.50588572 0.38194901 1.7110815 1.8420186e-38
-0.56193441 0.41464674 1.681 1.8420186e-38
-0.53899038 0.41653121 1.6887596 1.8420186e-38
-0.5008657 0.41998327 1.7028652 1.8420186e-38
-0.46964639 0.42904055 1.7131661 1.8420186e-38
-0.52444082 0.45544749 1.6814864 1.8420186e-38
-0.49615651 0.45746633 1.6877179 1.8420186e-38
-0.46403596 0.46295419 1.7054083 1.8420186e-38
-0.43699092 0.47292423 1.715 1.8420186e-38
-0.48993722 0.48938829 1.6809999 1.8420186e-38
-0.45888066 0.49945915 1.6929281 1.8420186e-38
-0.42742428 0.50349838 1.7118742 1.8420186e-38
-0.45010239 0.53411138 1.6831409 1.8420186e-38
-0.42161968 0.54015756 1.7048371 1.8420186e-38
-0.39177564 0.5508191 1.7140357 1.8420186e-38
-0.34299999 0.54553336 1.715 1.8420186e-38
-0.44026193 0.56353533 1.6810001 1.8420186e-38
-0.41691205 0.57675427 1.6916987 1.8420186e-38
-0.3823911 0.58205855 1.7099915 1.8420186e-38
-0.35334623 0.58497089 1.7080005 1.8420186e-38
-0.40719372 0.6124261 1.6835536 1.8420186e-38
-0.38008523 0.62122911 1.6943536 1.8420186e-38
-0.35327864 0.61977988 1.6976926 1.8420186e-38
-0.3730945 0.65345639 1.6823928 1.8420186e-38
-0.35006484 0.6552307 1.6865273 1.8420186e-38
-0.36341622 0.68040478 1.6810001 1.8420186e-38
-1.0604258 -0.49204141 1.7590003 1.8420186e-38
-1.0541016 -0.45544189 1.7574003 1.8420186e-38
-1.0336219 -0.44561335 1.7590001 1.8420186e-38
-1.0482051 -0.41903886 1.7504739 1.8420186e-38
-1.025524 -0.41651097 1.7496706 1.8420186e-38
-1.0459901 -0.38235021 1.7403792 1.8420186e-38
-1.0174831 -0.37996465 1.7401803 1.8420186e-38
-0.99172819 -0.37252191 1.755167 1.8420186e-38
-1.0424991 -0.35134858 1.7320002 1.8420186e-38
-1.0186521 -0.34084338 1.728278 1.8420186e-38
-0.98249787 -0.33847025 1.7414322 1.8420186e-38
-0.95286041 -0.32845324 1.7533748 1.8420186e-38
-1.0120851 -0.31884104 1.7257 1.8420186e-38
-0.9762435 -0.30359969 1.7318685 1.8420186e-38
-0.94451183 -0.29728988 1.7491815 1.8420186e-38
-0.91970575 -0.2864657 1.7590001 1.8420186e-38
-0.96648616 -0.26478726 1.7268569 1.8420186e-38
-0.94154227 -0.25994515 1.7363533 1.8420186e-38
-0.91252071 -0.2572684 1.7521254 1.8420186e-38
-0.93018925 -0.22762007 1.7293872 1.8420186e-38
-0.90155506 -0.21878417 1.7445374 1.8420186e-38
-0.87911117 -0.20681971 1.756 1.8420186e-38
-0.92166829 -0.19746128 1.723 1.8420186e-38
-0.89643121 -0.18206233 1.7319993 1.8420186e-38
-0.86406761 -0.17804685 1.7523484 1.8420186e-38
-0.83594382 -0.16622087 1.7589999 1.8420186e-38
-0.88781208 -0.14115708 1.7260002 1.8420186e-38
-0.85957438 -0.13985842 1.7395152 1.8420186e-38
-0.83336896 -0.13559219 1.7567507 1.8420186e-38
-0.85665667 -0.10281473 1.7258246 1.8420186e-38
-0.82190043 -0.099358976 1.7425605 1.8420186e-38
-0.79520911 -0.10430561 1.7590003 1.8420186e-38
-0.84755194 -0.073022388 1.723 1.8420186e-38
-0.81644815 -0.061709762 1.7291547 1.8420186e-38
-0.78423911 -0.058329944 1.7518859 1.8420186e-38
-0.75804532 -0.044393808 1.7590001 1.8420186e-38
-0.80578035 -0.030207146 1.7258121 1.8420186e-38
-0.77896386 -0.020066328 1.7411442 1.8420186e-38
-0.75321782 -0.01385053 1.7585609 1.8420186e-38
-0.77379107 0.013427353 1.7292399 1.8420186e-38
-0.74468589 0.022652736 1.7473401 1.8420186e-38
-0.7069506 0.033058029 1.7589998 1.8420186e-38
-0.76304287 0.057433333 1.723 1.8420186e-38
-0.7375015 0.057055444 1.7343063 1.8420186e-38
-0.7007398 0.060948528 1.7532431 1.8420186e-38
-0.67222136 0.066229761 1.7585911 1.8420186e-38
-0.73129612 0.092678331 1.7254543 1.8420186e-38
-0.69986516 0.099720277 1.7361883 1.8420186e-38
-0.66204023 0.10010736 1.7519113 1.8420186e-38
-0.63044798 0.11782508 1.7590001 1.8420186e-38
-0.695225 0.1353167 1.7257442 1.8420186e-38
-0.65985602 0.13890967 1.7368765 1.8420186e-38
-0.62378538 0.14277485 1.7543945 1.8420186e-38
-0.6888718 0.16442345 1.7229999 1.8420186e-38
-0.65004361 0.17491488 1.7266428 1.8420186e-38
-0.62086028 0.18074998 1.7434092 1.8420186e-38
-0.58640099 0.18711171 1.7576576 1.8420186e-38
-0.55673748 0.19711971 1.7590002 1.8420186e-38
-0.64161235 0.20183714 1.723 1.8420186e-38
-0.61389005 0.21612185 1.7305869 1.8420186e-38
-0.58104897 0.22093931 1.7495816 1.8420186e-38
-0.5440551 0.22492276 1.7575951 1.8420186e-38
-0.60664749 0.25043461 1.7229998 1.8420186e-38
-0.58003265 0.25915149 1.7352104 1.8420186e-38
-0.54053831 0.26042587 1.7513897 1.8420186e-38
-0.51118922 0.27181408 1.7559141 1.8420186e-38
-0.57307076 0.29083732 1.725955 1.8420186e-38
-0.54177082 0.29979786 1.7365736 1.8420186e-38
-0.50161666 0.30193689 1.7504317 1.8420186e-38
-0.47476253 0.31561491 1.7590001 1.8420186e-38
-0.56284666 0.32490855 1.723 1.8420186e-38
-0.53397316 0.33364999 1.7274499 1.8420186e-38
-0.49922016 0.34018934 1.7385522 1.8420186e-38
-0.46859032 0.34676522 1.7565899 1.8420186e-38
-0.53659147 0.36812037 1.723 1.8420186e-38
-0.48871773 0.37616819 1.7271831 1.8420186e-38
-0.46027508 0.38005206 1.7458123 1.8420186e-38
-0.43143097 0.38743854 1.7553999 1.8420186e-38
-0.48361215 0.41094139 1.7229999 1.8420186e-38
-0.45688471 0.41738397 1.7362665 1.8420186e-38
-0.42467049 0.42167494 1.7503518 1.8420186e-38
-0.44854772 0.45087576 1.7284706 1.8420186e-38
-0.41966429 0.45966062 1.7418938 1.8420186e-38
-0.38840365 0.46692035 1.7543252 1.8420186e-38
-0.33504763 0.47744289 1.7590001 1.8420186e-38
-0.41247523 0.49575919 1.7318101 1.8420186e-38
-0.38071281 0.4997232 1.7435253 1.8420186e-38
-0.34966585 0.50847191 1.7458102 1.8420186e-38
-0.40292728 0.52769053 1.7268573 1.8420186e-38
-0.37788484 0.53924394 1.7317473 1.8420186e-38
-0.35091376 0.53803259 1.7337209 1.8420186e-38
-0.37235352 0.5667944 1.726 1.8420186e-38
-0.35114866 0.56814694 1.7251598 1.8420186e-38
-1.0821286 -0.69577628 1.7950002 1.8420186e-38
-1.0787095 -0.69121742 1.7950001 1.8420186e-38
-1.0821286 -0.60688096 1.7950001 1.8420186e-38
-1.0773419 -0.60414571 1.7950001 1.8420186e-38
-1.0821286 -0.58351755 1.7950001 1.8420186e-38
-1.0647391 -0.57194823 1.7936361 1.8420186e-38
-1.0583844 -0.54041678 1.7862669 1.8420186e-38
-1.037681 -0.5214048 1.7950001 1.8420186e-38
-1.0537204 -0.50227547 1.7783077 1.8420186e-38
-1.0269551 -0.49674985 1.7888674 1.8420186e-38
-0.99237859 -0.48123097 1.7950001 1.8420186e-38
-1.0496768 -0.46573982 1.7716736 1.8420186e-38
-1.020152 -0.4584704 1.7814696 1.8420186e-38
-0.99107504 -0.45310393 1.7943994 1.8420186e-38
-1.0124247 -0.42398438 1.7725002 1.8420186e-38
-0.98064709 -0.41751158 1.7830187 1.8420186e-38
-0.95767528 -0.40926003 1.7950001 1.8420186e-38
-1.0069182 -0.39906287 1.7680001 1.8420186e-38
-0.97616547 -0.38281369 1.7727644 1.8420186e-38
-0.94930023 -0.37730646 1.7838699 1.8420186e-38
-0.96742523 -0.35298777 1.768 1.8420186e-38
-0.93777102 -0.34113905 1.7801352 1.8420186e-38
-0.90255374 -0.33228341 1.7906408 1.8420186e-38
-0.87630188 -0.32720289 1.7950001 1.8420186e-38
-0.92832237 -0.30781782 1.7731246 1.8420186e-38
-0.89974517 -0.29938182 1.7847637 1.8420186e-38
-0.8699494 -0.29524523 1.7915257 1.8420186e-38
-0.89591521 -0.26131159 1.7739489 1.8420186e-38
-0.86287421 -0.25795063 1.7814989 1.8420186e-38
-0.83723927 -0.24531665 1.7950001 1.8420186e-38
-0.88363981 -0.22588091 1.7683603 1.8420186e-38
-0.85786402 -0.22049649 1.7733549 1.8420186e-38
-0.83300006 -0.21397467 1.7906402 1.8420186e-38
-0.84910661 -0.19058312 1.7688714 1.8420186e-38
-0.8194741 -0.17838618 1.7808205 1.8420186e-38
-0.79766387 -0.16650763 1.7950001 1.8420186e-38
-0.84471118 -0.14761397 1.7680001 1.8420186e-38
-0.81542289 -0.1435191 1.7733595 1.8420186e-38
-0.78599602 -0.13720439 1.7898337 1.8420186e-38
-0.80524963 -0.1016762 1.7679999 1.8420186e-38
-0.77929854 -0.099515453 1.7812229 1.8420186e-38
-0.74654907 -0.083766676 1.7950001 1.8420186e-38
-0.71515083 -0.082626991 1.7950001 1.8420186e-38
-0.76604223 -0.069199078 1.7751997 1.8420186e-38
-0.7419284 -0.057481609 1.7865093 1.8420186e-38
-0.70901269 -0.053031243 1.7937135 1.8420186e-38
-0.67868102 -0.042738095 1.7950001 1.8420186e-38
-0.73744261 -0.022994105 1.7743801 1.8420186e-38
-0.70240062 -0.019467847 1.7893306 1.8420186e-38
-0.67224514 -0.009754342 1.7950001 1.8420186e-38
-0.73053288 0.010247184 1.7680006 1.8420186e-38
-0.69894654 0.017040685 1.7748662 1.8420186e-38
-0.66320312 0.022493511 1.7898467 1.8420186e-38
-0.63275039 0.034605537 1.7944375 1.8420186e-38
-0.68194288 0.04209524 1.7680001 1.8420186e-38
-0.65630686 0.058575265 1.7775987 1.8420186e-38
-0.62265104 0.063472919 1.7903924 1.8420186e-38
-0.59662384 0.07521905 1.7950001 1.8420186e-38
-0.64408708 0.10087328 1.7713435 1.8420186e-38
-0.61795974 0.10003863 1.780611 1.8420186e-38
-0.58265275 0.10487615 1.7928931 1.8420186e-38
-0.55445558 0.11795714 1.7950001 1.8420186e-38
-0.60614127 0.1352299 1.7730525 1.8420186e-38
-0.58086622 0.14029922 1.7858815 1.8420186e-38
-0.5405274 0.14285058 1.7933289 1.8420186e-38
-0.51754999 0.15543382 1.7935002 1.8420186e-38
-0.57645416 0.17559732 1.7731895 1.8420186e-38
-0.53924 0.17976379 1.7829397 1.8420186e-38
-0.50951701 0.18560596 1.7934994 1.8420186e-38
-0.53368819 0.21366978 1.7738378 1.8420186e-38
-0.50075173 0.21991295 1.7862154 1.8420186e-38
-0.47695717 0.22052859 1.7950001 1.8420186e-38
-0.52211052 0.25036955 1.7679999 1.8420186e-38
-0.49701056 0.25807256 1.7768033 1.8420186e-38
-0.46326759 0.26425102 1.7910079 1.8420186e-38
-0.43678334 0.27779764 1.7950001 1.8420186e-38
-0.4877404 0.28847042 1.7697312 1.8420186e-38
-0.45986086 0.29966247 1.7798359 1.8420186e-38
-0.43109688 0.30335447 1.7913387 1.8420186e-38
-0.45449892 0.33727795 1.7723008 1.8420186e-38
-0.42251375 0.34218636 1.7864139 1.8420186e-38
-0.38952956 0.3497158 1.7931046 1.8420186e-38
-0.44620955 0.36201906 1.7680001 1.8420186e-38
-0.4175365 0.37790671 1.777566 1.8420186e-38
-0.3821682 0.38190266 1.7886417 1.8420186e-38
-0.35215092 0.39657572 1.794 1.8420186e-38
-0.40682971 0.4159086 1.7711153 1.8420186e-38
-0.37921897 0.42050174 1.7756054 1.8420186e-38
-0.34460518 0.42512837 1.7877262 1.8420186e-38
-0.31821567 0.43006736 1.7950002 1.8420186e-38
-0.4024305 0.44284195 1.7680001 1.8420186e-38
-0.37485516 0.45525557 1.7702038 1.8420186e-38
-0.34206909 0.45885697 1.7760719 1.8420186e-38
-0.36346233 0.48806429 1.768 1.8420186e-38
-0.3478165 0.49284381 1.7680001 1.8420186e-38
-0.84480315 -0.16318873 1.534004 1.8420186e-38
-0.79366177 -0.073603138 1.5072051 1.8420186e-38
-1.0744869 -0.66681099 1.8124343 1.8420186e-38
-1.0748171 -0.6900804 1.8196999 1.8420186e-38
-1.0882318 -0.66122556 1.8170362 1.8420186e-38
-1.070195 -0.65907931 1.8221292 1.8420186e-38
-1.0851139 -0.62540805 1.8093574 1.8420186e-38
-1.0614815 -0.61797565 1.8180757 1.8420186e-38
-1.0829728 -0.58609968 1.8040005 1.8420186e-38
-1.0561315 -0.58399105 1.8138421 1.8420186e-38
-1.0282056 -0.57285607 1.8304286 1.8420186e-38
-1.0450544 -0.54445732 1.8054291 1.8420186e-38
-1.0213094 -0.53852713 1.8172089 1.8420186e-38
-0.99094814 -0.5297491 1.8304689 1.8420186e-38
-1.0497563 -0.5137105 1.8040001 1.8420186e-38
-1.0118908 -0.50075817 1.805843 1.8420186e-38
-0.98228431 -0.49819717 1.8215888 1.8420186e-38
-0.95882863 -0.485461 1.8140001 1.8420186e-38
-1.0112112 -0.47262558 1.8040005 1.8420186e-38
-0.97565889 -0.46216643 1.8122466 1.8420186e-38
-0.94649851 -0.45080397 1.8258647 1.8420186e-38
-0.96631289 -0.43035418 1.8056672 1.8420186e-38
-0.93914032 -0.42001542 1.8142624 1.8420186e-38
-0.90535551 -0.4156715 1.8313363 1.8420186e-38
-0.93195903 -0.38155207 1.8078542 1.8420186e-38
-0.89953512 -0.38027781 1.821607 1.8420186e-38
-0.87470907 -0.37218443 1.8326401 1.8420186e-38
-0.92519438 -0.3582229 1.8040001 1.8420186e-38
-0.89640838 -0.34808329 1.8091906 1.8420186e-38
-0.86574221 -0.33908483 1.8263677 1.8420186e-38
-0.83619714 -0.32295716 1.8330001 1.8420186e-38
-0.89169151 -0.31612954 1.8040001 1.8420186e-38
-0.85465342 -0.3023642 1.814339 1.8420186e-38
-0.83104968 -0.29499772 1.828802 1.8420186e-38
-0.84791487 -0.26673788 1.8050209 1.8420186e-38
-0.82005996 -0.2587049 1.8217758 1.8420186e-38
-0.79264623 -0.24890213 1.8329999 1.8420186e-38
-0.81475478 -0.22213885 1.8121367 1.8420186e-38
-0.78593588 -0.21775091 1.8307978 1.8420186e-38
-0.80760604 -0.19212352 1.8040004 1.8420186e-38
-0.78135169 -0.18059556 1.8185371 1.8420186e-38
-0.74482048 -0.16952597 1.8323574 1.8420186e-38
-0.71632481 -0.16467905 1.8330001 1.8420186e-38
-0.76869267 -0.14370546 1.805804 1.8420186e-38
-0.74132621 -0.14030685 1.8224833 1.8420186e-38
-0.71068501 -0.12945297 1.830811 1.8420186e-38
-0.76323086 -0.11009028 1.8040004 1.8420186e-38
-0.73758006 -0.10282925 1.8077962 1.8420186e-38
-0.70259935 -0.097600661 1.8236067 1.8420186e-38
-0.67349666 -0.086005539 1.8330002 1.8420186e-38
-0.73603201 -0.07628344 1.8040001 1.8420186e-38
-0.69792759 -0.064232871 1.8140002 1.8420186e-38
-0.66322619 -0.057048503 1.8267117 1.8420186e-38
-0.6343925 -0.044690281 1.8330001 1.8420186e-38
-0.68414354 -0.023359327 1.8051767 1.8420186e-38
-0.65923232 -0.021438653 1.8170136 1.8420186e-38
-0.62408304 -0.014115649 1.8302135 1.8420186e-38
-0.59528857 -0.0043642856 1.8330001 1.8420186e-38
-0.6450696 0.010249224 1.8103164 1.8420186e-38
-0.61832547 0.020108154 1.8204037 1.8420186e-38
-0.58421564 0.024941059 1.8296784 1.8420186e-38
-0.55100262 0.030228417 1.8329999 1.8420186e-38
-0.60843086 0.050628074 1.811353 1.8420186e-38
-0.58142918 0.060552977 1.8240353 1.8420186e-38
-0.54351741 0.062619582 1.8265964 1.8420186e-38
-0.57489163 0.090751857 1.8180755 1.8420186e-38
-0.53901196 0.10050977 1.8171629 1.8420186e-38
-0.51008654 0.10900727 1.8284999 1.8420186e-38
-0.47658002 0.11696286 1.8330001 1.8420186e-38
-0.56353527 0.12370287 1.8040001 1.8420186e-38
-0.53241301 0.12966965 1.8085716 1.8420186e-38
-0.49858132 0.14025465 1.8211087 1.8420186e-38
-0.47268751 0.1461792 1.8327188 1.8420186e-38
-0.49442604 0.17613143 1.8131092 1.8420186e-38
-0.46293458 0.18390565 1.8244908 1.8420186e-38
-0.43883571 0.18635002 1.8285 1.8420186e-38
-0.48407337 0.21690954 1.804 1.8420186e-38
-0.46113428 0.21940255 1.8162813 1.8420186e-38
-0.42979851 0.22629696 1.8283221 1.8420186e-38
-0.39278573 0.23916286 1.8330001 1.8420186e-38
-0.48278481 0.24225144 1.8040001 1.8420186e-38
-0.45181653 0.24903008 1.8082112 1.8420186e-38
-0.42084733 0.26086879 1.8211095 1.8420186e-38
-0.38964435 0.26630741 1.8309827 1.8420186e-38
-0.41448548 0.29799435 1.8115244 1.8420186e-38
-0.38294554 0.30348462 1.82104 1.8420186e-38
-0.35485348 0.31551427 1.8321818 1.8420186e-38
-0.40655193 0.33077306 1.8056132 1.8420186e-38
-0.37631711 0.3372995 1.8080432 1.8420186e-38
-0.34733471 0.34440655 1.8242968 1.8420186e-38
-0.36657915 0.37157717 1.8040006 1.8420186e-38
-0.3398363 0.37911704 1.8140609 1.8420186e-38
-0.31467617 0.39034221 1.8211786 1.8420186e-38
-0.33470407 0.41149065 1.8066571 1.8420186e-38
-0.31401852 0.41290203 1.8090001 1.8420186e-38
-0.77158546 -0.10664483 1.6424326 1.8420186e-38
-0.97428596 -0.49957427 1.7514747 1.8420186e-38
-1.0868435 -0.71192467 1.8430003 1.8420186e-38
-1.0613513 -0.69960797 1.8557101 1.8420186e-38
-1.0374126 -0.69262779 1.8730006 1.8420186e-38
-1.0533192 -0.66131461 1.8516372 1.8420186e-38
-1.027635 -0.65107381 1.8670428 1.8420186e-38
-1.0479831 -0.62574726 1.8447068 1.8420186e-38
-1.0238543 -0.6190055 1.8603073 1.8420186e-38
-0.99417657 -0.61041522 1.8713341 1.8420186e-38
-1.0523239 -0.59315348 1.8430004 1.8420186e-38
-1.0155866 -0.58385378 1.8466789 1.8420186e-38
-0.98311186 -0.57700777 1.8611459 1.8420186e-38
-0.95701385 -0.56457573 1.8730001 1.8420186e-38
-1.0060216 -0.55398011 1.8430003 1.8420186e-38
-0.97820216 -0.54290086 1.8524477 1.8420186e-38
-0.94567132 -0.53645027 1.8683408 1.8420186e-38
-0.91509438 -0.53129369 1.8730007 1.8420186e-38
-0.96635079 -0.50435609 1.844111 1.8420186e-38
-0.94006789 -0.49963257 1.8558968 1.8420186e-38
-0.90212774 -0.49842864 1.8673525 1.8420186e-38
-0.87606049 -0.49285614 1.8730006 1.8420186e-38
-0.96128547 -0.47508448 1.8430002 1.8420186e-38
-0.93482703 -0.46459055 1.8450264 1.8420186e-38
-0.89839309 -0.46000946 1.8521723 1.8420186e-38
-0.87110662 -0.44865394 1.868854 1.8420186e-38
-0.92150003 -0.43178856 1.8430001 1.8420186e-38
-0.89460987 -0.42473915 1.843509 1.8420186e-38
-0.86189467 -0.41892189 1.8621821 1.8420186e-38
-0.83456826 -0.41053107 1.8730006 1.8420186e-38
-0.8828848 -0.39843908 1.8430001 1.8420186e-38
-0.85775411 -0.38176256 1.8476098 1.8420186e-38
-0.82872981 -0.37828538 1.8685114 1.8420186e-38
-0.84643704 -0.34463015 1.8443333 1.8420186e-38
-0.821132 -0.3386662 1.8593059 1.8420186e-38
-0.79359174 -0.33094203 1.8725245 1.8420186e-38
-0.81356227 -0.30406275 1.8511733 1.8420186e-38
-0.785577 -0.29530564 1.866053 1.8420186e-38
-0.74435836 -0.28311607 1.8730003 1.8420186e-38
-0.8048743 -0.27479228 1.8430002 1.8420186e-38
-0.77897877 -0.26081163 1.8562626 1.8420186e-38
-0.74071109 -0.25343642 1.8718066 1.8420186e-38
-0.71768606 -0.24200353 1.8730001 1.8420186e-38
-0.80214381 -0.23344667 1.8430001 1.8420186e-38
-0.76747918 -0.2230591 1.8484546 1.8420186e-38
-0.73953164 -0.2199938 1.8593857 1.8420186e-38
-0.71022451 -0.21462204 1.8678387 1.8420186e-38
-0.6760639 -0.2015705 1.8730001 1.8420186e-38
-0.76152259 -0.19282547 1.8430002 1.8420186e-38
-0.73835045 -0.18516301 1.8455008 1.8420186e-38
-0.70027387 -0.17921156 1.8626417 1.8420186e-38
-0.66992283 -0.17665572 1.8730009 1.8420186e-38
-0.72549844 -0.15680128 1.8430002 1.8420186e-38
-0.69776422 -0.14308895 1.8497229 1.8420186e-38
-0.66393423 -0.13807772 1.8685132 1.8420186e-38
-0.6293025 -0.13136484 1.8730009 1.8420186e-38
-0.68747568 -0.10870348 1.8434166 1.8420186e-38
-0.65918821 -0.10227027 1.8545716 1.8420186e-38
-0.62234455 -0.097476609 1.8681868 1.8420186e-38
-0.58897191 -0.087406673 1.8730006 1.8420186e-38
-0.64900625 -0.070630647 1.8451619 1.8420186e-38
-0.62009269 -0.060803305 1.8589617 1.8420186e-38
-0.58327448 -0.053892989 1.8689101 1.8420186e-38
-0.55476475 -0.046081748 1.8730005 1.8420186e-38
-0.61412674 -0.028018218 1.8508681 1.8420186e-38
-0.58049959 -0.019976433 1.8577222 1.8420186e-38
-0.54232299 -0.017131416 1.864584 1.8420186e-38
-0.57419688 0.0099668773 1.8485553 1.8420186e-38
-0.5382759 0.017678052 1.8529195 1.8420186e-38
-0.50669879 0.025162704 1.8686002 1.8420186e-38
-0.47984478 0.035676192 1.8730001 1.8420186e-38
-0.52918416 0.052404549 1.8444546 1.8420186e-38
-0.5000608 0.060493361 1.8576053 1.8420186e-38
-0.47249132 0.065787613 1.8695915 1.8420186e-38
-0.52130574 0.084251426 1.8430001 1.8420186e-38
-0.49661836 0.096867047 1.8475547 1.8420186e-38
-0.46099794 0.10130807 1.8615733 1.8420186e-38
-0.4336434 0.10884889 1.8695523 1.8420186e-38
-0.48269048 0.12111144 1.8430001 1.8420186e-38
-0.45752993 0.1386631 1.8522168 1.8420186e-38
-0.4255234 0.14348167 1.8637146 1.8420186e-38
-0.39689767 0.15519145 1.8730001 1.8420186e-38
-0.44939038 0.17122583 1.8437692 1.8420186e-38
-0.42047465 0.17996065 1.8562419 1.8420186e-38
-0.39299655 0.18529344 1.8650002 1.8420186e-38
-0.44056481 0.20536286 1.8430002 1.8420186e-38
-0.41398019 0.21702181 1.8483124 1.8420186e-38
-0.37942779 0.22090714 1.8549199 1.8420186e-38
-0.35854572 0.21584098 1.8730001 1.8420186e-38
-0.40510893 0.2446802 1.8430003 1.8420186e-38
-0.37498581 0.25618505 1.8453166 1.8420186e-38
-0.34491616 0.26331678 1.8616848 1.8420186e-38
-0.3025341 0.26222003 1.8730004 1.8420186e-38
-0.36883411 0.29242265 1.8429996 1.8420186e-38
-0.33902764 0.29852226 1.8504144 1.8420186e-38
-0.30589053 0.30361471 1.8692642 1.8420186e-38
-0.33042288 0.33596578 1.8436257 1.8420186e-38
-0.30676913 0.34034374 1.8477826 1.8420186e-38
-0.32191068 0.36754689 1.8430001 1.8420186e-38
-0.30920041 0.37377256 1.8441907 1.8420186e-38
-0.5899471 0.57421994 1.5571493 1.8420186e-38
-0.9335981 -0.45820665 1.779282 1.8420186e-38
-1.0069202 -0.67706442 1.8967719 1.8420186e-38
-1.0451506 -0.7103436 1.8838462 1.8420186e-38
-1.0217363 -0.6990602 1.8978782 1.8420186e-38
-0.99682701 -0.68699914 1.9108751 1.8420186e-38
-1.0431223 -0.67489117 1.8830003 1.8420186e-38
-1.0158197 -0.66232395 1.8870831 1.8420186e-38
-0.98351669 -0.65671045 1.9025981 1.8420186e-38
-0.93950939 -0.64380133 1.9142419 1.8420186e-38
-0.91737622 -0.64198101 1.9150001 1.8420186e-38
-1.0134326 -0.63185108 1.8829999 1.8420186e-38
-0.97852129 -0.62069678 1.8906851 1.8420186e-38
-0.94005525 -0.61817122 1.9081135 1.8420186e-38
-0.91581303 -0.61436337 1.9150004 1.8420186e-38
-0.97033691 -0.59072411 1.8829997 1.8420186e-38
-0.94322723 -0.58007807 1.8907057 1.8420186e-38
-0.90174139 -0.57638651 1.9035428 1.8420186e-38
-0.87387121 -0.57368869 1.9145006 1.8420186e-38
-0.93667656 -0.55030602 1.8829997 1.8420186e-38
-0.89737505 -0.54180485 1.8918859 1.8420186e-38
-0.86682856 -0.53593051 1.9108334 1.8420186e-38
-0.89028311 -0.51321632 1.8846923 1.8420186e-38
-0.85681707 -0.49899918 1.8976903 1.8420186e-38
-0.83357143 -0.49643996 1.9145932 1.8420186e-38
-0.88211501 -0.47264168 1.8841002 1.8420186e-38
-0.85694355 -0.46348339 1.8875936 1.8420186e-38
-0.82503164 -0.45620593 1.9067237 1.8420186e-38
-0.79700482 -0.44865716 1.9150001 1.8420186e-38
-0.84779841 -0.43757331 1.8830003 1.8420186e-38
-0.81801808 -0.42192629 1.8965133 1.8420186e-38
-0.78786552 -0.41700435 1.9136956 1.8420186e-38
-0.8095063 -0.38124043 1.8841678 1.8420186e-38
-0.78218937 -0.38015941 1.9062423 1.8420186e-38
-0.7546044 -0.36835974 1.9130592 1.8420186e-38
-0.80796576 -0.35383844 1.8830001 1.8420186e-38
-0.77970713 -0.34100074 1.8961766 1.8420186e-38
-0.74065119 -0.33839193 1.9071922 1.8420186e-38
-0.71310961 -0.3301096 1.9150006 1.8420186e-38
-0.77164888 -0.30620432 1.889109 1.8420186e-38
-0.73900872 -0.30090871 1.8992832 1.8420186e-38
-0.70489603 -0.29592839 1.9103558 1.8420186e-38
-0.76336229 -0.27079335 1.8830003 1.8420186e-38
-0.73759896 -0.26769063 1.8889173 1.8420186e-38
-0.69891256 -0.25988898 1.9024625 1.8420186e-38
-0.66499126 -0.25429803 1.9148263 1.8420186e-38
-0.69618046 -0.22473232 1.8922633 1.8420186e-38
-0.66140908 -0.21891254 1.9073575 1.8420186e-38
-0.63319355 -0.2070853 1.9150003 1.8420186e-38
-0.65249056 -0.18243749 1.8927519 1.8420186e-38
-0.62263972 -0.17741185 1.907631 1.8420186e-38
-0.5824737 -0.16521329 1.9137064 1.8420186e-38
-0.64726639 -0.15167575 1.883846 1.8420186e-38
-0.61470491 -0.14096543 1.8973051 1.8420186e-38
-0.57891876 -0.13899221 1.9067127 1.8420186e-38
-0.55126333 -0.12867987 1.9150007 1.8420186e-38
-0.60959297 -0.11137986 1.8870965 1.8420186e-38
-0.57748049 -0.10011418 1.8930097 1.8420186e-38
-0.54306912 -0.097597651 1.9071574 1.8420186e-38
-0.51287448 -0.087446861 1.9150006 1.8420186e-38
-0.5734238 -0.0686002 1.8840587 1.8420186e-38
-0.53849912 -0.060432378 1.8955425 1.8420186e-38
-0.50475103 -0.05661875 1.908033 1.8420186e-38
-0.52796948 -0.027812388 1.8837856 1.8420186e-38
-0.50015408 -0.019617248 1.8949271 1.8420186e-38
-0.46882212 -0.012804086 1.9065554 1.8420186e-38
-0.49445814 0.012616446 1.8864793 1.8420186e-38
-0.46114951 0.021203037 1.9012085 1.8420186e-38
-0.42369229 0.025508191 1.9088593 1.8420186e-38
-0.45691007 0.056923699 1.8944536 1.8420186e-38
-0.42150632 0.06034141 1.9009216 1.8420186e-38
-0.39723969 0.066840321 1.8854446 1.8420186e-38
-0.44870687 0.084032655 1.8881336 1.8420186e-38
-0.41943377 0.097590551 1.8919207 1.8420186e-38
-0.39330688 0.10097072 1.8849564 1.8420186e-38
-0.41201767 0.13284922 1.8850634 1.8420186e-38
-0.38405523 0.14269502 1.8852822 1.8420186e-38
-0.35687336 0.15960667 1.8830001 1.8420186e-38
-0.4070867 0.16319335 1.8830001 1.8420186e-38
-0.37510797 0.17949937 1.883224 1.8420186e-38
-0.3498829 0.18607423 1.887746 1.8420186e-38
-0.36654174 0.21356265 1.8829998 1.8420186e-38
-0.34042823 0.2217364 1.8841778 1.8420186e-38
-0.31599715 0.23691867 1.8874003 1.8420186e-38
-0.33106011 0.25147486 1.8832561 1.8420186e-38
-0.30851516 0.26256871 1.8830011 1.8420186e-38
-0.30556846 0.28825888 1.8829998 1.8420186e-38
-0.68834323 0.10092014 1.7359706 1.8420186e-38
-0.97350121 -0.72794968 1.9480002 1.8420186e-38
-0.94356954 -0.76268762 1.9580001 1.8420186e-38
-0.82254779 0.0035869647 1.6904311 1.8420186e-38
-1.0173492 -0.7418794 1.9257717 1.8420186e-38
-0.98199165 -0.73822957 1.9446152 1.8420186e-38
-0.94086766 -0.73979568 1.9575443 1.8420186e-38
-0.91932762 -0.73658097 1.9580001 1.8420186e-38
0.66012573 -0.7589581 1.9580001 1.8420186e-38
0.70860958 -0.7589581 1.9580001 1.8420186e-38
0.74468684 -0.75646496 1.9528667 1.8420186e-38
0.7802856 -0.75669742 1.9550669 1.8420186e-38
0.83258742 -0.7538175 1.948774 1.8420186e-38
0.86264515 -0.74880403 1.9466567 1.8420186e-38
0.89743567 -0.74631006 1.9427692 1.8420186e-38
0.93795961 -0.74971062 1.9422606 1.8420186e-38
0.96966934 -0.75309843 1.9506668 1.8420186e-38
-1.0061166 -0.71239632 1.9275881 1.8420186e-38
-0.98080397 -0.69944686 1.9335773 1.8420186e-38
-0.93847352 -0.69880855 1.9441204 1.8420186e-38
-0.90884417 -0.69164753 1.9565653 1.8420186e-38
-0.87830287 -0.68063813 1.9580001 1.8420186e-38
-0.9683364 -0.66823316 1.9266293 1.8420186e-38
-0.93954808 -0.66367233 1.9270897 1.8420186e-38
-0.90138239 -0.65834254 1.9453883 1.8420186e-38
-0.87382746 -0.64669949 1.9580001 1.8420186e-38
-0.96310419 -0.63860065 1.9286668 1.8420186e-38
-0.92216671 -0.62700003 1.9250001 1.8420186e-38
-0.90081739 -0.62230003 1.9310706 1.8420186e-38
-0.86468947 -0.61874735 1.951417 1.8420186e-38
-0.83541334 -0.60418284 1.9580001 1.8420186e-38
-0.89440489 -0.59819055 1.9249998 1.8420186e-38
-0.85862952 -0.58146155 1.9365809 1.8420186e-38
-0.82971352 -0.57598186 1.9551747 1.8420186e-38
-0.85121381 -0.54723489 1.9278777 1.8420186e-38
-0.8225711 -0.53964823 1.9493635 1.8420186e-38
-0.78547484 -0.53024489 1.9575686 1.8420186e-38
-0.75771493 -0.52151179 1.9580001 1.8420186e-38
-0.84149998 -0.51883334 1.9250001 1.8420186e-38
-0.81698781 -0.50108534 1.932058 1.8420186e-38
-0.78167373 -0.49840716 1.9493065 1.8420186e-38
-0.75246304 -0.49695814 1.9570835 1.8420186e-38
-0.8110919 -0.46999952 1.9260733 1.8420186e-38
-0.77910584 -0.4588699 1.9355513 1.8420186e-38
-0.74367714 -0.45831895 1.9541534 1.8420186e-38
-0.71793336 -0.44567809 1.9580001 1.8420186e-38
-0.77249897 -0.42388782 1.9280407 1.8420186e-38
-0.74049377 -0.41951996 1.9461797 1.8420186e-38
-0.71360981 -0.41393879 1.9570001 1.8420186e-38
-0.76303333 -0.39343333 1.9250001 1.8420186e-38
-0.73912203 -0.38207152 1.9376137 1.8420186e-38
-0.70498151 -0.37724015 1.9514251 1.8420186e-38
-0.72596794 -0.353753 1.9272 1.8420186e-38
-0.69826484 -0.34071189 1.9435011 1.8420186e-38
-0.66376203 -0.32950357 1.9580001 1.8420186e-38
-0.68938231 -0.30599889 1.9351995 1.8420186e-38
-0.6603229 -0.29970261 1.9483764 1.8420186e-38
-0.63061869 -0.28980592 1.9579999 1.8420186e-38
-0.68016672 -0.27683336 1.9250001 1.8420186e-38
-0.652098 -0.2652376 1.9345226 1.8420186e-38
-0.62362927 -0.25934127 1.9517692 1.8420186e-38
-0.58882314 -0.25267825 1.9520212 1.8420186e-38
-0.64506847 -0.23085335 1.9281429 1.8420186e-38
-0.61910009 -0.221467 1.9395468 1.8420186e-38
-0.57972074 -0.21933894 1.9445887 1.8420186e-38
-0.55084807 -0.21257734 1.9533682 1.8420186e-38
-0.60825878 -0.18798479 1.9324323 1.8420186e-38
-0.57826799 -0.18164146 1.9331663 1.8420186e-38
-0.54052067 -0.17836432 1.9439933 1.8420186e-38
-0.51344955 -0.17016059 1.9569 1.8420186e-38
-0.56481802 -0.15389524 1.9262223 1.8420186e-38
-0.53774816 -0.14255066 1.9354726 1.8420186e-38
-0.50496578 -0.13667549 1.9497503 1.8420186e-38
-0.47289625 -0.12386 1.9570001 1.8420186e-38
-0.52907717 -0.1103044 1.9321179 1.8420186e-38
-0.49775386 -0.10163952 1.9384674 1.8420186e-38
-0.46607795 -0.097674124 1.9534701 1.8420186e-38
-0.42924502 -0.086997509 1.9563079 1.8420186e-38
-0.48935929 -0.065466262 1.9315997 1.8420186e-38
-0.46103647 -0.060567148 1.9454436 1.8420186e-38
-0.4305945 -0.060720805 1.9478456 1.8420186e-38
-0.48294795 -0.035940818 1.928143 1.8420186e-38
-0.4549073 -0.022774903 1.9330754 1.8420186e-38
-0.42987436 -0.020311622 1.9371991 1.8420186e-38
-0.44595835 0.0050416668 1.9250001 1.8420186e-38
-0.43011662 0.0070116529 1.9256469 1.8420186e-38
-0.55822808 0.22433811 1.7604032 1.8420186e-38
-0.85668457 -0.4395422 1.8875443 1.8420186e-38
-0.87960607 -0.55896163 1.9178332 1.8420186e-38
-0.91632003 -0.76075435 1.9920001 1.8420186e-38
-0.66204023 0.10010736 1.7519113 1.8420186e-38
-0.6117686 0.45741913 1.6006525 1.8420186e-38
-0.61577994 -0.2365472 1.7298237 1.8420186e-38
-0.30675226 -0.42678362 1.8211323 1.8420186e-38
-0.22821066 -0.33587134 1.81347 1.8420186e-38
-0.17147589 -0.21896996 1.7998437 1.8420186e-38
0.58574599 -0.69981354 1.964987 1.8420186e-38
0.6946283 -0.76572609 1.9701504 1.8420186e-38
0.73143381 -0.76469493 1.985867 1.8420186e-38
0.82589602 -0.7633937 1.9830002 1.8420186e-38
0.84043431 -0.76075435 1.9920001 1.8420186e-38
0.99760991 -0.76782101 1.9712002 1.8420186e-38
-0.9769991 -0.75722122 1.9690001 1.8420186e-38
-0.92411846 -0.74472272 1.9714822 1.8420186e-38
-0.90528637 -0.73439878 1.9829869 1.8420186e-38
-0.86547667 -0.72787064 1.9920006 1.8420186e-38
0.67085183 -0.74956173 1.9827833 1.8420186e-38
0.69753289 -0.75268108 1.983197 1.8420186e-38
0.74211568 -0.75150102 1.9838331 1.8420186e-38
0.78118366 -0.74989885 1.9807287 1.8420186e-38
0.8193574 -0.74828851 1.9849207 1.8420186e-38
0.85784549 -0.73658437 1.9820004 1.8420186e-38
0.9001804 -0.73126543 1.9835291 1.8420186e-38
0.94000727 -0.73656785 1.9833223 1.8420186e-38
0.9799518 -0.73687059 1.9828882 1.8420186e-38
1.0159535 -0.73660159 1.9912946 1.8420186e-38
-0.92042816 -0.71861666 1.9805001 1.8420186e-38
-0.89757764 -0.70450616 1.9760796 1.8420186e-38
-0.8616063 -0.69843179 1.9881546 1.8420186e-38
0.8595258 -0.7184028 1.9890003 1.8420186e-38
0.98090565 -0.7172817 1.9914004 1.8420186e-38
1.0073829 -0.71901715 1.9920001 1.8420186e-38
-0.88661259 -0.67246044 1.9690001 1.8420186e-38
-0.85908478 -0.66086704 1.9762163 1.8420186e-38
-0.83181715 -0.65021724 1.9890002 1.8420186e-38
-0.792795 -0.64692575 1.9920003 1.8420186e-38
-0.84920508 -0.62973285 1.9690007 1.8420186e-38
-0.82163626 -0.61836338 1.9762657 1.8420186e-38
-0.7901352 -0.61745995 1.9908454 1.8420186e-38
-0.81141567 -0.58335811 1.973071 1.8420186e-38
-0.77989352 -0.57779074 1.9832295 1.8420186e-38
-0.75474668 -0.57167238 1.9920005 1.8420186e-38
-0.80260193 -0.55319524 1.9690001 1.8420186e-38
-0.77700943 -0.54717731 1.9756963 1.8420186e-38
-0.74550009 -0.53629965 1.9877738 1.8420186e-38
-0.71674061 -0.52399093 1.9920002 1.8420186e-38
-0.73557222 -0.50188935 1.9816337 1.8420186e-38
-0.7136544 -0.49786636 1.9913516 1.8420186e-38
-0.72954679 -0.47056416 1.975786 1.8420186e-38
-0.70610297 -0.45794845 1.9877806 1.8420186e-38
-0.67601526 -0.44329906 1.9920001 1.8420186e-38
-0.69621414 -0.42102671 1.9819185 1.8420186e-38
-0.67122984 -0.41393617 1.9920001 1.8420186e-38
-0.68837225 -0.38469666 1.9781674 1.8420186e-38
-0.66381991 -0.37695205 1.9891201 1.8420186e-38
-0.63856232 -0.3641943 1.9896001 1.8420186e-38
-0.68339038 -0.35388425 1.9690001 1.8420186e-38
-0.65649915 -0.34531143 1.9732581 1.8420186e-38
-0.62321043 -0.3365325 1.9885 1.8420186e-38
-0.58861357 -0.33090168 1.992 1.8420186e-38
-0.64320666 -0.31316477 1.9690001 1.8420186e-38
-0.61901677 -0.3044062 1.9763258 1.8420186e-38
-0.58306825 -0.29820317 1.9866824 1.8420186e-38
-0.55523044 -0.29005209 1.9920003 1.8420186e-38
-0.60645205 -0.27378473 1.9690001 1.8420186e-38
-0.57403672 -0.26281759 1.9760956 1.8420186e-38
-0.54150146 -0.25771415 1.9861301 1.8420186e-38
-0.51450515 -0.2454903 1.9920005 1.8420186e-38
-0.56444669 -0.23601215 1.9690001 1.8420186e-38
-0.53639835 -0.22294196 1.9786181 1.8420186e-38
-0.50606787 -0.21670339 1.9865451 1.8420186e-38
-0.47808003 -0.2029943 1.9920001 1.8420186e-38
-0.52726436 -0.19493863 1.9702222 1.8420186e-38
-0.49743846 -0.18133865 1.9783614 1.8420186e-38
-0.47022909 -0.1773653 1.9914181 1.8420186e-38
-0.49085629 -0.14697292 1.9725115 1.8420186e-38
-0.45921347 -0.14034539 1.9832978 1.8420186e-38
-0.42560226 -0.14015606 1.9864619 1.8420186e-38
-0.45100352 -0.10253774 1.9708978 1.8420186e-38
-0.43225056 -0.1061809 1.972414 1.8420186e-38
-0.83147132 -0.05052346 1.7111462 1.8420186e-38
-0.68413413 0.082932979 1.74266 1.8420186e-38
-0.66324717 -0.14876552 1.8646249 1.8420186e-38
-0.65212476 -0.59835291 1.9759831 1.8420186e-38
-0.81338716 -0.50610864 1.9354548 1.8420186e-38
-0.53623796 -0.49882388 1.9699004 1.8420186e-38
-0.3557511 -0.50111783 1.9900912 1.8420186e-38
-0.35655198 -0.36161298 1.9773257 1.8420186e-38
-0.45134014 -0.14419003 1.8373257 1.8420186e-38
-0.29707912 -0.49246842 1.8280283 1.8420186e-38
-0.28733039 -0.54954422 1.8942271 1.8420186e-38
-0.44256663 -0.38893601 1.8540246 1.8420186e-38
-0.71912062 0.059001986 1.7437747 1.8420186e-38
-0.63545191 0.17783242 1.735026 1.8420186e-38
-0.56936115 0.23788786 1.7445891 1.8420186e-38
-0.51324993 0.28607926 1.7609316 1.8420186e-38
-0.43143097 0.38743854 1.7553999 1.8420186e-38
-0.84468979 -0.49027115 1.9124312 1.8420186e-38
-0.85852402 -0.68118882 1.9900284 1.8420186e-38
-0.8618927 -0.77800566 2.0237031 1.8420186e-38
-0.83360666 -0.77107573 2.0336668 1.8420186e-38
-0.13399144 -0.79812282 2.039 1.8420186e-38
-0.08537659 -0.73777759 2.0311241 1.8420186e-38
-0.09918768 -0.65696102 1.9731621 1.8420186e-38
0.015791997 -0.77488422 2.0281878 1.8420186e-38
0.059308708 -0.79514694 2.0368187 1.8420186e-38
0.1094532 -0.75802535 2.0198865 1.8420186e-38
-0.0018946063 -0.70846945 2.0055234 1.8420186e-38
0.020298645 -0.6875543 2.0024586 1.8420186e-38
0.1043688 -0.71997422 2.0199275 1.8420186e-38
0.17690291 -0.71765453 2.0240464 1.8420186e-38
0.16535045 -0.63704556 1.9974198 1.8420186e-38
0.25719902 -0.6861822 1.9982193 1.8420186e-38
0.37153265 -0.76305503 2.0193961 1.8420186e-38
0.42001146 -0.77580589 2.0232792 1.8420186e-38
0.44556856 -0.7743814 2.0196741 1.8420186e-38
0.49946678 -0.7702682 2.0184095 1.8420186e-38
0.5401724 -0.76982796 2.0139232 1.8420186e-38
0.5783664 -0.77159685 2.0115302 1.8420186e-38
0.62078452 -0.77040458 2.0100677 1.8420186e-38
0.65469873 -0.76656342 2.0084541 1.8420186e-38
1.0282066 -0.76228452 2.003 1.8420186e-38
1.0434676 -0.76113999 2.003 1.8420186e-38
-0.89485079 -0.74667776 2.0029991 1.8420186e-38
-0.85920632 -0.74292624 2.0087333 1.8420186e-38
-0.82293916 -0.73979908 2.0272276 1.8420186e-38
-0.78839302 -0.72862637 2.0365388 1.8420186e-38
0.33204192 -0.75867724 2.0270002 1.8420186e-38
0.37645215 -0.75873005 2.039 1.8420186e-38
0.43047714 -0.75913292 2.036 1.8420186e-38
0.49130189 -0.75734288 2.039 1.8420186e-38
0.54012311 -0.75626957 2.0305555 1.8420186e-38
0.58130455 -0.75346929 2.0193901 1.8420186e-38
0.62490016 -0.75378138 2.0208461 1.8420186e-38
0.662494 -0.74732846 2.0234003 1.8420186e-38
0.70331252 -0.73684603 2.0259764 1.8420186e-38
0.73925513 -0.73804808 2.0217354 1.8420186e-38
0.77817154 -0.73260057 2.0160437 1.8420186e-38
0.82084322 -0.73075545 2.0219278 1.8420186e-38
0.85285932 -0.72763509 2.0162761 1.8420186e-38
0.90182406 -0.72382051 2.0182726 1.8420186e-38
0.94129014 -0.72376901 2.0058234 1.8420186e-38
0.96334761 -0.72489524 2.003 1.8420186e-38
1.0258741 -0.74115932 2.006 1.8420186e-38
1.0446558 -0.74211973 2.0103848 1.8420186e-38
-0.85011697 -0.70118636 2.0029993 1.8420186e-38
-0.82360804 -0.70127845 2.0151067 1.8420186e-38
-0.78252035 -0.69771093 2.0282631 1.8420186e-38
-0.75734288 -0.68355048 2.039 1.8420186e-38
0.78650457 -0.71535522 2.0333159 1.8420186e-38
0.81612653 -0.71479708 2.0376666 1.8420186e-38
0.86714542 -0.70898652 2.0285888 1.8420186e-38
0.90135604 -0.70163786 2.0323551 1.8420186e-38
0.93889505 -0.70484042 2.0202599 1.8420186e-38
0.97849166 -0.7020517 2.0265751 1.8420186e-38
1.0186969 -0.71079308 2.0246007 1.8420186e-38
1.050379 -0.71123648 2.0311384 1.8420186e-38
-0.84507525 -0.67262644 2.003 1.8420186e-38
-0.82070667 -0.6630106 2.0080957 1.8420186e-38
-0.77906275 -0.66128397 2.0159242 1.8420186e-38
-0.74624878 -0.65590054 2.0386629 1.8420186e-38
0.89965677 -0.67661512 2.039 1.8420186e-38
0.97289425 -0.67772478 2.039 1.8420186e-38
-0.81216872 -0.63309109 2.003 1.8420186e-38
-0.7728712 -0.62328303 2.0052106 1.8420186e-38
-0.73950702 -0.61839664 2.0276363 1.8420186e-38
-0.71397358 -0.60824776 2.0389998 1.8420186e-38
-0.76495522 -0.59326953 2.003 1.8420186e-38
-0.73862976 -0.58165592 2.0172222 1.8420186e-38
-0.70883775 -0.57629085 2.0362465 1.8420186e-38
-0.73076516 -0.54892629 2.0039992 1.8420186e-38
-0.70232457 -0.53833586 2.0232501 1.8420186e-38
-0.66756713 -0.52416486 2.0389998 1.8420186e-38
-0.69500118 -0.501203 2.0159137 1.8420186e-38
-0.6626572 -0.49986336 2.0376399 1.8420186e-38
-0.62424779 -0.49070445 2.0389998 1.8420186e-38
-0.68894053 -0.46747321 2.0058229 1.8420186e-38
-0.65841687 -0.4592151 2.0169113 1.8420186e-38
-0.61973119 -0.45900872 2.0364859 1.8420186e-38
-0.65538025 -0.42328927 2.00647 1.8420186e-38
-0.619407 -0.41930595 2.0232301 1.8420186e-38
-0.5851106 -0.41310126 2.0380011 1.8420186e-38
-0.64963657 -0.38823125 2.0029991 1.8420186e-38
-0.61852431 -0.37997463 2.0074177 1.8420186e-38
-0.57937258 -0.38021576 2.0307884 1.8420186e-38
-0.54555196 -0.37713024 2.039001 1.8420186e-38
-0.61785662 -0.35036606 2.0029993 1.8420186e-38
-0.57512367 -0.34414965 2.0118105 1.8420186e-38
-0.5405097 -0.33984703 2.0277841 1.8420186e-38
-0.51179641 -0.33062294 2.0362577 1.8420186e-38
1.0509793 -0.32777303 2.039 1.8420186e-38
-0.56829703 -0.31198242 2.0030003 1.8420186e-38
-0.53862876 -0.30137444 2.0120535 1.8420186e-38
-0.50603741 -0.29790691 2.0327601 1.8420186e-38
-0.47147405 -0.28607324 2.039 1.8420186e-38
1.0363297 -0.28416538 2.039 1.8420186e-38
1.0475742 -0.29903147 2.031534 1.8420186e-38
-0.52737296 -0.27084979 2.0077994 1.8420186e-38
-0.49739102 -0.26082522 2.0163796 1.8420186e-38
-0.46472588 -0.25725231 2.0340135 1.8420186e-38
-0.43359962 -0.24551226 2.039 1.8420186e-38
1.035812 -0.25322437 2.0389998 1.8420186e-38
1.0506355 -0.25999197 2.0385008 1.8420186e-38
-0.49058443 -0.22682321 2.0089993 1.8420186e-38
-0.45886713 -0.2197475 2.0241463 1.8420186e-38
-0.42251751 -0.21777156 2.0345201 1.8420186e-38
-0.39614856 -0.20390001 2.039 1.8420186e-38
1.0300339 -0.23316291 2.0362308 1.8420186e-38
1.0513473 -0.23419376 2.0389998 1.8420186e-38
-0.45257464 -0.18305038 2.0126359 1.8420186e-38
-0.42092186 -0.17999235 2.0177872 1.8420186e-38
-0.39922908 -0.19237097 2.0300002 1.8420186e-38
-0.44218609 -0.15528022 2.003 1.8420186e-38
-0.43077686 -0.15462255 2.0043335 1.8420186e-38
-0.0058213188 0.39223218 2.0380769 1.8420186e-38
0.0061031291 0.39060026 2.0389998 1.8420186e-38
-0.0059554661 0.41422224 2.0284402 1.8420186e-38
0.0088841943 0.41741237 2.0270004 1.8420186e-38
-0.66026574 -0.21754698 1.899232 1.8420186e-38
-0.63372368 -0.33363858 1.8121732 1.8420186e-38
-0.74194956 -0.63145125 2.0104756 1.8420186e-38
-0.66996872 -0.71211636 2.0386219 1.8420186e-38
-0.63415498 -0.66306865 2.0316346 1.8420186e-38
-0.57945836 -0.64411885 2.0324941 1.8420186e-38
-0.521375 -0.58369547 2.0262969 1.8420186e-38
-0.44677478 -0.35273713 1.9848483 1.8420186e-38
-0.24792415 -0.50246996 2.0202234 1.8420186e-38
-0.38842738 -0.71213573 1.978085 1.8420186e-38
-0.36311924 -0.73266983 1.9874668 1.8420186e-38
-0.19506855 -0.7952792 2.0470688 1.8420186e-38
-0.41088346 -0.78049713 2.0470819 1.8420186e-38
-0.36017925 -0.76995468 2.0426772 1.8420186e-38
-0.36635965 -0.70642149 2.0222442 1.8420186e-38
-0.31082201 -0.68250579 2.0245035 1.8420186e-38
-0.24432464 -0.68776697 2.0292346 1.8420186e-38
-0.11646613 -0.77932972 2.0521388 1.8420186e-38
-0.076180004 -0.80282003 2.0510001 1.8420186e-38
-0.029300002 -0.80282003 2.0510004 1.8420186e-38
-0.8451423 -0.79630899 2.0510004 1.8420186e-38
-0.81805342 -0.78234452 2.0517592 1.8420186e-38
-0.78122395 -0.77909219 2.0671425 1.8420186e-38
-0.75363541 -0.78320652 2.0760002 1.8420186e-38
-0.44288003 -0.79678869 2.0760002 1.8420186e-38
-0.43101719 -0.79678869 2.0760002 1.8420186e-38
-0.36774859 -0.79678869 2.0760002 1.8420186e-38
-0.33445573 -0.79726696 2.0738335 1.8420186e-38
-0.29893327 -0.79551315 2.0736365 1.8420186e-38
-0.25213709 -0.79419184 2.0643246 1.8420186e-38
-0.2194598 -0.7944476 2.0639303 1.8420186e-38
-0.18042515 -0.79306442 2.066859 1.8420186e-38
-0.1406586 -0.78994942 2.0640397 1.8420186e-38
-0.097655334 -0.79194957 2.0695171 1.8420186e-38
-0.059500758 -0.7813974 2.0594771 1.8420186e-38
-0.021684146 -0.78799164 2.0597539 1.8420186e-38
0.022567658 -0.77922916 2.0618322 1.8420186e-38
0.057757284 -0.78065854 2.0621729 1.8420186e-38
0.098177098 -0.77604938 2.0601089 1.8420186e-38
0.14183217 -0.76756525 2.0686362 1.8420186e-38
0.1805788 -0.77014726 2.0664062 1.8420186e-38
0.21953669 -0.76991254 2.0636771 1.8420186e-38
0.2606411 -0.76671714 2.0633783 1.8420186e-38
0.298942 -0.76764917 2.0617108 1.8420186e-38
0.33554614 -0.7633003 2.0562177 1.8420186e-38
0.38800934 -0.76257193 2.0583849 1.8420186e-38
0.41644299 -0.76303065 2.0588961 1.8420186e-38
0.46057543 -0.76658773 2.0561776 1.8420186e-38
0.49264431 -0.76413268 2.0552001 1.8420186e-38
0.52544671 -0.76375335 2.0510001 1.8420186e-38
0.61530006 -0.76375335 2.0510004 1.8420186e-38
-0.81230766 -0.75761431 2.0510004 1.8420186e-38
-0.77826303 -0.74526459 2.0564337 1.8420186e-38
-0.75150949 -0.73532158 2.06726 1.8420186e-38
0.13868247 -0.75611615 2.0760002 1.8420186e-38
0.17888847 -0.75346345 2.0760002 1.8420186e-38
0.22404154 -0.75454032 2.0760002 1.8420186e-38
0.26763326 -0.75616741 2.0760002 1.8420186e-38
0.30561575 -0.75283319 2.0704336 1.8420186e-38
0.33992922 -0.75210077 2.0657437 1.8420186e-38
0.3786712 -0.75126272 2.0664387 1.8420186e-38
0.42126358 -0.74916184 2.070199 1.8420186e-38
0.46142402 -0.74619818 2.0673492 1.8420186e-38
0.50190264 -0.74605113 2.0632575 1.8420186e-38
0.53894341 -0.74198961 2.0621359 1.8420186e-38
0.58052057 -0.73979902 2.0588808 1.8420186e-38
0.62059832 -0.73959643 2.0609114 1.8420186e-38
0.65888947 -0.73562092 2.0585358 1.8420186e-38
0.6977821 -0.73131442 2.0547862 1.8420186e-38
0.74288684 -0.7254951 2.0538375 1.8420186e-38
0.76600498 -0.72194111 2.0571253 1.8420186e-38
0.82886451 -0.7225163 2.0510004 1.8420186e-38
0.84188676 -0.72078001 2.0510001 1.8420186e-38
-0.76492542 -0.70749742 2.0510004 1.8420186e-38
-0.74132341 -0.6984753 2.062428 1.8420186e-38
-0.71770293 -0.68409151 2.0760002 1.8420186e-38
0.67784292 -0.71713811 2.0630002 1.8420186e-38
0.70332628 -0.71436995 2.0627301 1.8420186e-38
0.7418074 -0.71031404 2.065778 1.8420186e-38
0.77906144 -0.71069419 2.0594904 1.8420186e-38
0.82255787 -0.70770866 2.0624013 1.8420186e-38
0.85943073 -0.70002109 2.0613308 1.8420186e-38
0.89055693 -0.68410939 2.0582504 1.8420186e-38
0.94326061 -0.6877386 2.0683727 1.8420186e-38
0.97556216 -0.68505985 2.0626583 1.8420186e-38
1.0217688 -0.69072157 2.0604067 1.8420186e-38
1.0602648 -0.6978631 2.0712976 1.8420186e-38
1.0814973 -0.69595432 2.0760002 1.8420186e-38
-0.72935313 -0.66601974 2.0552251 1.8420186e-38
-0.70442373 -0.65376568 2.0724695 1.8420186e-38
-0.67816007 -0.65048009 2.0760002 1.8420186e-38
0.89923209 -0.67552435 2.0670531 1.8420186e-38
0.94318002 -0.67453587 2.0754349 1.8420186e-38
0.9809283 -0.67177689 2.0741262 1.8420186e-38
1.023349 -0.67294383 2.0718648 1.8420186e-38
1.0528868 -0.67234486 2.0760002 1.8420186e-38
-0.72078001 -0.62897336 2.0510001 1.8420186e-38
-0.69814783 -0.62038022 2.0575256 1.8420186e-38
-0.6748004 -0.61617225 2.07444 1.8420186e-38
-0.69106454 -0.58179808 2.0511975 1.8420186e-38
-0.66687328 -0.57869917 2.0680478 1.8420186e-38
-0.63387209 -0.57258052 2.0760002 1.8420186e-38
-0.68539715 -0.5506447 2.052412 1.8420186e-38
