# .PCD v0.7 - Point Cloud Data file format
VERSION 0.7
FIELDS x y z rgb
SIZE 4 4 4 4
TYPE F F F F
COUNT 1 1 1 1
WIDTH 1043
HEIGHT 1
VIEWPOINT 0 0 0 1 0 0 0
POINTS 1043
DATA ascii
0.45931479 0.22021037 2.4719989 2.255928e-38
0.48474404 0.23175202 2.4780004 2.255928e-38
0.749861 0.22375631 2.4767587 2.255928e-38
0.76647985 0.21481411 2.4709287 2.255928e-38
0.4310948 0.25731701 2.4494486 2.255928e-38
0.45993847 0.25970981 2.4626098 2.255928e-38
0.49672303 0.26444381 2.47756 2.255928e-38
0.52156007 0.27612001 2.4780002 2.255928e-38
0.71980006 0.27140003 2.4780002 2.255928e-38
0.73780602 0.25898811 2.4780002 2.255928e-38
0.43214491 0.29444909 2.4480002 2.255928e-38
0.45982435 0.29832381 2.4622631 2.255928e-38
0.49840114 0.29126382 2.4644279 2.255928e-38
0.52655768 0.29222354 2.4780004 2.255928e-38
0.45462388 0.32370764 2.4690003 2.255928e-38
0.066592067 -0.56744665 2.5069997 2.255928e-38
0.10221342 -0.57329023 2.5049996 2.255928e-38
0.13834378 -0.57007438 2.5057299 2.255928e-38
0.17934711 -0.56794989 2.5087745 2.255928e-38
0.22000898 -0.56839162 2.5071428 2.255928e-38
0.25866586 -0.57066202 2.5071428 2.255928e-38
0.29982725 -0.5704695 2.5044706 2.255928e-38
0.33935434 -0.57136995 2.5049996 2.255928e-38
0.38136593 -0.56551236 2.5046396 2.255928e-38
0.41853201 -0.56444311 2.5007367 2.255928e-38
0.46267197 -0.56691372 2.504667 2.255928e-38
0.49759766 -0.57133585 2.5047429 2.255928e-38
0.54023755 -0.56792372 2.5076997 2.255928e-38
0.57897484 -0.57649189 2.5053101 2.255928e-38
0.62100083 -0.57294846 2.5071602 2.255928e-38
0.65932405 -0.5718891 2.5059476 2.255928e-38
0.69980842 -0.57505286 2.5055001 2.255928e-38
0.73701131 -0.56994694 2.5057297 2.255928e-38
0.78127116 -0.57791519 2.5020001 2.255928e-38
0.82172316 -0.57653153 2.5050004 2.255928e-38
0.85875344 -0.56939626 2.5059311 2.255928e-38
0.90253347 -0.57789081 2.5052729 2.255928e-38
0.94058508 -0.58097541 2.5056922 2.255928e-38
0.96828681 -0.57178181 2.5025451 2.255928e-38
0.033874288 -0.53188568 2.4960001 2.255928e-38
0.054443531 -0.53954738 2.5074894 2.255928e-38
0.085396193 -0.52754104 2.5140004 2.255928e-38
0.13886857 -0.5578686 2.5140002 2.255928e-38
0.39026862 -0.55650043 2.5140004 2.255928e-38
0.42279464 -0.55597234 2.5111578 2.255928e-38
0.44533718 -0.5578686 2.5140002 2.255928e-38
0.53631997 -0.5578686 2.5140002 2.255928e-38
0.62251437 -0.55627245 2.5140002 2.255928e-38
0.95798856 -0.5205943 2.4960001 2.255928e-38
0.97471613 -0.53918684 2.500942 2.255928e-38
0.035657145 -0.51108575 2.4960001 2.255928e-38
0.062378861 -0.50719261 2.4996002 2.255928e-38
0.091303058 -0.49831229 2.5049996 2.255928e-38
0.95532006 -0.48125145 2.5140002 2.255928e-38
0.96889728 -0.50123918 2.5027506 2.255928e-38
0.076068573 -0.46354288 2.4960001 2.255928e-38
0.10230665 -0.46368295 2.5011432 2.255928e-38
0.12729619 -0.4497267 2.5140002 2.255928e-38
0.95063186 -0.4575811 2.5078537 2.255928e-38
0.96547341 -0.47599715 2.4990001 2.255928e-38
0.11383872 -0.42973462 2.4960001 2.255928e-38
0.13292585 -0.41868493 2.5062275 2.255928e-38
0.95212805 -0.42014498 2.5052726 2.255928e-38
0.96354222 -0.43440214 2.5027502 2.255928e-38
0.14303102 -0.38503215 2.5028574 2.255928e-38
0.16281144 -0.37271053 2.5140002 2.255928e-38
0.91299909 -0.37392902 2.5092633 2.255928e-38
0.93244094 -0.37956682 2.5023248 2.255928e-38
0.15537871 -0.34555018 2.4960003 2.255928e-38
0.17801334 -0.33600157 2.5056925 2.255928e-38
0.91265231 -0.34278256 2.513 2.255928e-38
0.93162191 -0.34055811 2.504118 2.255928e-38
0.1917363 -0.30183408 2.501333 2.255928e-38
0.20351431 -0.2873143 2.5140002 2.255928e-38
0.90996158 -0.29301611 2.5097647 2.255928e-38
0.92705184 -0.30591291 2.5039196 2.255928e-38
0.19349943 -0.27194515 2.4960001 2.255928e-38
0.21604975 -0.25317508 2.5060976 2.255928e-38
0.24341905 -0.24501526 2.5140004 2.255928e-38
0.878703 -0.2561886 2.5140004 2.255928e-38
0.9013626 -0.25787479 2.5032935 2.255928e-38
0.93091047 -0.24662286 2.5020001 2.255928e-38
0.22223678 -0.22651909 2.4965997 2.255928e-38
0.24634314 -0.21561989 2.508857 2.255928e-38
0.87567395 -0.21167478 2.5065002 2.255928e-38
0.89561653 -0.22654448 2.5025854 2.255928e-38
0.92793036 -0.23376799 2.4996002 2.255928e-38
0.23375237 -0.1862095 2.4960003 2.255928e-38
0.25740767 -0.17990491 2.5027127 2.255928e-38
0.28385592 -0.16573781 2.5140002 2.255928e-38
0.87200266 -0.17908585 2.5055001 2.255928e-38
0.88756573 -0.17323425 2.4959998 2.255928e-38
0.2712501 -0.14171529 2.4970584 2.255928e-38
0.28519484 -0.14115658 2.5122001 2.255928e-38
0.85443634 -0.14093605 2.5049996 2.255928e-38
0.88667428 -0.15926857 2.4960001 2.255928e-38
0.27622402 -0.11267658 2.4960001 2.255928e-38
0.29822415 -0.098699726 2.5076129 2.255928e-38
0.32322857 -0.083800003 2.5140002 2.255928e-38
0.83339274 -0.09557239 2.5090001 2.255928e-38
0.84465808 -0.099802651 2.5043075 2.255928e-38
0.31111264 -0.069563024 2.4981174 2.255928e-38
0.33407575 -0.055521809 2.5054741 2.255928e-38
0.82567269 -0.05475362 2.5129414 2.255928e-38
0.84306294 -0.072888575 2.5095 2.255928e-38
0.31140572 -0.01664 2.4960001 2.255928e-38
0.34385085 -0.024606669 2.5002 2.255928e-38
0.36770338 -0.0087776203 2.5125003 2.255928e-38
0.81740922 -0.0086194295 2.5140002 2.255928e-38
0.35657144 0.0071314285 2.4960001 2.255928e-38
0.37419859 0.019798575 2.508214 2.255928e-38
0.7925086 0.035914287 2.5140002 2.255928e-38
0.80824071 0.021815713 2.51175 2.255928e-38
0.38513967 0.05821462 2.5017602 2.255928e-38
0.4102478 0.067207798 2.5123637 2.255928e-38
0.78494495 0.063110486 2.5107276 2.255928e-38
0.80601305 0.051176067 2.502857 2.255928e-38
0.39032689 0.088905148 2.4960001 2.255928e-38
0.41909575 0.10158406 2.5072503 2.255928e-38
0.44533718 0.11253144 2.5140002 2.255928e-38
0.75801796 0.1094449 2.5062859 2.255928e-38
0.77364165 0.10055452 2.50752 2.255928e-38
0.80347431 0.11410286 2.4960001 2.255928e-38
0.43076628 0.13291 2.5034995 2.255928e-38
0.45313206 0.14545245 2.5069282 2.255928e-38
0.75545931 0.13012624 2.5009093 2.255928e-38
0.77288824 0.13818485 2.5000644 2.255928e-38
0.80204803 0.12693943 2.4960001 2.255928e-38
0.46617669 0.17757292 2.5018237 2.255928e-38
0.48730019 0.18889654 2.5140002 2.255928e-38
0.74861044 0.18402435 2.509263 2.255928e-38
0.76681852 0.18258336 2.5005002 2.255928e-38
0.47590399 0.20586057 2.4960001 2.255928e-38
0.49854192 0.21925525 2.5009503 2.255928e-38
0.52674294 0.23703431 2.5140002 2.255928e-38
0.74011594 0.22134466 2.5082927 2.255928e-38
0.50733495 0.25059804 2.4999125 2.255928e-38
0.53651857 0.25971007 2.5062277 2.255928e-38
0.71350664 0.26134232 2.508857 2.255928e-38
0.73294336 0.25401965 2.4973173 2.255928e-38
0.76517588 0.2485435 2.4960001 2.255928e-38
0.5496816 0.29584444 2.5073333 2.255928e-38
0.57529384 0.3050054 2.5140002 2.255928e-38
0.60971016 0.30778807 2.5123637 2.255928e-38
0.7123 0.28132859 2.5140002 2.255928e-38
0.72546864 0.28013146 2.5140002 2.255928e-38
0.47305143 0.32566857 2.4960001 2.255928e-38
0.073146671 -0.56347054 2.5320001 2.255928e-38
0.10128001 -0.56572115 2.5320003 2.255928e-38
0.13648687 -0.56282741 2.5320001 2.255928e-38
0.17844573 -0.56186289 2.5319998 2.255928e-38
0.21552143 -0.56457573 2.5320001 2.255928e-38
0.26311365 -0.56561399 2.5320003 2.255928e-38
0.29734772 -0.56371784 2.5319998 2.255928e-38
0.34074241 -0.5653491 2.5359583 2.255928e-38
0.37280688 -0.56282741 2.5320001 2.255928e-38
0.46781716 -0.56186289 2.5320001 2.255928e-38
0.5043596 -0.56371784 2.5319998 2.255928e-38
0.53906393 -0.56405509 2.5319998 2.255928e-38
0.58005822 -0.56624728 2.5320005 2.255928e-38
0.6095556 -0.56454223 2.5319998 2.255928e-38
0.66270447 -0.56317818 2.5319998 2.255928e-38
0.69893354 -0.56541651 2.5320003 2.255928e-38
0.74337769 -0.56273979 2.5319998 2.255928e-38
0.78130293 -0.56624728 2.5320005 2.255928e-38
0.82213634 -0.56547385 2.534924 2.255928e-38
0.85842186 -0.56374919 2.5332668 2.255928e-38
0.90090984 -0.56503952 2.5350406 2.255928e-38
0.9399249 -0.56752181 2.5358007 2.255928e-38
0.96650058 -0.56765026 2.5319998 2.255928e-38
0.072878718 -0.54846603 2.5320003 2.255928e-38
0.10262813 -0.54070956 2.5329332 2.255928e-38
0.14022152 -0.54018784 2.5427024 2.255928e-38
0.17937346 -0.54661953 2.5437801 2.255928e-38
0.21817856 -0.5461399 2.5409818 2.255928e-38
0.26099449 -0.54766798 2.5429151 2.255928e-38
0.29950827 -0.54676497 2.5424693 2.255928e-38
0.34117302 -0.54792523 2.5455122 2.255928e-38
0.37995765 -0.5464682 2.5424697 2.255928e-38
0.41989282 -0.54457945 2.5430465 2.255928e-38
0.46038759 -0.54668492 2.5447879 2.255928e-38
0.50153184 -0.5466159 2.5416865 2.255928e-38
0.53890312 -0.54502654 2.5418651 2.255928e-38
0.57806116 -0.55039459 2.545352 2.255928e-38
0.62020767 -0.54638976 2.5438752 2.255928e-38
0.66140491 -0.54537356 2.5456221 2.255928e-38
0.69888109 -0.5498662 2.5451193 2.255928e-38
0.73996997 -0.54731792 2.5427547 2.255928e-38
0.77897507 -0.5443815 2.5401895 2.255928e-38
0.8194502 -0.5477252 2.546 2.255928e-38
0.8574838 -0.55162936 2.5474377 2.255928e-38
0.90021449 -0.55194616 2.5482857 2.255928e-38
0.9460687 -0.54098904 2.5489273 2.255928e-38
0.96564907 -0.54559898 2.5348501 2.255928e-38
0.11103943 -0.50245345 2.5326555 2.255928e-38
0.14029287 -0.50086164 2.5496669 2.255928e-38
0.94460106 -0.50121468 2.5482049 2.255928e-38
0.96360683 -0.50109488 2.5319998 2.255928e-38
0.11430172 -0.47794515 2.5320001 2.255928e-38
0.14311777 -0.46353605 2.53808 2.255928e-38
0.16820881 -0.45374936 2.5510001 2.255928e-38
0.91431081 -0.45270133 2.5510004 2.255928e-38
0.93414927 -0.4601275 2.5404439 2.255928e-38
0.15058032 -0.42387554 2.5320003 2.255928e-38
0.17709927 -0.41949657 2.544436 2.255928e-38
0.91126579 -0.42030761 2.5509996 2.255928e-38
0.93347842 -0.42082286 2.5403476 2.255928e-38
0.17927364 -0.38131759 2.535454 2.255928e-38
0.21352817 -0.37117732 2.5509996 2.255928e-38
0.90086329 -0.37880078 2.5436113 2.255928e-38
0.92633319 -0.39099592 2.5320001 2.255928e-38
0.18632306 -0.35415849 2.5320001 2.255928e-38
0.21823367 -0.33982238 2.5425549 2.255928e-38
0.24403217 -0.33716395 2.5509999 2.255928e-38
0.87414265 -0.33138707 2.5510004 2.255928e-38
0.8972311 -0.33797401 2.5367486 2.255928e-38
0.92647088 -0.33615318 2.5320001 2.255928e-38
0.22054817 -0.30013713 2.5383332 2.255928e-38
0.25009802 -0.29754514 2.5510004 2.255928e-38
0.87334234 -0.29968891 2.5510001 2.255928e-38
0.89360934 -0.30237556 2.5378959 2.255928e-38
0.22930497 -0.26986074 2.5320005 2.255928e-38
0.26278505 -0.26075223 2.5419385 2.255928e-38
0.28425431 -0.26238859 2.5510004 2.255928e-38
0.83818573 -0.25315639 2.5510004 2.255928e-38
0.8601768 -0.25852224 2.5436704 2.255928e-38
0.88327879 -0.26640779 2.5351667 2.255928e-38
0.26673135 -0.22118205 2.5360713 2.255928e-38
0.29555339 -0.21470153 2.5482202 2.255928e-38
0.83202535 -0.21127246 2.5498126 2.255928e-38
0.86089367 -0.21910544 2.5428188 2.255928e-38
0.88223845 -0.23046367 2.5320001 2.255928e-38
0.93563432 -0.23149714 2.5320001 2.255928e-38
0.27731428 -0.19050285 2.5320001 2.255928e-38
0.30250987 -0.18112259 2.5430541 2.255928e-38
0.32798576 -0.1724962 2.5510001 2.255928e-38
0.82932025 -0.17867239 2.5456977 2.255928e-38
0.85499734 -0.17900066 2.5330355 2.255928e-38
0.30550128 -0.13902654 2.5333569 2.255928e-38
0.33880612 -0.14038141 2.5409055 2.255928e-38
0.36546981 -0.13431796 2.5510004 2.255928e-38
0.82902461 -0.14135765 2.5472929 2.255928e-38
0.8472774 -0.14441971 2.5346212 2.255928e-38
0.30956715 -0.11032287 2.5320001 2.255928e-38
0.3391647 -0.10131133 2.5367486 2.255928e-38
0.36645317 -0.10143264 2.5509996 2.255928e-38
0.79348254 -0.087948769 2.5510004 2.255928e-38
0.81954086 -0.10012613 2.5414991 2.255928e-38
0.84158868 -0.11333715 2.5320001 2.255928e-38
0.34802422 -0.066887826 2.5328641 2.255928e-38
0.37832627 -0.056907911 2.5481856 2.255928e-38
0.40573052 -0.050696068 2.5510004 2.255928e-38
0.79096717 -0.055393994 2.549273 2.255928e-38
0.81692356 -0.061992474 2.5340772 2.255928e-38
0.84550971 -0.054247878 2.5371819 2.255928e-38
0.35930285 -0.03376 2.5320001 2.255928e-38
0.38302854 -0.021535749 2.5348291 2.255928e-38
0.41478321 -0.017118413 2.5496747 2.255928e-38
0.78542882 -0.018096581 2.5494673 2.255928e-38
0.81332159 -0.023294976 2.5337667 2.255928e-38
0.39246005 0.017281901 2.5320005 2.255928e-38
0.42048752 0.019880392 2.5422783 2.255928e-38
0.44751832 0.032555621 2.5510004 2.255928e-38
0.75558192 0.036442861 2.5510001 2.255928e-38
0.78241074 0.019789848 2.5457211 2.255928e-38
0.80632138 0.016578572 2.5320001 2.255928e-38
0.39547428 0.040994287 2.5320001 2.255928e-38
0.42617241 0.055937689 2.5329041 2.255928e-38
0.46051115 0.060325213 2.5461824 2.255928e-38
0.48347527 0.060738098 2.5510004 2.255928e-38
0.75220442 0.067929149 2.5478334 2.255928e-38
0.7743181 0.056021348 2.5424824 2.255928e-38
0.8030057 0.060285717 2.5320001 2.255928e-38
0.43224859 0.088619992 2.5319998 2.255928e-38
0.46229351 0.099664025 2.5329993 2.255928e-38
0.49864587 0.10580494 2.5505588 2.255928e-38
0.52920747 0.11104354 2.5510001 2.255928e-38
0.74594569 0.1010145 2.5424919 2.255928e-38
0.77056104 0.094484158 2.5319998 2.255928e-38
0.46857506 0.13497111 2.5319998 2.255928e-38
0.50172818 0.14056015 2.5448928 2.255928e-38
0.53231484 0.14309275 2.5510006 2.255928e-38
0.74155337 0.14173925 2.5399847 2.255928e-38
0.76442289 0.14950858 2.5320001 2.255928e-38
0.47987428 0.16397715 2.5320001 2.255928e-38
0.50502884 0.1766016 2.5319993 2.255928e-38
0.54021585 0.17987347 2.5460744 2.255928e-38
0.56543124 0.18674938 2.5510004 2.255928e-38
0.71259809 0.18333562 2.5510006 2.255928e-38
0.73476231 0.17654517 2.5382237 2.255928e-38
0.76442289 0.16156571 2.5320001 2.255928e-38
0.51670337 0.21198651 2.5319998 2.255928e-38
0.5415349 0.21978369 2.5407455 2.255928e-38
0.57370245 0.22199737 2.5466466 2.255928e-38
0.6025219 0.23566382 2.5510001 2.255928e-38
0.67783713 0.23080477 2.5510001 2.255928e-38
0.70653927 0.22250946 2.5412979 2.255928e-38
0.73204076 0.21365261 2.5319998 2.255928e-38
0.51845711 0.24837716 2.5320001 2.255928e-38
0.54739439 0.25457796 2.5320001 2.255928e-38
0.57884747 0.26068681 2.5385511 2.255928e-38
0.61398709 0.2629019 2.5496185 2.255928e-38
0.67575473 0.26447102 2.5510004 2.255928e-38
0.69731307 0.25927445 2.5436707 2.255928e-38
0.55704004 0.31348574 2.5320001 2.255928e-38
0.58489096 0.29061088 2.5327041 2.255928e-38
0.61826563 0.29227653 2.5353246 2.255928e-38
0.66323519 0.29566208 2.5466816 2.255928e-38
0.69622827 0.29051149 2.5367503 2.255928e-38
0.7323122 0.2896806 2.5332668 2.255928e-38
0.15909526 -0.52623814 2.5700002 2.255928e-38
0.18225808 -0.52778882 2.5763333 2.255928e-38
0.2216946 -0.53298002 2.5790002 2.255928e-38
0.2619766 -0.53553945 2.5795002 2.255928e-38
0.2997393 -0.53111506 2.5805557 2.255928e-38
0.33901826 -0.53373504 2.5795004 2.255928e-38
0.38045272 -0.5291661 2.5744703 2.255928e-38
0.41900173 -0.53151321 2.5776 2.255928e-38
0.46125874 -0.52831036 2.5795 2.255928e-38
0.4970316 -0.5297721 2.5800276 2.255928e-38
0.54124969 -0.52649522 2.5801334 2.255928e-38
0.58040828 -0.53436971 2.5803628 2.255928e-38
0.62113953 -0.53121781 2.577862 2.255928e-38
0.65854144 -0.52544492 2.5759375 2.255928e-38
0.70020998 -0.5319317 2.5797563 2.255928e-38
0.73950112 -0.53249097 2.5813997 2.255928e-38
0.77721262 -0.5294826 2.5790479 2.255928e-38
0.82090259 -0.53357118 2.580179 2.255928e-38
0.86120254 -0.53244495 2.5783594 2.255928e-38
0.9001267 -0.53424221 2.5810001 2.255928e-38
0.93288732 -0.53782994 2.5718384 2.255928e-38
0.15746351 -0.50339365 2.5700002 2.255928e-38
0.17537919 -0.50047922 2.5802302 2.255928e-38
0.39130974 -0.51473325 2.5805559 2.255928e-38
0.40355527 -0.51369059 2.5890002 2.255928e-38
0.47095147 -0.51533437 2.5890002 2.255928e-38
0.48574576 -0.51533437 2.5890002 2.255928e-38
0.6583457 -0.51533437 2.5890005 2.255928e-38
0.87532866 -0.51533437 2.5890002 2.255928e-38
0.91366225 -0.49986067 2.5773549 2.255928e-38
0.92655987 -0.50149 2.5699999 2.255928e-38
0.18611622 -0.46184418 2.5795 2.255928e-38
0.21112679 -0.45122573 2.5890005 2.255928e-38
0.90815759 -0.45939043 2.578804 2.255928e-38
0.92275244 -0.47483814 2.5700002 2.255928e-38
0.19624436 -0.42651355 2.5721111 2.255928e-38
0.2152833 -0.41761014 2.5797431 2.255928e-38
0.2539686 -0.40487033 2.5890005 2.255928e-38
0.90444785 -0.41838583 2.5785172 2.255928e-38
0.22515136 -0.38712862 2.5769665 2.255928e-38
0.25260499 -0.37965992 2.5847094 2.255928e-38
0.876275 -0.3721675 2.5786366 2.255928e-38
0.88592261 -0.38270426 2.5791202 2.255928e-38
0.26386321 -0.33908364 2.5771246 2.255928e-38
0.28893691 -0.32973328 2.5890007 2.255928e-38
0.86845487 -0.33898684 2.579731 2.255928e-38
0.88603812 -0.35735244 2.5700002 2.255928e-38
0.26816109 -0.30516922 2.5699999 2.255928e-38
0.29290447 -0.30058318 2.5856464 2.255928e-38
0.8618117 -0.30030718 2.5773075 2.255928e-38
0.30387729 -0.25944537 2.5793054 2.255928e-38
0.33558968 -0.25329638 2.5870998 2.255928e-38
0.83769923 -0.25524279 2.5719001 2.255928e-38
0.84525335 -0.269384 2.5820913 2.255928e-38
0.31021935 -0.22907181 2.5723751 2.255928e-38
0.33925414 -0.22157541 2.5804195 2.255928e-38
0.36246005 -0.21451715 2.5890002 2.255928e-38
0.8315953 -0.21858953 2.5790002 2.255928e-38
0.84549224 -0.22951321 2.575429 2.255928e-38
0.34531772 -0.1834531 2.5731664 2.255928e-38
0.37406343 -0.17332524 2.5890005 2.255928e-38
0.40191147 -0.16027145 2.5890002 2.255928e-38
0.81591296 -0.18141128 2.5779164 2.255928e-38
0.38287252 -0.14246434 2.5782161 2.255928e-38
0.81581974 -0.13883111 2.5789995 2.255928e-38
0.38677505 -0.097538516 2.5748715 2.255928e-38
0.41387674 -0.094369888 2.5843935 2.255928e-38
0.78378767 -0.092105165 2.57988 2.255928e-38
0.80734855 -0.11077674 2.5784447 2.255928e-38
0.39126942 -0.074477568 2.5700002 2.255928e-38
0.42145619 -0.060045965 2.5748856 2.255928e-38
0.44917101 -0.046848577 2.5890007 2.255928e-38
0.75401556 -0.044876006 2.5890005 2.255928e-38
0.77726197 -0.059178349 2.5799124 2.255928e-38
0.43236467 -0.027787672 2.5699999 2.255928e-38
0.45948973 -0.019371103 2.5813999 2.255928e-38
0.48266357 -0.011712145 2.5890005 2.255928e-38
0.75464255 -0.020021949 2.5826671 2.255928e-38
0.76667076 -0.021285865 2.5745602 2.255928e-38
0.46144152 0.017886283 2.575659 2.255928e-38
0.49210519 0.027620206 2.5862858 2.255928e-38
0.52026576 0.036985718 2.5890002 2.255928e-38
0.75443739 0.024488032 2.5835719 2.255928e-38
0.76374418 0.013772381 2.5723751 2.255928e-38
0.50330192 0.05838383 2.5809245 2.255928e-38
0.52289581 0.06032782 2.5890005 2.255928e-38
0.74657208 0.05740286 2.5811758 2.255928e-38
0.76120961 0.046504766 2.5700002 2.255928e-38
0.50635654 0.088919349 2.575 2.255928e-38
0.53719848 0.096512958 2.5804827 2.255928e-38
0.71752292 0.11588858 2.5890002 2.255928e-38
0.73003376 0.10154708 2.5791724 2.255928e-38
0.55193883 0.13613668 2.5731668 2.255928e-38
0.57152003 0.14598858 2.5831034 2.255928e-38
0.71638691 0.14417616 2.584929 2.255928e-38
0.72509152 0.13675776 2.5769093 2.255928e-38
0.58459103 0.17770591 2.5797107 2.255928e-38
0.61874181 0.1911286 2.5883667 2.255928e-38
0.70390153 0.18251131 2.5791345 2.255928e-38
0.59390754 0.21495855 2.5699999 2.255928e-38
0.61901563 0.22220293 2.5834994 2.255928e-38
0.66943121 0.23225541 2.5861504 2.255928e-38
0.6931951 0.21590921 2.5755606 2.255928e-38
0.63182056 0.25118381 2.571357 2.255928e-38
0.66124088 0.25941503 2.5788672 2.255928e-38
0.68288571 0.24231431 2.5700002 2.255928e-38
0.6606819 0.29392108 2.5747499 2.255928e-38
0.22379425 -0.5275979 2.6090007 2.255928e-38
0.259114 -0.52795535 2.612078 2.255928e-38
0.29509124 -0.5251379 2.613286 2.255928e-38
0.33703041 -0.52590752 2.6132112 2.255928e-38
0.36774477 -0.52594131 2.6090002 2.255928e-38
0.42850852 -0.52654374 2.6090004 2.255928e-38
0.44849956 -0.52552712 2.6090002 2.255928e-38
0.51434577 -0.52552712 2.6090002 2.255928e-38
0.52925438 -0.52627259 2.6090002 2.255928e-38
0.59172845 -0.52641463 2.6090002 2.255928e-38
0.61870575 -0.52594137 2.6090007 2.255928e-38
0.64355338 -0.52428478 2.6090002 2.255928e-38
0.71177787 -0.52556348 2.6118574 2.255928e-38
0.74128741 -0.52594137 2.6090007 2.255928e-38
0.78486288 -0.52544487 2.6106672 2.255928e-38
0.82122016 -0.52620679 2.6103342 2.255928e-38
0.84730387 -0.52676958 2.6090002 2.255928e-38
0.90196866 -0.52428478 2.6090002 2.255928e-38
0.19220366 -0.49914482 2.6090007 2.255928e-38
0.21920478 -0.5022614 2.612174 2.255928e-38
0.25882596 -0.50240964 2.6267035 2.255928e-38
0.30079025 -0.51002908 2.6264999 2.255928e-38
0.34152174 -0.51122653 2.626838 2.255928e-38
0.37769353 -0.51080567 2.6206667 2.255928e-38
0.42170662 -0.50860327 2.6164424 2.255928e-38
0.45959347 -0.5103426 2.621381 2.255928e-38
0.50571215 -0.51141649 2.6210003 2.255928e-38
0.54036474 -0.50725919 2.6203725 2.255928e-38
0.5821442 -0.51127422 2.6207073 2.255928e-38
0.62107098 -0.50811046 2.6227257 2.255928e-38
0.66007996 -0.50437081 2.6197999 2.255928e-38
0.70005959 -0.50770962 2.6226001 2.255928e-38
0.74065965 -0.5094381 2.6230423 2.255928e-38
0.78298992 -0.50815743 2.6241841 2.255928e-38
0.81991237 -0.50428557 2.6227925 2.255928e-38
0.86161911 -0.50757748 2.6231813 2.255928e-38
0.89765739 -0.50065362 2.6146705 2.255928e-38
0.19381145 -0.47955909 2.6090002 2.255928e-38
0.22287737 -0.46580616 2.6090009 2.255928e-38
0.25917056 -0.46127126 2.6179996 2.255928e-38
0.28543431 -0.45444143 2.6289999 2.255928e-38
0.87429076 -0.45383474 2.6278892 2.255928e-38
0.89220196 -0.46256989 2.6134448 2.255928e-38
0.23232529 -0.42458373 2.6090007 2.255928e-38
0.25934923 -0.42174527 2.6099997 2.255928e-38
0.2904759 -0.4183203 2.6270645 2.255928e-38
0.87122339 -0.41953877 2.6245551 2.255928e-38
0.89401716 -0.42378998 2.6090012 2.255928e-38
0.27188531 -0.37938395 2.6090007 2.255928e-38
0.29681644 -0.37685329 2.6178889 2.255928e-38
0.33801427 -0.36960086 2.6290004 2.255928e-38
0.86445385 -0.37932897 2.6179647 2.255928e-38
0.88209051 -0.39259243 2.6090002 2.255928e-38
0.2758086 -0.35283622 2.6090002 2.255928e-38
0.30301464 -0.34244475 2.6109059 2.255928e-38
0.33898234 -0.3406482 2.6282976 2.255928e-38
0.36605698 -0.33500978 2.6290002 2.255928e-38
0.83376878 -0.33565781 2.6290002 2.255928e-38
0.85255122 -0.34012234 2.6173723 2.255928e-38
0.30988529 -0.30018291 2.6090009 2.255928e-38
0.33966359 -0.29986838 2.6168678 2.255928e-38
0.36998612 -0.29699028 2.6290004 2.255928e-38
0.82748109 -0.29682076 2.6246519 2.255928e-38
0.8475039 -0.30201018 2.6117594 2.255928e-38
0.34447837 -0.26812845 2.6090009 2.255928e-38
0.37834394 -0.26066038 2.6223328 2.255928e-38
0.40645179 -0.24954638 2.6290002 2.255928e-38
0.79661906 -0.25259763 2.6259229 2.255928e-38
0.82066315 -0.25907645 2.6154692 2.255928e-38
0.84233439 -0.25593051 2.6090002 2.255928e-38
0.35532099 -0.2161743 2.6090002 2.255928e-38
0.3825618 -0.21980084 2.6213078 2.255928e-38
0.41710526 -0.2125292 2.6289999 2.255928e-38
0.79450053 -0.21872334 2.6259236 2.255928e-38
0.81632495 -0.2207804 2.6122725 2.255928e-38
0.84233433 -0.23605241 2.6090002 2.255928e-38
0.38351348 -0.18509302 2.610213 2.255928e-38
0.41933882 -0.18008178 2.6177089 2.255928e-38
0.44484353 -0.16441683 2.6290002 2.255928e-38
0.78627855 -0.17809321 2.6201108 2.255928e-38
0.80733162 -0.1796591 2.6090009 2.255928e-38
0.41955423 -0.13946545 2.6124914 2.255928e-38
0.45652798 -0.13711339 2.6289995 2.255928e-38
0.48323527 -0.12268668 2.6290002 2.255928e-38
0.75754148 -0.13604032 2.6289999 2.255928e-38
0.77968395 -0.13950439 2.6156654 2.255928e-38
0.80683774 -0.1409215 2.6090009 2.255928e-38
0.42883575 -0.10513114 2.6090009 2.255928e-38
0.46147102 -0.099416494 2.6170697 2.255928e-38
0.49164099 -0.096038982 2.6290004 2.255928e-38
0.75225574 -0.092640974 2.6290004 2.255928e-38
0.77489883 -0.10271132 2.6176281 2.255928e-38
0.80257815 -0.11429906 2.6090002 2.255928e-38
0.43731815 -0.072058104 2.6090002 2.255928e-38
0.46436384 -0.062501326 2.6090007 2.255928e-38
0.49940306 -0.058138058 2.6232219 2.255928e-38
0.52496547 -0.044233974 2.6290002 2.255928e-38
0.74664271 -0.059654545 2.6220767 2.255928e-38
0.76779157 -0.067088574 2.6090007 2.255928e-38
0.47955909 -0.037271429 2.6090002 2.255928e-38
0.50379723 -0.020652685 2.6166 2.255928e-38
0.53489286 -0.01792201 2.6289997 2.255928e-38
0.71859342 -0.0025038098 2.6290002 2.255928e-38
0.73961347 -0.018805621 2.6152065 2.255928e-38
0.5064531 0.013154621 2.6090009 2.255928e-38
0.54124439 0.020042084 2.6215925 2.255928e-38
0.56536025 0.02553886 2.6289999 2.255928e-38
0.71304011 0.023106644 2.6253638 2.255928e-38
0.73835921 0.018154301 2.6106944 2.255928e-38
0.5193153 0.067088582 2.6090002 2.255928e-38
0.54472762 0.060086057 2.6090012 2.255928e-38
0.5801686 0.060997229 2.6271811 2.255928e-38
0.60660481 0.068513341 2.6289999 2.255928e-38
0.70983666 0.060645789 2.627974 2.255928e-38
0.73138601 0.058859192 2.6131866 2.255928e-38
0.5501973 0.088386551 2.6090007 2.255928e-38
0.58048183 0.09963908 2.6157856 2.255928e-38
0.60623491 0.099839419 2.6290002 2.255928e-38
0.70569575 0.1005976 2.6180911 2.255928e-38
0.72803521 0.091936201 2.6090007 2.255928e-38
0.58746874 0.13364469 2.6090009 2.255928e-38
0.6199978 0.141532 2.6257992 2.255928e-38
0.66040969 0.14665176 2.6289995 2.255928e-38
0.69917864 0.13896923 2.6159554 2.255928e-38
0.59882766 0.16150953 2.6090002 2.255928e-38
0.62264442 0.17152253 2.6101775 2.255928e-38
0.6617682 0.17902626 2.620034 2.255928e-38
0.6911515 0.17469074 2.6133251 2.255928e-38
0.6336143 0.2174167 2.6090007 2.255928e-38
0.66001022 0.21742696 2.6096897 2.255928e-38
0.68330956 0.20623526 2.6090002 2.255928e-38
0.65349245 0.25593048 2.6090002 2.255928e-38
0.27499145 -0.50709432 2.6490002 2.255928e-38
0.30037877 -0.49216023 2.6538658 2.255928e-38
0.33746001 -0.49476454 2.6598115 2.255928e-38
0.37912941 -0.49510184 2.658375 2.255928e-38
0.41924703 -0.49625263 2.6602001 2.255928e-38
0.46129838 -0.49273941 2.6558752 2.255928e-38
0.49891192 -0.49345359 2.6597416 2.255928e-38
0.53941727 -0.48683369 2.6584117 2.255928e-38
0.58052158 -0.49137241 2.6558008 2.255928e-38
0.62003374 -0.48855209 2.6580322 2.255928e-38
0.66058701 -0.48746765 2.6590009 2.255928e-38
0.70032018 -0.48866773 2.6586556 2.255928e-38
0.7421574 -0.49197391 2.6602499 2.255928e-38
0.77858359 -0.48849916 2.6562228 2.255928e-38
0.8191852 -0.484377 2.6575718 2.255928e-38
0.85945106 -0.48760131 2.657572 2.255928e-38
0.88047719 -0.48691148 2.6490002 2.255928e-38
0.30254266 -0.4591299 2.6590004 2.255928e-38
0.32917666 -0.44610432 2.6690001 2.255928e-38
0.50075531 -0.47533625 2.6690004 2.255928e-38
0.53295273 -0.47533625 2.6690001 2.255928e-38
0.67614669 -0.47533622 2.6690001 2.255928e-38
0.78036481 -0.47025239 2.6690001 2.255928e-38
0.82770234 -0.47592974 2.661 2.255928e-38
0.86507493 -0.46372747 2.6615713 2.255928e-38
0.88047719 -0.47177431 2.6490002 2.255928e-38
0.31007755 -0.42121506 2.6523342 2.255928e-38
0.33258295 -0.42006779 2.6679182 2.255928e-38
0.83501577 -0.40797573 2.6690001 2.255928e-38
0.85416514 -0.41849884 2.6597695 2.255928e-38
0.31535718 -0.39104289 2.6490002 2.255928e-38
0.34107789 -0.3906143 2.6582863 2.255928e-38
0.37381515 -0.37626019 2.6600347 2.255928e-38
0.82380074 -0.37608913 2.6592324 2.255928e-38
0.84776872 -0.3798064 2.6552505 2.255928e-38
0.34731337 -0.34058577 2.6490002 2.255928e-38
0.37885389 -0.33892474 2.6558192 2.255928e-38
0.40416288 -0.33044761 2.6690001 2.255928e-38
0.8211453 -0.34031084 2.6572614 2.255928e-38
0.84389579 -0.35067716 2.6490002 2.255928e-38
0.3886568 -0.30303425 2.6506011 2.255928e-38
0.41070929 -0.29459381 2.6655219 2.255928e-38
0.7941376 -0.28515372 2.6590002 2.255928e-38
0.81199998 -0.30044323 2.658334 2.255928e-38
0.42127582 -0.26064423 2.6588118 2.255928e-38
0.44935226 -0.24656476 2.6690004 2.255928e-38
0.79320431 -0.25976449 2.6615925 2.255928e-38
0.80731434 -0.27499145 2.6490002 2.255928e-38
0.42285284 -0.23287074 2.6490011 2.255928e-38
0.45351067 -0.21953088 2.6584122 2.255928e-38
0.78310132 -0.21821727 2.6611052 2.255928e-38
0.45929086 -0.18028347 2.6575718 2.255928e-38
0.49225843 -0.17357966 2.6671815 2.255928e-38
0.75494576 -0.16014001 2.6690001 2.255928e-38
0.77126914 -0.18051173 2.6590004 2.255928e-38
0.47051287 -0.15221238 2.6490002 2.255928e-38
0.49896055 -0.14071235 2.6604288 2.255928e-38
0.52109051 -0.13302636 2.6690001 2.255928e-38
0.75464326 -0.13949917 2.6594002 2.255928e-38
0.76222765 -0.1569981 2.6590002 2.255928e-38
0.50869554 -0.10508461 2.6516094 2.255928e-38
0.53368568 -0.097118236 2.6641517 2.255928e-38
0.56176102 -0.088966675 2.6690001 2.255928e-38
0.74556082 -0.10174584 2.6585243 2.255928e-38
0.51550382 -0.070640005 2.6490002 2.255928e-38
0.53867185 -0.061397776 2.6594765 2.255928e-38
0.58463818 -0.049990792 2.6689999 2.255928e-38
0.71935904 -0.050838098 2.6690001 2.255928e-38
0.73036289 -0.062288068 2.6595883 2.255928e-38
0.5523808 -0.026345175 2.6518579 2.255928e-38
0.57758695 -0.021249181 2.6662724 2.255928e-38
0.60751528 -0.0025419048 2.6690001 2.255928e-38
0.71417242 -0.01215634 2.6626844 2.255928e-38
0.72683853 -0.026489779 2.6553161 2.255928e-38
0.55755144 0.0025228572 2.6490002 2.255928e-38
0.58506089 0.018393582 2.6611054 2.255928e-38
0.61383152 0.024417689 2.6689994 2.255928e-38
0.64310193 0.033044763 2.6690001 2.255928e-38
0.70198268 0.018951314 2.6586974 2.255928e-38
0.5941329 0.044150002 2.6490002 2.255928e-38
0.62317127 0.058033176 2.6562231 2.255928e-38
0.64615214 0.069139816 2.6690004 2.255928e-38
0.69588518 0.062818304 2.6596673 2.255928e-38
0.62746114 0.10225613 2.6512234 2.255928e-38
0.66048837 0.10151152 2.6629291 2.255928e-38
0.68908596 0.099778049 2.6574855 2.255928e-38
0.63323724 0.12866573 2.6490002 2.255928e-38
0.66182983 0.12952168 2.6518576 2.255928e-38
0.68373334 0.12661906 2.6590002 2.255928e-38
0.31511429 -0.4842 2.6900001 2.255928e-38
0.34528786 -0.48590797 2.6900003 2.255928e-38
0.3798939 -0.48712793 2.6900001 2.255928e-38
0.41994351 -0.48803797 2.6909995 2.255928e-38
0.45704389 -0.48573714 2.6900003 2.255928e-38
0.4842 -0.4842 2.6900001 2.255928e-38
0.63279051 -0.4842 2.6900001 2.255928e-38
0.65328568 -0.4842 2.6900003 2.255928e-38
0.71092856 -0.4842 2.6900001 2.255928e-38
0.74039054 -0.48484048 2.6900003 2.255928e-38
0.76344764 -0.4842 2.6900001 2.255928e-38
0.80700004 -0.4842 2.6900001 2.255928e-38
0.31365034 -0.46956062 2.6900003 2.255928e-38
0.34043777 -0.4641974 2.690001 2.255928e-38
0.37901604 -0.46069524 2.6966825 2.255928e-38
0.41840175 -0.46272501 2.704109 2.255928e-38
0.46109843 -0.46622458 2.7003016 2.255928e-38
0.49990132 -0.4644475 2.7029998 2.255928e-38
0.54039663 -0.46467921 2.7007143 2.255928e-38
0.57757646 -0.46680948 2.7002859 2.255928e-38
0.61916971 -0.46802527 2.7009377 2.255928e-38
0.66139877 -0.46437562 2.7015502 2.255928e-38
0.69913101 -0.46486011 2.7005005 2.255928e-38
0.74127483 -0.46736223 2.7058566 2.255928e-38
0.77856708 -0.46446609 2.697737 2.255928e-38
0.82083201 -0.46104413 2.7028503 2.255928e-38
0.8522597 -0.45803705 2.6917033 2.255928e-38
0.35130119 -0.42591664 2.6899998 2.255928e-38
0.37832826 -0.41945404 2.6992397 2.255928e-38
0.40966225 -0.4156867 2.7109995 2.255928e-38
0.82306343 -0.41872591 2.6990519 2.255928e-38
0.84892213 -0.43296191 2.6900005 2.255928e-38
0.3922728 -0.38503918 2.6899998 2.255928e-38
0.41966909 -0.3784219 2.7053123 2.255928e-38
0.44451797 -0.37480652 2.7110002 2.255928e-38
0.79334897 -0.37489256 2.7087891 2.255928e-38
0.80984318 -0.38120657 2.696774 2.255928e-38
0.39709523 -0.34841904 2.6900001 2.255928e-38
0.42138317 -0.33940455 2.6931705 2.255928e-38
0.45899343 -0.33828038 2.7105789 2.255928e-38
0.48384896 -0.336164 2.7110002 2.255928e-38
0.78841645 -0.33681345 2.7062266 2.255928e-38
0.80846399 -0.33670747 2.6900001 2.255928e-38
0.42916644 -0.30258945 2.6899998 2.255928e-38
0.46143028 -0.30046037 2.7035882 2.255928e-38
0.49457827 -0.29405031 2.7109993 2.255928e-38
0.75649816 -0.28142765 2.7110002 2.255928e-38
0.77835846 -0.30102155 2.7028706 2.255928e-38
0.80586135 -0.30942118 2.6900003 2.255928e-38
0.46401688 -0.26244608 2.6910508 2.255928e-38
0.49929073 -0.25930136 2.7096295 2.255928e-38
0.52633989 -0.25339553 2.7110002 2.255928e-38
0.75248188 -0.25446108 2.7109997 2.255928e-38
0.77493447 -0.26084924 2.6964359 2.255928e-38
0.47537571 -0.22060846 2.6899998 2.255928e-38
0.49953803 -0.219568 2.6961768 2.255928e-38
0.53985292 -0.20983844 2.7109995 2.255928e-38
0.56156433 -0.20784335 2.7110002 2.255928e-38
0.74467313 -0.2174494 2.7047951 2.255928e-38
0.77002257 -0.22385216 2.6924708 2.255928e-38
0.47651428 -0.19214287 2.6900003 2.255928e-38
0.50632554 -0.18655327 2.6899996 2.255928e-38
0.53832555 -0.18054889 2.7029815 2.255928e-38
0.56643015 -0.17894585 2.7109995 2.255928e-38
0.7455073 -0.18014976 2.7058487 2.255928e-38
0.76540673 -0.18490924 2.6899998 2.255928e-38
0.54059994 -0.13828062 2.691788 2.255928e-38
0.57674992 -0.13755648 2.7089403 2.255928e-38
0.60726404 -0.12702973 2.7110002 2.255928e-38
0.71217173 -0.12858926 2.7079999 2.255928e-38
0.73598057 -0.13937229 2.6980503 2.255928e-38
0.54844475 -0.10858535 2.6900003 2.255928e-38
0.57845569 -0.10006564 2.6964288 2.255928e-38
0.61767101 -0.099204727 2.7109993 2.255928e-38
0.64392704 -0.092432193 2.7110002 2.255928e-38
0.71185654 -0.098169677 2.7042053 2.255928e-38
0.73040032 -0.1038297 2.6931109 2.255928e-38
0.55593336 -0.072587304 2.6900001 2.255928e-38
0.5771119 -0.065755561 2.690001 2.255928e-38
0.62056595 -0.059498526 2.7007232 2.255928e-38
0.65322196 -0.053822782 2.7109995 2.255928e-38
0.7060684 -0.058401801 2.7006907 2.255928e-38
0.72501904 -0.071733341 2.6900001 2.255928e-38
0.59033608 -0.015737418 2.6900003 2.255928e-38
0.62074924 -0.021580163 2.6928973 2.255928e-38
0.66293216 -0.019992381 2.7092197 2.255928e-38
0.69965804 -0.022887457 2.6979182 2.255928e-38
0.72501904 -0.028180953 2.6900001 2.255928e-38
0.59692383 0.017933333 2.6900001 2.255928e-38
0.62930638 0.016293716 2.6899996 2.255928e-38
0.6629492 0.01979045 2.6948202 2.255928e-38
0.69099152 0.019399425 2.6907499 2.255928e-38
0.66478819 0.059342101 2.6900008 2.255928e-38
0.68939644 0.057459865 2.6899996 2.255928e-38
0.66865718 0.090947613 2.6900001 2.255928e-38
0.43379322 -0.44681251 2.735625 2.255928e-38
0.4616842 -0.44816276 2.742626 2.255928e-38
0.50013691 -0.44808841 2.7435007 2.255928e-38
0.53672707 -0.44781467 2.739126 2.255928e-38
0.58200312 -0.44873914 2.7435007 2.255928e-38
0.61957872 -0.44916776 2.7387283 2.255928e-38
0.65586543 -0.44670731 2.7376673 2.255928e-38
0.70741266 -0.44761074 2.7362311 2.255928e-38
0.73570722 -0.45033845 2.742626 2.255928e-38
0.78759956 -0.44863385 2.7453535 2.255928e-38
0.80711925 -0.44593358 2.7382503 2.255928e-38
0.42593229 -0.4234083 2.735033 2.255928e-38
0.46010277 -0.42077363 2.7494702 2.255928e-38
0.50096571 -0.43610963 2.7539999 2.255928e-38
0.54005849 -0.43534026 2.7487507 2.255928e-38
0.58174974 -0.43801719 2.7540002 2.255928e-38
0.61578393 -0.43825036 2.751375 2.255928e-38
0.66589123 -0.43462837 2.7485225 2.255928e-38
0.6967864 -0.434809 2.7480009 2.255928e-38
0.7239086 -0.43801716 2.7540002 2.255928e-38
0.78829211 -0.41268983 2.7525003 2.255928e-38
0.80773109 -0.4242942 2.737376 2.255928e-38
0.43988287 -0.39823717 2.733 2.255928e-38
0.46557292 -0.38086936 2.7375414 2.255928e-38
0.48981667 -0.37550139 2.7502947 2.255928e-38
0.7830745 -0.38373759 2.7460544 2.255928e-38
0.80428284 -0.39823717 2.733 2.255928e-38
0.47111714 -0.35659143 2.7330003 2.255928e-38
0.50218111 -0.33804366 2.7357399 2.255928e-38
0.53121483 -0.33574814 2.7487507 2.255928e-38
0.75538296 -0.3278572 2.7540002 2.255928e-38
0.77635443 -0.34241682 2.7460351 2.255928e-38
0.51090372 -0.30825269 2.7330005 2.255928e-38
0.53972787 -0.29825228 2.7442005 2.255928e-38
0.56541312 -0.29113716 2.7540002 2.255928e-38
0.74592334 -0.29352978 2.7471895 2.255928e-38
0.76284194 -0.30532759 2.74 2.255928e-38
0.51666719 -0.2746014 2.733 2.255928e-38
0.54138666 -0.2596938 2.7343414 2.255928e-38
0.57104135 -0.25747159 2.7529507 2.255928e-38
0.71604002 -0.24392572 2.7540002 2.255928e-38
0.73765755 -0.2605522 2.7425094 2.255928e-38
0.5425244 -0.22920114 2.7337248 2.255928e-38
0.5787738 -0.21947315 2.7456007 2.255928e-38
0.60325718 -0.20982859 2.7540002 2.255928e-38
0.73018253 -0.22030273 2.7460351 2.255928e-38
0.58859783 -0.17969589 2.7382507 2.255928e-38
0.61262995 -0.17859657 2.7514548 2.255928e-38
0.71266782 -0.17910369 2.7540004 2.255928e-38
0.72751975 -0.18090755 2.7424846 2.255928e-38
0.58998096 -0.15530381 2.7330003 2.255928e-38
0.6221692 -0.14346153 2.7406368 2.255928e-38
0.66225147 -0.13469268 2.7501314 2.255928e-38
0.70076603 -0.14101231 2.7490585 2.255928e-38
0.72307372 -0.15460972 2.733 2.255928e-38
0.63596481 -0.09283524 2.7330003 2.255928e-38
0.66337842 -0.099661574 2.7417507 2.255928e-38
0.6952318 -0.10014033 2.7444131 2.255928e-38
0.67044991 -0.065312505 2.733876 2.255928e-38
0.69128817 -0.066908747 2.7330005 2.255928e-38
0.67934567 -0.039042857 2.733 2.255928e-38
0.57920289 -0.44167528 2.7770002 2.255928e-38
0.64267719 -0.44167528 2.7770002 2.255928e-38
0.75045127 -0.4436588 2.7770002 2.255928e-38
0.77740449 -0.44603133 2.7770002 2.255928e-38
0.4765861 -0.42686459 2.7770002 2.255928e-38
0.50137138 -0.41976154 2.7770002 2.255928e-38
0.53985155 -0.41759345 2.7870841 2.255928e-38
0.57964969 -0.42032945 2.7893999 2.255928e-38
0.61943996 -0.42440468 2.7899146 2.255928e-38
0.6608389 -0.4250057 2.789223 2.255928e-38
0.70283115 -0.41863629 2.7908294 2.255928e-38
0.74123019 -0.41990146 2.7855153 2.255928e-38
0.77888238 -0.42507195 2.7770002 2.255928e-38
0.80136287 -0.43109623 2.7770002 2.255928e-38
0.50820124 -0.38552496 2.7770002 2.255928e-38
0.53881556 -0.38073936 2.7895103 2.255928e-38
0.57362837 -0.37769842 2.799001 2.255928e-38
0.70932233 -0.38846722 2.799 2.255928e-38
0.74240917 -0.38109764 2.7873118 2.255928e-38
0.77236849 -0.37702554 2.7770002 2.255928e-38
0.55103695 -0.34271511 2.7781584 2.255928e-38
0.58171237 -0.34131926 2.7941523 2.255928e-38
0.61133713 -0.33439901 2.799 2.255928e-38
0.71411532 -0.33025241 2.799 2.255928e-38
0.73968428 -0.339993 2.7863324 2.255928e-38
0.76962578 -0.3507916 2.7770004 2.255928e-38
0.55804479 -0.31208193 2.7770002 2.255928e-38
0.58369642 -0.30090368 2.7799735 2.255928e-38
0.61668891 -0.29916507 2.7972176 2.255928e-38
0.66909426 -0.29456142 2.799 2.255928e-38
0.70704961 -0.29718226 2.7969384 2.255928e-38
0.73207462 -0.3041797 2.7814004 2.255928e-38
0.58930111 -0.26303354 2.7770004 2.255928e-38
0.61990088 -0.26039189 2.7961488 2.255928e-38
0.66166258 -0.25243515 2.7990012 2.255928e-38
0.70274401 -0.25947097 2.7905667 2.255928e-38
0.72394359 -0.2594271 2.7770004 2.255928e-38
0.59507143 -0.22744954 2.7770002 2.255928e-38
0.61926794 -0.21978369 2.7802091 2.255928e-38
0.66162652 -0.22184633 2.7973089 2.255928e-38
0.70134217 -0.22052172 2.7895713 2.255928e-38
0.72422409 -0.22171925 2.7770002 2.255928e-38
0.63134253 -0.1896672 2.7770002 2.255928e-38
0.66136652 -0.17988509 2.7857234 2.255928e-38
0.6973961 -0.18162693 2.7819808 2.255928e-38
0.66307962 -0.15264055 2.7770002 2.255928e-38
0.69028294 -0.15604097 2.7770002 2.255928e-38
0.59127617 -0.40314284 2.8220003 2.255928e-38
0.62147242 -0.40519807 2.8219998 2.255928e-38
0.65631658 -0.41335589 2.822 2.255928e-38
0.69931853 -0.40475553 2.822 2.255928e-38
0.72700095 -0.4058305 2.822 2.255928e-38
0.59357995 -0.38663322 2.822 2.255928e-38
0.6233862 -0.37527651 2.8219995 2.255928e-38
0.70458972 -0.37704694 2.8219993 2.255928e-38
0.72476125 -0.37089142 2.8220003 2.255928e-38
0.6281504 -0.3451978 2.8219995 2.255928e-38
0.64464462 -0.3344166 2.8220003 2.255928e-38
0.70727384 -0.34412277 2.8219995 2.255928e-38
0.72565711 -0.35476571 2.822 2.255928e-38
0.63517398 -0.31265968 2.8220003 2.255928e-38
0.65585166 -0.29890692 2.8219993 2.255928e-38
0.69716835 -0.30558228 2.8219995 2.255928e-38
0.66179425 -0.26965779 2.8219995 2.255928e-38
0.68749297 -0.27252457 2.8220003 2.255928e-38
0.67459238 -0.21769714 2.822 2.255928e-38
0.66383338 -0.40778333 2.8449998 2.255928e-38
0.68225813 -0.40805432 2.845 2.255928e-38
0.62283701 -0.3865194 2.8450003 2.255928e-38
0.65958929 -0.38025129 2.845942 2.255928e-38
0.68834907 -0.37876573 2.8480971 2.255928e-38
0.66288835 -0.33959034 2.8475718 2.255928e-38
0.69203609 -0.34061128 2.8564007 2.255928e-38
0.66925246 -0.30677831 2.8449998 2.255928e-38
0.68634319 -0.29783922 2.8449998 2.255928e-38
-0.089432567 0.10260097 0.46911475 8.9055937e-39
-0.070618309 0.10085607 0.47181267 8.9055937e-39
-0.084395245 0.12100454 0.47900006 8.9055937e-39
-0.098232046 0.11751474 0.48268256 8.9055937e-39
-0.053786322 0.10835848 0.49072939 8.9055937e-39
-0.037535839 0.11686023 0.51715791 8.9055937e-39
-0.091489114 0.13983276 0.49524513 8.9055937e-39
-0.060438212 0.13892935 0.49997839 8.9055937e-39
-0.039118987 0.12720014 0.51733339 8.9055937e-39
-0.26906964 0.1975168 0.51291323 8.9055937e-39
-0.088751845 0.16902667 0.51339287 8.9055937e-39
-0.065325089 0.1700104 0.51315916 8.9055937e-39
-0.26877582 0.20234841 0.51593339 8.9055937e-39
-0.29890248 0.1385583 0.53933513 8.9055937e-39
-0.041637894 0.14920224 0.52153575 8.9055937e-39
-0.035064302 0.14555439 0.53325397 8.9055937e-39
-0.32054132 0.18211228 0.527125 8.9055937e-39
-0.29817006 0.18548793 0.53507894 8.9055937e-39
-0.26655447 0.19288902 0.54950142 8.9055937e-39
-0.092482977 0.18338472 0.52604061 8.9055937e-39
-0.055120215 0.1852908 0.52824444 8.9055937e-39
-0.032799497 0.17901656 0.54627866 8.9055937e-39
-0.3229875 0.20940752 0.54179317 8.9055937e-39
-0.29373935 0.2067059 0.53581113 8.9055937e-39
-0.27011657 0.21067326 0.53677046 8.9055937e-39
-0.086470246 0.20900019 0.54410923 8.9055937e-39
-0.060306933 0.21225776 0.54599988 8.9055937e-39
-0.035611354 0.20676674 0.55506986 8.9055937e-39
-0.2475576 0.19530101 0.56285924 8.9055937e-39
-0.23390456 0.19818281 0.57101375 8.9055937e-39
-0.021148004 0.18753909 0.56876427 8.9055937e-39
-0.28343433 0.23325431 0.57900006 8.9055937e-39
-0.2508637 0.21929951 0.56881285 8.9055937e-39
-0.22385319 0.22194526 0.58217281 8.9055937e-39
-0.1990962 0.23560667 0.59900004 8.9055937e-39
-0.054298792 0.23196054 0.56612027 8.9055937e-39
-0.024995696 0.22033924 0.5798046 8.9055937e-39
-0.23190139 0.2413965 0.58152008 8.9055937e-39
-0.052180726 0.24753442 0.58245695 8.9055937e-39
-0.031315796 0.24695691 0.59312063 8.9055937e-39
-0.0064988462 0.19750777 0.63701755 8.9055937e-39
0.007837953 0.197109 0.63693249 8.9055937e-39
-0.20215388 0.23784618 0.59999996 8.9055937e-39
-0.19942857 0.23771429 0.60000002 8.9055937e-39
-0.007031586 0.22000149 0.62080836 8.9055937e-39
0.016962139 0.22081116 0.63083166 8.9055937e-39
-0.050544806 0.26277408 0.60244459 8.9055937e-39
-0.016190726 0.26081747 0.61586565 8.9055937e-39
0.014946198 0.25341442 0.63012773 8.9055937e-39
0.19696754 0.27519867 0.63631266 8.9055937e-39
0.22202533 0.26587409 0.62926441 8.9055937e-39
0.25820917 0.26464471 0.62972051 8.9055937e-39
0.28439063 0.2713564 0.63731724 8.9055937e-39
-0.014949999 0.28144825 0.63162506 8.9055937e-39
0.1946369 0.28265747 0.63528889 8.9055937e-39
0.20618449 0.28131896 0.62887108 8.9055937e-39
0.27139851 0.28137293 0.62893748 8.9055937e-39
0.28736743 0.28335357 0.63665122 8.9055937e-39
0.02377451 0.15972665 0.67899996 8.9055937e-39
0.045751665 0.159565 0.67899996 8.9055937e-39
-0.0093721012 0.17740567 0.65543085 8.9055937e-39
0.020424716 0.17865078 0.65557039 8.9055937e-39
0.058533419 0.18106724 0.66522652 8.9055937e-39
0.086822934 0.18937223 0.67578298 8.9055937e-39
0.035564266 0.21184024 0.64130282 8.9055937e-39
0.059604887 0.21951236 0.65422785 8.9055937e-39
0.088616356 0.21770328 0.67323524 8.9055937e-39
0.19788459 0.23849365 0.67681253 8.9055937e-39
0.22381341 0.23479319 0.66927373 8.9055937e-39
0.25817615 0.23316044 0.6670453 8.9055937e-39
0.28801316 0.23568009 0.67237777 8.9055937e-39
0.028140571 0.26729211 0.64604867 8.9055937e-39
0.057742301 0.25647157 0.6608144 8.9055937e-39
0.084089108 0.24741659 0.67649144 8.9055937e-39
0.15775269 0.27771094 0.67632002 8.9055937e-39
0.18367493 0.26336631 0.66133738 8.9055937e-39
0.21546303 0.24842256 0.6510275 8.9055937e-39
0.2616415 0.24589504 0.64722079 8.9055937e-39
0.29956406 0.25848109 0.65685546 8.9055937e-39
0.32666206 0.26982054 0.67307872 8.9055937e-39
0.014422382 0.28076449 0.64683336 8.9055937e-39
0.055728577 0.28191581 0.67527276 8.9055937e-39
0.1527843 0.29220271 0.67356271 8.9055937e-39
0.17299652 0.28607154 0.65458411 8.9055937e-39
0.30746087 0.28628168 0.6501258 8.9055937e-39
0.32918048 0.29063326 0.66793013 8.9055937e-39
-0.00064761908 0.15996191 0.68000001 8.9055937e-39
0.027550768 0.15393165 0.69300008 8.9055937e-39
0.060378302 0.14985734 0.69740027 8.9055937e-39
0.097661868 0.15114667 0.70685685 8.9055937e-39
0.12786378 0.15675922 0.71620595 8.9055937e-39
0.009573143 0.16145962 0.68860006 8.9055937e-39
0.071101323 0.16313283 0.68217486 8.9055937e-39
0.10283793 0.17726211 0.68984282 8.9055937e-39
0.1339006 0.17957346 0.70823234 8.9055937e-39
0.18152714 0.18601269 0.71356142 8.9055937e-39
0.21724187 0.18870705 0.71237481 8.9055937e-39
0.25280288 0.1954837 0.71495163 8.9055937e-39
0.10819045 0.22027738 0.68761569 8.9055937e-39
0.14178135 0.22097139 0.7088179 8.9055937e-39
0.1799387 0.22060651 0.69864303 8.9055937e-39
0.21915568 0.21582954 0.6932261 8.9055937e-39
0.26027322 0.21420749 0.696576 8.9055937e-39
0.2980732 0.22336763 0.70041096 8.9055937e-39
0.3268019 0.23412079 0.71232539 8.9055937e-39
0.072931148 0.27341038 0.68438363 8.9055937e-39
0.098969243 0.25679442 0.69411248 8.9055937e-39
0.14487919 0.26187634 0.70308423 8.9055937e-39
0.17072661 0.25103813 0.68704695 8.9055937e-39
0.31452337 0.24397069 0.68441814 8.9055937e-39
0.33696985 0.25684658 0.69851822 8.9055937e-39
0.066856012 0.28123617 0.68481475 8.9055937e-39
0.11462212 0.30532342 0.71300489 8.9055937e-39
0.13346285 0.29307589 0.6961537 8.9055937e-39
0.33961636 0.28413862 0.68071431 8.9055937e-39
0.10584286 0.32026002 0.71700001 8.9055937e-39
0.11275163 0.11865772 0.75479329 8.9055937e-39
0.14158429 0.11770023 0.75461924 8.9055937e-39
0.17153968 0.11769423 0.75683653 8.9055937e-39
0.032669466 0.14723292 0.72793746 8.9055937e-39
0.06428773 0.1357286 0.73583728 8.9055937e-39
0.10111134 0.13208839 0.73678738 8.9055937e-39
0.14056268 0.13866167 0.73392659 8.9055937e-39
0.1796809 0.14040294 0.73855031 8.9055937e-39
0.21652855 0.14645872 0.74428457 8.9055937e-39
0.24728785 0.15546596 0.75326377 8.9055937e-39
0.15438665 0.1792832 0.72118765 8.9055937e-39
0.17646703 0.16760652 0.72172958 8.9055937e-39
0.22302938 0.17025794 0.72683483 8.9055937e-39
0.26036733 0.17806742 0.73561502 8.9055937e-39
0.29564518 0.18985228 0.74529785 8.9055937e-39
0.32505125 0.19759966 0.7565186 8.9055937e-39
0.14642626 0.21798332 0.72064298 8.9055937e-39
0.2784 0.20091429 0.72000003 8.9055937e-39
0.30536237 0.2074212 0.72898048 8.9055937e-39
0.33913651 0.22099118 0.74030316 8.9055937e-39
0.36899921 0.23278229 0.75256521 8.9055937e-39
0.11688823 0.2753109 0.72902143 8.9055937e-39
0.12867685 0.2606709 0.72383243 8.9055937e-39
0.35297057 0.25092721 0.72533005 8.9055937e-39
0.3667126 0.25195554 0.73928034 8.9055937e-39
0.10246951 0.30192658 0.73472989 8.9055937e-39
0.12042619 0.28168049 0.72050005 8.9055937e-39
0.092061095 0.32637763 0.74292797 8.9055937e-39
0.39368352 0.03088961 0.79707581 8.9055937e-39
0.38571632 0.06174127 0.79369664 8.9055937e-39
0.10675266 0.11531948 0.76829273 8.9055937e-39
0.14159332 0.10941438 0.77381885 8.9055937e-39
0.18066728 0.10849502 0.77619368 8.9055937e-39
0.20993388 0.11267767 0.78096169 8.9055937e-39
0.38368219 0.098269813 0.79201514 8.9055937e-39
0.072863162 0.12644933 0.76207697 8.9055937e-39
0.086843885 0.12172566 0.76184613 8.9055937e-39
0.19404548 0.12091596 0.76025009 8.9055937e-39
0.22426392 0.12982902 0.76858056 8.9055937e-39
0.26009995 0.14851569 0.77711368 8.9055937e-39
0.29042166 0.15600106 0.79312664 8.9055937e-39
0.39314789 0.12618789 0.79622865 8.9055937e-39
0.27363113 0.16256431 0.76472986 8.9055937e-39
0.30354041 0.17232811 0.77596539 8.9055937e-39
0.33683959 0.18626264 0.78202248 8.9055937e-39
0.36695975 0.19727546 0.79560733 8.9055937e-39
0.35030335 0.20627871 0.76673555 8.9055937e-39
0.37756231 0.21559983 0.77931339 8.9055937e-39
0.40026906 0.21418524 0.79750001 8.9055937e-39
0.079794928 0.31698477 0.76866668 8.9055937e-39
0.083989292 0.31599659 0.76525009 8.9055937e-39
0.0782746 0.34030047 0.77299994 8.9055937e-39
0.082533747 0.33003852 0.7652967 8.9055937e-39
0.4194493 -0.082453579 0.83850002 8.9055937e-39
0.39467269 -0.050899409 0.83495283 8.9055937e-39
0.40908673 -0.05737967 0.83085644 8.9055937e-39
0.38676569 -0.016486973 0.82649761 8.9055937e-39
0.40397072 -0.024409197 0.81691098 8.9055937e-39
