# .PCD v0.7 - Point Cloud Data file format
VERSION 0.7
FIELDS x y z rgb
SIZE 4 4 4 4
TYPE F F F F
COUNT 1 1 1 1
WIDTH 1050
HEIGHT 1
VIEWPOINT 0 0 0 1 0 0 0
POINTS 1050
DATA ascii
-0.60116774 -0.22350243 1.719841 2.255928e-38
-0.48271611 -0.17138128 1.738839 2.255928e-38
-0.81774026 -0.74303061 1.9802021 2.255928e-38
-0.77892733 -0.77837741 2.0120587 2.255928e-38
-0.73869443 -0.77929991 2.0241697 2.255928e-38
-0.70895064 -0.78771561 2.0341115 2.255928e-38
-0.65895307 -0.79747552 2.039 2.255928e-38
-0.63700664 -0.79770476 2.033 2.255928e-38
-0.58185047 -0.79489094 2.0296669 2.255928e-38
-0.53291416 -0.79645842 2.039 2.255928e-38
-0.49421477 -0.79812282 2.039 2.255928e-38
-0.40926418 -0.79795563 2.0366001 2.255928e-38
-0.37260064 -0.79414994 2.0376668 2.255928e-38
-0.35314927 -0.79701322 2.039 2.255928e-38
-0.20001619 -0.79812282 2.039 2.255928e-38
-0.19224858 -0.79812282 2.039 2.255928e-38
-0.13593334 -0.79812282 2.039 2.255928e-38
-0.012570477 -0.79476559 2.0168462 2.255928e-38
0.01896774 -0.79483587 2.0164998 2.255928e-38
0.061361544 -0.79279178 2.022579 2.255928e-38
0.08544381 -0.79812282 2.039 2.255928e-38
0.18905573 -0.79742837 2.036 2.255928e-38
0.25438952 -0.79812282 2.039 2.255928e-38
0.49130189 -0.79812282 2.039 2.255928e-38
0.74409539 -0.79524344 2.0316668 2.255928e-38
0.77621496 -0.79309094 2.0270002 2.255928e-38
0.75810957 -0.77853435 2.0152566 2.255928e-38
0.85881644 -0.79334009 2.0338573 2.255928e-38
0.90131748 -0.78774929 2.0236669 2.255928e-38
0.93946749 -0.79440659 2.0328465 2.255928e-38
0.96633887 -0.79500657 2.0371537 2.255928e-38
-0.77210253 -0.74606448 2.0062718 2.255928e-38
-0.73819607 -0.7410565 2.0170825 2.255928e-38
-0.71072459 -0.73547477 2.0344124 2.255928e-38
-0.76113999 -0.70391142 2.003 2.255928e-38
-0.73562694 -0.70204985 2.0106854 2.255928e-38
-0.70635265 -0.69830966 2.0263021 2.255928e-38
-0.67772478 -0.6854924 2.039 2.255928e-38
-0.72547561 -0.67013508 2.0038574 2.255928e-38
-0.69794095 -0.66134453 2.0124381 2.255928e-38
-0.66839224 -0.65105516 2.0319233 2.255928e-38
-0.69279665 -0.62571472 2.0042799 2.255928e-38
-0.66144782 -0.61923271 2.0226355 2.255928e-38
-0.63718849 -0.60832661 2.0356667 2.255928e-38
-0.68275422 -0.58841377 2.0030003 2.255928e-38
-0.65878743 -0.58083761 2.0106361 2.255928e-38
-0.63070691 -0.57559884 2.0329108 2.255928e-38
-0.65316224 -0.54248035 2.0048947 2.255928e-38
-0.62310553 -0.5373643 2.0229611 2.255928e-38
-0.59422284 -0.52431428 2.039 2.255928e-38
-0.64706433 -0.51238644 2.003 2.255928e-38
-0.61819214 -0.49988872 2.0099473 2.255928e-38
-0.58876783 -0.49750456 2.0289676 2.255928e-38
-0.61352921 -0.46017155 2.0034502 2.255928e-38
-0.58185327 -0.46081406 2.0139999 2.255928e-38
-0.60942763 -0.43654525 2.006 2.255928e-38
-0.58843523 -0.43749905 2.006 2.255928e-38
-0.086608961 0.25943848 2.0389998 2.255928e-38
-0.079618096 0.26215714 2.039 2.255928e-38
-0.084957145 0.30955318 2.0365999 2.255928e-38
-0.070171937 0.30946088 2.0368829 2.255928e-38
-0.083010487 0.32238954 2.0270002 2.255928e-38
-0.060573947 0.34030324 2.0244203 2.255928e-38
-0.035439767 0.35245571 2.0389998 2.255928e-38
-0.057506673 0.37951082 2.0075271 2.255928e-38
-0.024822379 0.3839165 2.03053 2.255928e-38
0.0058257142 0.39809048 2.039 2.255928e-38
-0.053239916 0.40632287 2.0029995 2.255928e-38
-0.020631371 0.4122884 2.0270004 2.255928e-38
0.0077676186 0.40877095 2.0390003 2.255928e-38
-0.6995104 -0.80325419 2.0510004 2.255928e-38
-0.66608667 -0.80282003 2.0510001 2.255928e-38
-0.61946714 -0.8043828 2.0510006 2.255928e-38
-0.56939662 -0.80542457 2.0510006 2.255928e-38
-0.54498011 -0.80530614 2.0510006 2.255928e-38
-0.4992162 -0.80533147 2.0510006 2.255928e-38
-0.45979059 -0.80621511 2.0523844 2.255928e-38
-0.42722458 -0.80619073 2.0522633 2.255928e-38
-0.38827929 -0.80759472 2.0510004 2.255928e-38
-0.32983434 -0.80616868 2.0510006 2.255928e-38
-0.30185491 -0.80619603 2.0514283 2.255928e-38
-0.26246637 -0.80487627 2.0510001 2.255928e-38
-0.22048251 -0.80501759 2.0510004 2.255928e-38
-0.17234871 -0.80528635 2.0573475 2.255928e-38
-0.14728135 -0.80477333 2.0510004 2.255928e-38
-0.10028949 -0.80563068 2.0541999 2.255928e-38
-0.058622282 -0.80461645 2.0516002 2.255928e-38
-0.033813573 -0.80525875 2.0585003 2.255928e-38
0.038259286 -0.78723985 2.0318158 2.255928e-38
0.10837566 -0.78758949 2.0405278 2.255928e-38
0.16776964 -0.80499035 2.0510004 2.255928e-38
-0.019771285 -0.68376827 1.9802682 2.255928e-38
0.09722434 -0.78293049 2.0178144 2.255928e-38
0.23744352 -0.74560124 2.0257325 2.255928e-38
0.15423369 -0.64110047 1.9892998 2.255928e-38
0.13587283 -0.72046942 1.994815 2.255928e-38
0.15808202 -0.73205012 1.9933542 2.255928e-38
0.20725158 -0.67484331 1.9874868 2.255928e-38
0.49956214 -0.8044849 2.0548184 2.255928e-38
0.40976009 -0.76799667 2.030297 2.255928e-38
0.579539 -0.80342114 2.0510006 2.255928e-38
0.14084604 -0.57622588 1.8965648 2.255928e-38
0.65610296 -0.80520749 2.0510001 2.255928e-38
0.60039324 -0.79926336 2.0453432 2.255928e-38
0.72765261 -0.80438107 2.0525002 2.255928e-38
0.88876671 -0.80282003 2.0510001 2.255928e-38
0.99157715 -0.80573112 2.0520914 2.255928e-38
-0.72208232 -0.78589118 2.0510001 2.255928e-38
-0.69772255 -0.78001702 2.0606043 2.255928e-38
-0.66243154 -0.78711021 2.0645077 2.255928e-38
-0.62033695 -0.78951478 2.0640409 2.255928e-38
-0.57919168 -0.78677136 2.060792 2.255928e-38
-0.54232907 -0.78583062 2.0639105 2.255928e-38
-0.49775574 -0.7887587 2.060941 2.255928e-38
-0.46399018 -0.78735197 2.0620291 2.255928e-38
-0.43490863 -0.79928577 2.0570002 2.255928e-38
-0.36136669 -0.79305339 2.0510001 2.255928e-38
-0.33840942 -0.79403114 2.0604241 2.255928e-38
-0.30002046 -0.79225707 2.0612013 2.255928e-38
-0.25885332 -0.7910068 2.0600283 2.255928e-38
-0.21954605 -0.79093069 2.0640545 2.255928e-38
-0.18246391 -0.79215509 2.0672472 2.255928e-38
-0.14047322 -0.78661424 2.0628545 2.255928e-38
-0.10108403 -0.79185331 2.0663819 2.255928e-38
-0.058111321 -0.7856738 2.0639219 2.255928e-38
-0.036151621 -0.79022735 2.063 2.255928e-38
0.103967 -0.78721637 2.0584571 2.255928e-38
0.13995139 -0.78986269 2.0640771 2.255928e-38
0.18024641 -0.78966767 2.0631154 2.255928e-38
0.22018047 -0.79013991 2.0615082 2.255928e-38
0.25987387 -0.79330242 2.0652361 2.255928e-38
0.29790542 -0.79279619 2.067621 2.255928e-38
0.34800726 -0.79610687 2.0675652 2.255928e-38
0.37963146 -0.78864038 2.060667 2.255928e-38
0.4204565 -0.791529 2.0654209 2.255928e-38
0.45701918 -0.79301965 2.0654769 2.255928e-38
0.50001532 -0.79356623 2.0664921 2.255928e-38
0.5396899 -0.79290849 2.0668154 2.255928e-38
0.58131975 -0.79280597 2.0621378 2.255928e-38
0.62084883 -0.791843 2.063956 2.255928e-38
0.65951842 -0.79309195 2.0608182 2.255928e-38
0.70103532 -0.79078537 2.0661488 2.255928e-38
0.73905194 -0.7882399 2.0640674 2.255928e-38
0.77990603 -0.78227001 2.0612054 2.255928e-38
0.82130623 -0.78336567 2.0604947 2.255928e-38
0.86237323 -0.7806077 2.0634243 2.255928e-38
0.89742923 -0.77802449 2.0617874 2.255928e-38
0.94092655 -0.78267866 2.0602627 2.255928e-38
0.98184842 -0.7834667 2.0651689 2.255928e-38
1.0198311 -0.78870469 2.0669587 2.255928e-38
1.052615 -0.79108161 2.0650003 2.255928e-38
-0.69566447 -0.74040157 2.0546134 2.255928e-38
-0.66528797 -0.73496282 2.0662415 2.255928e-38
0.89003718 -0.75643337 2.0630002 2.255928e-38
-0.68973786 -0.70639265 2.0528462 2.255928e-38
-0.65913302 -0.69869053 2.0589225 2.255928e-38
-0.62904912 -0.68827289 2.0684516 2.255928e-38
-0.68171334 -0.67780668 2.0510001 2.255928e-38
-0.65592372 -0.66445667 2.0524337 2.255928e-38
-0.62722486 -0.65861475 2.0646589 2.255928e-38
-0.59907436 -0.64257151 2.0760002 2.255928e-38
-0.64420938 -0.63561469 2.0510004 2.255928e-38
-0.61986709 -0.62182343 2.0594063 2.255928e-38
-0.59550619 -0.61419237 2.0742276 2.255928e-38
-0.61340886 -0.58363885 2.0519533 2.255928e-38
-0.58595198 -0.57918972 2.0663838 2.255928e-38
-0.54944003 -0.56806231 2.0741432 2.255928e-38
-0.60696578 -0.5486263 2.0510006 2.255928e-38
-0.58058137 -0.54119956 2.0578568 2.255928e-38
-0.55271238 -0.54037541 2.0626924 2.255928e-38
-0.57186878 -0.50239545 2.05458 2.255928e-38
-0.55148995 -0.50158221 2.0598173 2.255928e-38
-0.5619089 -0.47726446 2.0510001 2.255928e-38
-0.55670005 -0.47661334 2.0510001 2.255928e-38
1.0755658 -0.22539431 2.0760002 2.255928e-38
-0.085135296 0.22999838 2.0680554 2.255928e-38
-0.061768889 0.22496693 2.0705855 2.255928e-38
-0.037565719 0.23725717 2.0760002 2.255928e-38
-0.083546922 0.25909662 2.052 2.255928e-38
-0.058994107 0.26064816 2.0607972 2.255928e-38
-0.031024283 0.26795509 2.0732145 2.255928e-38
-0.086858965 0.29414392 2.0515454 2.255928e-38
-0.055401869 0.29708531 2.0520906 2.255928e-38
-0.021198059 0.30092692 2.0652447 2.255928e-38
0.002636191 0.30316192 2.0760002 2.255928e-38
-0.042322226 0.32685781 2.0510004 2.255928e-38
-0.018205633 0.33900043 2.0592487 2.255928e-38
0.01264291 0.34673423 2.069983 2.255928e-38
-0.011291384 0.3740977 2.0556371 2.255928e-38
0.015634742 0.38024867 2.064229 2.255928e-38
-0.0097666671 0.42192 2.0510001 2.255928e-38
0.019320382 0.40383053 2.0684001 2.255928e-38
0.3360686 -0.8013944 2.0880001 2.255928e-38
0.47422573 -0.80238193 2.1010001 2.255928e-38
-0.51786816 0.18991983 1.7505492 2.255928e-38
-0.68340576 -0.7722286 2.0880001 2.255928e-38
-0.65439749 -0.77388024 2.0894992 2.255928e-38
-0.61980081 -0.77134925 2.0960801 2.255928e-38
-0.58312428 -0.76985896 2.1016183 2.255928e-38
-0.53828609 -0.77171046 2.1032832 2.255928e-38
-0.50344753 -0.77401531 2.100796 2.255928e-38
-0.47725713 -0.76361144 2.0880001 2.255928e-38
-0.33245283 -0.78413743 2.0939579 2.255928e-38
-0.2973657 -0.77833301 2.1011593 2.255928e-38
-0.2603322 -0.77651882 2.1021223 2.255928e-38
-0.22077031 -0.77355212 2.1025653 2.255928e-38
-0.1797248 -0.77679497 2.1014092 2.255928e-38
-0.13980028 -0.76946247 2.1012058 2.255928e-38
-0.099907577 -0.77585065 2.103658 2.255928e-38
-0.062427144 -0.76915979 2.10149 2.255928e-38
0.11624124 -0.76851422 2.0971 2.255928e-38
0.14147536 -0.77311337 2.1030252 2.255928e-38
0.17989478 -0.77336836 2.1030853 2.255928e-38
0.2199326 -0.77451813 2.1040576 2.255928e-38
0.26078773 -0.7771858 2.1052861 2.255928e-38
0.29939458 -0.77550751 2.1008439 2.255928e-38
0.33974421 -0.78199303 2.1015949 2.255928e-38
0.37957606 -0.77449709 2.1037722 2.255928e-38
0.4209305 -0.77517301 2.1047132 2.255928e-38
0.46106791 -0.77796423 2.1037843 2.255928e-38
0.49906209 -0.78008461 2.1038878 2.255928e-38
0.54168975 -0.77766103 2.1036885 2.255928e-38
0.58040911 -0.77849805 2.105839 2.255928e-38
0.62004024 -0.77701753 2.1055782 2.255928e-38
0.66119903 -0.77908528 2.1031651 2.255928e-38
0.69864106 -0.77407783 2.0989244 2.255928e-38
0.74043363 -0.77095723 2.1025507 2.255928e-38
0.78026932 -0.76912504 2.1007826 2.255928e-38
0.82141638 -0.76964676 2.0992787 2.255928e-38
0.85985917 -0.76738471 2.0981393 2.255928e-38
0.90102381 -0.76286405 2.0923338 2.255928e-38
0.94225132 -0.76894909 2.0960209 2.255928e-38
0.97868669 -0.77109414 2.0993512 2.255928e-38
1.0230343 -0.77065372 2.0939088 2.255928e-38
1.0599809 -0.77620661 2.1098628 2.255928e-38
1.0910882 -0.78379077 2.1122661 2.255928e-38
-0.64850807 -0.74415469 2.0922322 2.255928e-38
-0.62090707 -0.74147594 2.1055729 2.255928e-38
-0.58376592 -0.75077194 2.1139991 2.255928e-38
-0.54206038 -0.75736862 2.1140001 2.255928e-38
-0.5003494 -0.75024998 2.1112907 2.255928e-38
-0.47526857 -0.75764573 2.0880001 2.255928e-38
-0.29394668 -0.75902671 2.1140001 2.255928e-38
-0.24562666 -0.75902671 2.1140001 2.255928e-38
-0.22526963 -0.75857925 2.1140001 2.255928e-38
-0.17032802 -0.75701332 2.1140001 2.255928e-38
-0.14176747 -0.75555128 2.1135354 2.255928e-38
-0.10268 -0.75845152 2.1140003 2.255928e-38
-0.065948583 -0.75559717 2.1125557 2.255928e-38
0.11878667 -0.75701338 2.1140001 2.255928e-38
0.13113722 -0.75561571 2.1129169 2.255928e-38
0.18215367 -0.7571193 2.1139998 2.255928e-38
0.22499 -0.75701338 2.1140001 2.255928e-38
0.25939783 -0.75451684 2.1139994 2.255928e-38
0.29282814 -0.75678962 2.1140001 2.255928e-38
0.42920604 -0.75609827 2.1140003 2.255928e-38
0.44561777 -0.75768447 2.1140003 2.255928e-38
0.58789337 -0.75902671 2.1140003 2.255928e-38
0.63218665 -0.75902671 2.1140001 2.255928e-38
0.70720088 -0.75749522 2.1121433 2.255928e-38
0.73335665 -0.75701332 2.1140001 2.255928e-38
0.79521161 -0.75060683 2.105875 2.255928e-38
0.82270861 -0.75403309 2.1136169 2.255928e-38
0.86024237 -0.75436515 2.1113992 2.255928e-38
0.90162617 -0.75205052 2.1055734 2.255928e-38
0.93759447 -0.74674451 2.1084843 2.255928e-38
0.97820359 -0.74757296 2.1108282 2.255928e-38
1.0157889 -0.75142783 2.1080413 2.255928e-38
1.0612282 -0.75248337 2.1139991 2.255928e-38
1.0811599 -0.75701338 2.1140001 2.255928e-38
-0.64297056 -0.71404898 2.0923336 2.255928e-38
-0.61566883 -0.70342249 2.102999 2.255928e-38
-0.58482635 -0.69602591 2.1119821 2.255928e-38
0.96841335 -0.71876007 2.1140001 2.255928e-38
-0.6103425 -0.66365999 2.091095 2.255928e-38
-0.58061665 -0.66005737 2.1060805 2.255928e-38
-0.5417881 -0.65302473 2.1139991 2.255928e-38
-0.61049139 -0.63833147 2.0880001 2.255928e-38
-0.5781036 -0.62358755 2.0992262 2.255928e-38
-0.54759198 -0.62100399 2.1096661 2.255928e-38
-0.56838912 -0.58767837 2.0890005 2.255928e-38
-0.552423 -0.5874204 2.0935006 2.255928e-38
1.0892134 -0.24361333 2.1140001 2.255928e-38
1.0762807 -0.23297398 2.0966668 2.255928e-38
1.0865172 -0.2361124 2.1010001 2.255928e-38
-0.051555026 0.18801336 2.1104243 2.255928e-38
-0.029391965 0.18682757 2.112731 2.255928e-38
-0.087497145 0.22669715 2.0880001 2.255928e-38
-0.050919138 0.21052346 2.0916567 2.255928e-38
-0.021808423 0.22171095 2.1060219 2.255928e-38
0.00453 0.23455335 2.1140001 2.255928e-38
-0.016162528 0.25695238 2.0958674 2.255928e-38
0.0083883172 0.26118058 2.1092432 2.255928e-38
-0.007803225 0.28463623 2.0899997 2.255928e-38
0.018168749 0.30228713 2.1024237 2.255928e-38
0.047457144 0.30947813 2.1140003 2.255928e-38
0.025835618 0.33407518 2.0958407 2.255928e-38
0.054387793 0.34282359 2.1076903 2.255928e-38
0.035320818 0.3805747 2.0880003 2.255928e-38
0.056905799 0.37631899 2.1001961 2.255928e-38
0.031110859 0.40787202 2.0932002 2.255928e-38
0.041759998 0.40368 2.0880001 2.255928e-38
-0.3220886 -0.7738229 2.1270001 2.255928e-38
-0.30306697 -0.76654285 2.1337404 2.255928e-38
-0.2674565 -0.76460332 2.134428 2.255928e-38
-0.20334059 -0.76303256 2.1351252 2.255928e-38
-0.1917969 -0.76267499 2.140867 2.255928e-38
-0.1238712 -0.76059741 2.1497502 2.255928e-38
-0.10167176 -0.76216125 2.1405649 2.255928e-38
-0.06243505 -0.7699132 2.1400001 2.255928e-38
0.1430449 -0.76220089 2.1325715 2.255928e-38
0.16003144 -0.76369429 2.1270001 2.255928e-38
0.21735048 -0.76072669 2.1530001 2.255928e-38
0.26806957 -0.76504481 2.1270003 2.255928e-38
0.31174469 -0.76325727 2.132417 2.255928e-38
0.33983642 -0.76416332 2.1321208 2.255928e-38
0.3773703 -0.76300335 2.1357939 2.255928e-38
0.40769175 -0.76390493 2.1317272 2.255928e-38
0.46701026 -0.76269871 2.1307144 2.255928e-38
0.49960792 -0.76382977 2.1330662 2.255928e-38
0.53832579 -0.76454329 2.1405528 2.255928e-38
0.5709573 -0.76474297 2.1428258 2.255928e-38
0.62027884 -0.76308286 2.1340907 2.255928e-38
0.66067362 -0.76479465 2.1369765 2.255928e-38
0.68921131 -0.76230043 2.1322 2.255928e-38
0.74531984 -0.76125401 2.1388185 2.255928e-38
0.77717555 -0.76291531 2.1358211 2.255928e-38
0.98243904 -0.76388735 2.1313334 2.255928e-38
1.0736287 -0.7819258 2.1270001 2.255928e-38
1.1013441 -0.76966041 2.1330936 2.255928e-38
1.1216105 -0.76072669 2.1530001 2.255928e-38
-0.60453105 -0.73649186 2.1270001 2.255928e-38
-0.57757795 -0.73877603 2.134104 2.255928e-38
-0.54062015 -0.74278724 2.1451998 2.255928e-38
-0.51299316 -0.73280549 2.1389165 2.255928e-38
-0.29945979 -0.75475472 2.1419497 2.255928e-38
-0.25573748 -0.75426072 2.1436665 2.255928e-38
-0.22084333 -0.7524457 2.1428435 2.255928e-38
-0.17825656 -0.75013965 2.1470506 2.255928e-38
-0.13920723 -0.74868792 2.1470506 2.255928e-38
-0.099180192 -0.74945658 2.1482103 2.255928e-38
-0.073048107 -0.74699467 2.1449308 2.255928e-38
0.14542949 -0.75022888 2.1435683 2.255928e-38
0.17886432 -0.74908733 2.1414647 2.255928e-38
0.21998663 -0.74976683 2.1419859 2.255928e-38
0.25984001 -0.74826407 2.1399999 2.255928e-38
0.30031955 -0.75204021 2.1461577 2.255928e-38
0.34117052 -0.74943799 2.1447997 2.255928e-38
0.38319275 -0.75102669 2.1490002 2.255928e-38
0.41939604 -0.75066245 2.1444623 2.255928e-38
0.46017197 -0.7540437 2.1405301 2.255928e-38
0.4994944 -0.7536909 2.1470909 2.255928e-38
0.54159099 -0.75277036 2.1521034 2.255928e-38
0.58600992 -0.7530871 2.1417329 2.255928e-38
0.61925346 -0.75185764 2.1469481 2.255928e-38
0.66253072 -0.75328499 2.1475263 2.255928e-38
0.70110703 -0.75246298 2.1430953 2.255928e-38
0.74033451 -0.75251096 2.1464996 2.255928e-38
0.78221065 -0.75295371 2.1456077 2.255928e-38
0.81794554 -0.74637061 2.1392903 2.255928e-38
0.85931623 -0.74617547 2.1415918 2.255928e-38
0.90214711 -0.74385256 2.1395733 2.255928e-38
0.94240987 -0.73410726 2.143656 2.255928e-38
0.98151207 -0.73971713 2.1381941 2.255928e-38
1.0191797 -0.7400493 2.142328 2.255928e-38
1.0571899 -0.74256212 2.1410651 2.255928e-38
1.0987768 -0.74745482 2.1471841 2.255928e-38
1.1216105 -0.75252479 2.1530004 2.255928e-38
-0.57074332 -0.7071504 2.1310439 2.255928e-38
-0.54100251 -0.70127314 2.1442838 2.255928e-38
-0.51430011 -0.71118242 2.1502142 2.255928e-38
0.95347154 -0.7176668 2.1530001 2.255928e-38
0.97126704 -0.71615905 2.14975 2.255928e-38
-0.54537809 -0.66898912 2.1305132 2.255928e-38
1.1114476 -0.33387104 2.1530001 2.255928e-38
1.1079366 -0.29860255 2.1494546 2.255928e-38
1.1061757 -0.26216736 2.1478603 2.255928e-38
1.0970049 -0.23990573 2.1530001 2.255928e-38
-0.0061514289 0.1127762 2.1530001 2.255928e-38
-0.014548588 0.1433055 2.1429646 2.255928e-38
0.0058951192 0.14737795 2.1530001 2.255928e-38
-0.052957967 0.17565838 2.1270001 2.255928e-38
-0.014151854 0.1759465 2.1369047 2.255928e-38
0.015564931 0.1841706 2.1498954 2.255928e-38
0.045110479 0.1988962 2.1530001 2.255928e-38
-0.070900001 0.20257144 2.1270001 2.255928e-38
-0.0046302052 0.20980613 2.1270006 2.255928e-38
0.021329623 0.21971621 2.1435578 2.255928e-38
0.050031614 0.22503975 2.1530001 2.255928e-38
0.028377648 0.26003277 2.136533 2.255928e-38
0.057801139 0.2632055 2.1493332 2.255928e-38
0.030727658 0.28981486 2.1280396 2.255928e-38
0.063845955 0.29901603 2.1429996 2.255928e-38
0.089879207 0.30774236 2.1530001 2.255928e-38
0.07039158 0.33358011 2.131216 2.255928e-38
0.096706234 0.34176785 2.1475539 2.255928e-38
0.12657031 0.3513771 2.1530001 2.255928e-38
0.079002857 0.36935526 2.1270003 2.255928e-38
0.093295038 0.36787793 2.1359999 2.255928e-38
0.1209781 0.36293429 2.1530001 2.255928e-38
0.52627146 -0.76154578 2.1670001 2.255928e-38
-0.53865427 -0.73265243 2.1670001 2.255928e-38
-0.29647923 -0.73914433 2.1781728 2.255928e-38
-0.26137459 -0.73926234 2.1798341 2.255928e-38
-0.21888785 -0.73280305 2.1766324 2.255928e-38
-0.18049543 -0.73051238 2.1776891 2.255928e-38
-0.14194253 -0.73247081 2.1768534 2.255928e-38
-0.1005502 -0.73442674 2.179456 2.255928e-38
-0.074765712 -0.73725581 2.1806667 2.255928e-38
0.14823265 -0.73543233 2.1753032 2.255928e-38
0.18140736 -0.73200667 2.1782124 2.255928e-38
0.21821685 -0.73194128 2.1767392 2.255928e-38
0.25987688 -0.73294896 2.1787632 2.255928e-38
0.29955831 -0.73532307 2.1775351 2.255928e-38
0.33892438 -0.73112637 2.177891 2.255928e-38
0.380108 -0.73751777 2.1765084 2.255928e-38
0.42213672 -0.73508793 2.1776545 2.255928e-38
0.4596822 -0.73644215 2.1789031 2.255928e-38
0.50018388 -0.73965544 2.1777928 2.255928e-38
0.54043627 -0.73772281 2.1784725 2.255928e-38
0.57785439 -0.74002606 2.1770451 2.255928e-38
0.62026805 -0.73799348 2.1778102 2.255928e-38
0.65972865 -0.74192548 2.1777544 2.255928e-38
0.70110327 -0.7381655 2.181891 2.255928e-38
0.7387026 -0.74015546 2.1770225 2.255928e-38
0.78086191 -0.73707378 2.1781797 2.255928e-38
0.81871831 -0.73228818 2.1770139 2.255928e-38
0.86214226 -0.73077571 2.1749868 2.255928e-38
0.8970657 -0.73055172 2.1729751 2.255928e-38
0.93648314 -0.72453487 2.1773124 2.255928e-38
0.98845905 -0.72204381 2.1724002 2.255928e-38
1.0200959 -0.72571534 2.1689534 2.255928e-38
1.0630587 -0.72798556 2.1731961 2.255928e-38
1.096922 -0.73140067 2.1730487 2.255928e-38
1.1307342 -0.73736835 2.18225 2.255928e-38
-0.20268381 -0.71670663 2.194 2.255928e-38
-0.19119143 -0.71566188 2.194 2.255928e-38
0.19014667 -0.71670663 2.194 2.255928e-38
0.79610854 -0.71670663 2.194 2.255928e-38
0.87411749 -0.71670663 2.194 2.255928e-38
0.90129739 -0.71669745 2.1927001 2.255928e-38
0.94019973 -0.71611768 2.1830001 2.255928e-38
0.97855532 -0.70881426 2.1800888 2.255928e-38
1.0206918 -0.70855284 2.1832592 2.255928e-38
1.0517862 -0.7110728 2.1824827 2.255928e-38
1.0980285 -0.70944494 2.1818869 2.255928e-38
1.1262534 -0.70277655 2.194 2.255928e-38
-0.36911145 -0.49359003 2.1730001 2.255928e-38
-0.35713854 -0.49731904 2.187 2.255928e-38
1.14088 -0.49591362 2.1940002 2.255928e-38
-0.36608982 -0.47776669 2.1716669 2.255928e-38
-0.35703906 -0.47674003 2.1670001 2.255928e-38
1.1147366 -0.44965577 2.1785715 2.255928e-38
1.1278759 -0.45831153 2.1805313 2.255928e-38
1.1077925 -0.4136031 2.1867144 2.255928e-38
1.1254354 -0.42067209 2.179409 2.255928e-38
1.107185 -0.38460875 2.1888752 2.255928e-38
1.1245953 -0.37962022 2.1795833 2.255928e-38
1.1023285 -0.3379482 2.1833031 2.255928e-38
1.1227124 -0.35291144 2.1670001 2.255928e-38
1.0989124 -0.30163667 2.1786671 2.255928e-38
1.0700519 -0.26087517 2.1856875 2.255928e-38
1.0942943 -0.26501516 2.1771774 2.255928e-38
0.0083580958 0.068954289 2.1940002 2.255928e-38
-0.0051595243 0.11299358 2.1670001 2.255928e-38
0.018343557 0.10606671 2.1814847 2.255928e-38
-0.0082552386 0.12589239 2.1670001 2.255928e-38
0.023528354 0.13918473 2.1730967 2.255928e-38
0.050496668 0.15001337 2.1879616 2.255928e-38
0.030441198 0.17258605 2.1670001 2.255928e-38
0.059612192 0.18074372 2.1815324 2.255928e-38
0.083282456 0.19193771 2.1940002 2.255928e-38
0.03921238 0.20018953 2.1670001 2.255928e-38
0.066926174 0.21681117 2.1729074 2.255928e-38
0.09113057 0.22611654 2.1854348 2.255928e-38
0.072822988 0.24942614 2.1670001 2.255928e-38
0.099190943 0.26031032 2.1758058 2.255928e-38
0.12800209 0.27265853 2.1888001 2.255928e-38
0.10547515 0.29779536 2.1723537 2.255928e-38
0.13146263 0.30295563 2.1877828 2.255928e-38
0.1144985 0.33521074 2.1692104 2.255928e-38
0.13999566 0.33646104 2.185143 2.255928e-38
0.16367936 0.33780634 2.194 2.255928e-38
0.11350954 0.36942193 2.1670001 2.255928e-38
-0.3023048 -0.72381014 2.2108572 2.255928e-38
-0.25786853 -0.72463202 2.2090716 2.255928e-38
-0.22689262 -0.72238702 2.2092502 2.255928e-38
-0.17694043 -0.72128004 2.2080002 2.255928e-38
-0.13731657 -0.72464466 2.2080002 2.255928e-38
-0.1000553 -0.72602844 2.2080002 2.255928e-38
-0.076228574 -0.73126864 2.2080002 2.255928e-38
0.15050451 -0.7269879 2.2080002 2.255928e-38
0.17474745 -0.72485495 2.2080002 2.255928e-38
0.22481301 -0.72369307 2.2102501 2.255928e-38
0.2614553 -0.72268206 2.2080002 2.255928e-38
0.30125722 -0.72475433 2.2080002 2.255928e-38
0.3396115 -0.72364581 2.2080002 2.255928e-38
0.38131419 -0.72723681 2.2084413 2.255928e-38
0.41877878 -0.72702271 2.2084169 2.255928e-38
0.46322945 -0.7230826 2.2080002 2.255928e-38
0.50127363 -0.72594076 2.2112927 2.255928e-38
0.54002446 -0.7242198 2.2098 2.255928e-38
0.58180583 -0.72679907 2.2132325 2.255928e-38
0.61894315 -0.72765619 2.2106924 2.255928e-38
0.65956748 -0.72862285 2.211889 2.255928e-38
0.69574177 -0.73094851 2.2087896 2.255928e-38
0.74154371 -0.73178041 2.2114377 2.255928e-38
0.77281928 -0.72816461 2.2145383 2.255928e-38
0.8253814 -0.72301179 2.2150435 2.255928e-38
0.85586011 -0.72454166 2.2120001 2.255928e-38
0.9539963 -0.722682 2.2080002 2.255928e-38
0.96521157 -0.72128004 2.2080002 2.255928e-38
1.1401691 -0.72604662 2.2080002 2.255928e-38
-0.32468286 -0.7064845 2.221 2.255928e-38
-0.30066177 -0.71067274 2.2195797 2.255928e-38
-0.25897339 -0.70671612 2.2236037 2.255928e-38
-0.22184953 -0.70380247 2.2224317 2.255928e-38
-0.18068424 -0.71054065 2.2221551 2.255928e-38
-0.13764173 -0.70993876 2.2257257 2.255928e-38
-0.10477038 -0.70931447 2.2159786 2.255928e-38
0.15158617 -0.70143712 2.2179046 2.255928e-38
0.17853698 -0.70453757 2.218245 2.255928e-38
0.2200093 -0.70595133 2.2264316 2.255928e-38
0.26044479 -0.70598978 2.2215331 2.255928e-38
0.30032125 -0.70823699 2.2241957 2.255928e-38
0.34111989 -0.70698482 2.221329 2.255928e-38
0.37869683 -0.70887291 2.2256873 2.255928e-38
0.41971102 -0.70955634 2.2248425 2.255928e-38
0.45907313 -0.70795542 2.2237794 2.255928e-38
0.49938577 -0.7100569 2.2256036 2.255928e-38
0.53993374 -0.71323913 2.2245238 2.255928e-38
0.57993346 -0.70910048 2.2287211 2.255928e-38
0.61933386 -0.71152592 2.2260833 2.255928e-38
0.66022342 -0.71194714 2.2283516 2.255928e-38
0.70037669 -0.71271849 2.2256875 2.255928e-38
0.73794109 -0.71153796 2.225122 2.255928e-38
0.78109944 -0.71171093 2.2240541 2.255928e-38
0.81467551 -0.71205282 2.2269626 2.255928e-38
0.86319655 -0.70759219 2.2253568 2.255928e-38
0.89978182 -0.70528752 2.2206295 2.255928e-38
0.94233501 -0.70524955 2.2220132 2.255928e-38
0.97809219 -0.69686866 2.2208381 2.255928e-38
1.0179493 -0.69453275 2.2192669 2.255928e-38
1.0623412 -0.69777834 2.2214227 2.255928e-38
1.0979121 -0.69934857 2.2211096 2.255928e-38
1.1393614 -0.70071071 2.2231543 2.255928e-38
1.16324 -0.6966657 2.237 2.255928e-38
0.9970628 -0.67962188 2.237 2.255928e-38
1.02061 -0.67692846 2.2333155 2.255928e-38
1.058718 -0.6766476 2.2313998 2.255928e-38
1.1503334 -0.65102619 2.2265 2.255928e-38
1.16324 -0.64979523 2.237 2.255928e-38
-0.36271358 -0.62156636 2.2369998 2.255928e-38
-0.34939811 -0.61601186 2.2369998 2.255928e-38
1.1521832 -0.62447935 2.2258 2.255928e-38
1.16324 -0.61144662 2.237 2.255928e-38
-0.36005047 -0.56670666 2.237 2.255928e-38
-0.34255812 -0.5636791 2.2369998 2.255928e-38
1.1185 -0.56883717 2.237 2.255928e-38
1.1495202 -0.5759114 2.2320585 2.255928e-38
1.16324 -0.57451844 2.237 2.255928e-38
-0.36159164 -0.54139358 2.2256 2.255928e-38
-0.33957344 -0.53944278 2.2221944 2.255928e-38
-0.3101795 -0.53048277 2.2315214 2.255928e-38
1.1131982 -0.53594464 2.2232058 2.255928e-38
1.1402848 -0.53943652 2.2239509 2.255928e-38
1.16324 -0.55392385 2.237 2.255928e-38
-0.36379433 -0.51940572 2.2080002 2.255928e-38
-0.33935192 -0.50719804 2.2092102 2.255928e-38
-0.30533567 -0.50983733 2.2280452 2.255928e-38
1.1141113 -0.49917653 2.2237554 2.255928e-38
1.1344589 -0.50129527 2.2136097 2.255928e-38
1.1047832 -0.45830485 2.2197354 2.255928e-38
1.1272155 -0.4648996 2.2080002 2.255928e-38
1.0954522 -0.42214808 2.2157893 2.255928e-38
1.1229259 -0.43318862 2.2080002 2.255928e-38
1.0742166 -0.37086186 2.2276664 2.255928e-38
1.0923773 -0.37880647 2.2156367 2.255928e-38
1.1250286 -0.36800003 2.2080002 2.255928e-38
1.0710521 -0.33914509 2.2211747 2.255928e-38
1.0915655 -0.34450343 2.2083752 2.255928e-38
1.066453 -0.2986159 2.222858 2.255928e-38
1.0901005 -0.30209574 2.2108724 2.255928e-38
1.0639858 -0.26775786 2.2190423 2.255928e-38
1.091383 -0.27968001 2.2080002 2.255928e-38
0.024483919 0.027099999 2.2304115 2.255928e-38
0.045201462 0.029320575 2.2314 2.255928e-38
0.022796655 0.058766592 2.214973 2.255928e-38
0.053541165 0.059761308 2.2300007 2.255928e-38
0.026445027 0.090040535 2.2080002 2.255928e-38
0.059446361 0.10114987 2.2200387 2.255928e-38
0.091807358 0.11175533 2.2362628 2.255928e-38
0.065198876 0.13706507 2.214462 2.255928e-38
0.097808897 0.14032745 2.2255569 2.255928e-38
0.077104777 0.16892955 2.2080002 2.255928e-38
0.099863373 0.17971987 2.2169371 2.255928e-38
0.13085192 0.1841073 2.2329471 2.255928e-38
0.10698994 0.21613856 2.2132039 2.255928e-38
0.13635361 0.22347809 2.2259147 2.255928e-38
0.1651119 0.23328714 2.237 2.255928e-38
0.11818059 0.24519315 2.2080002 2.255928e-38
0.14245164 0.25905856 2.2157936 2.255928e-38
0.17091908 0.264377 2.2307775 2.255928e-38
0.14989834 0.29857203 2.2125652 2.255928e-38
0.17883584 0.30241045 2.2255259 2.255928e-38
0.20742248 0.31578875 2.2313998 2.255928e-38
0.15771429 0.32173717 2.2080002 2.255928e-38
0.17703213 0.32945251 2.21925 2.255928e-38
0.20112857 0.32392287 2.223 2.255928e-38
0.83002287 -0.72278476 2.2520001 2.255928e-38
-0.32813323 -0.69603717 2.266 2.255928e-38
-0.29854229 -0.6985684 2.2606151 2.255928e-38
-0.26254496 -0.69074214 2.2591622 2.255928e-38
-0.21648306 -0.6912114 2.2584999 2.255928e-38
-0.17990614 -0.6953631 2.2589996 2.255928e-38
-0.14477521 -0.69679242 2.2598071 2.255928e-38
0.15456724 -0.68844688 2.2604001 2.255928e-38
0.18306296 -0.69043571 2.2588286 2.255928e-38
0.21995951 -0.68938506 2.260536 2.255928e-38
0.25919563 -0.69024616 2.2588365 2.255928e-38
0.30066377 -0.69255942 2.2594461 2.255928e-38
0.33823559 -0.69210261 2.2615311 2.255928e-38
0.38175741 -0.69306761 2.2612445 2.255928e-38
0.42080629 -0.69305992 2.2602956 2.255928e-38
0.45958486 -0.69647747 2.259933 2.255928e-38
0.49917099 -0.69731396 2.2614279 2.255928e-38
0.54162937 -0.69944829 2.2602353 2.255928e-38
0.58100694 -0.69464493 2.2614224 2.255928e-38
0.61889052 -0.69720834 2.2607162 2.255928e-38
0.66023028 -0.69950956 2.2611423 2.255928e-38
0.70152211 -0.69964457 2.2596598 2.255928e-38
0.73939359 -0.69768584 2.263016 2.255928e-38
0.77927285 -0.70127553 2.2623594 2.255928e-38
0.82166338 -0.69914156 2.2624002 2.255928e-38
0.85891813 -0.6969139 2.2598028 2.255928e-38
0.9007417 -0.6916762 2.2583001 2.255928e-38
0.93992919 -0.69134051 2.2588565 2.255928e-38
0.97671753 -0.6853568 2.2551112 2.255928e-38
1.0101829 -0.68417907 2.2520001 2.255928e-38
1.0702363 -0.68785584 2.2520001 2.255928e-38
1.1026449 -0.68722975 2.2549999 2.255928e-38
1.1365062 -0.68880689 2.2531197 2.255928e-38
1.1680542 -0.69180518 2.2558892 2.255928e-38
-0.36246476 -0.64128381 2.2520001 2.255928e-38
-0.34613127 -0.65470731 2.2635651 2.255928e-38
-0.29134285 -0.67980003 2.266 2.255928e-38
-0.20501906 -0.67764193 2.266 2.255928e-38
-0.19207048 -0.67980003 2.266 2.255928e-38
-0.13844429 -0.67766434 2.2625 2.255928e-38
0.18257487 -0.67850518 2.2660003 2.255928e-38
0.21241826 -0.67918342 2.266 2.255928e-38
0.26073712 -0.6786229 2.2660003 2.255928e-38
0.31206056 -0.67721027 2.266 2.255928e-38
0.33018857 -0.67764193 2.266 2.255928e-38
0.38629904 -0.67980003 2.266 2.255928e-38
0.42190763 -0.67872095 2.266 2.255928e-38
0.55894667 -0.67980003 2.266 2.255928e-38
0.81647938 -0.67980003 2.2660003 2.255928e-38
0.94596517 -0.67980003 2.2660003 2.255928e-38
0.98341227 -0.67422277 2.2637722 2.255928e-38
1.0172305 -0.67223459 2.2613328 2.255928e-38
1.0610974 -0.67097193 2.2608142 2.255928e-38
1.0955158 -0.66773993 2.265363 2.255928e-38
1.1448826 -0.66623956 2.26197 2.255928e-38
1.1671734 -0.66722369 2.2572496 2.255928e-38
-0.36389461 -0.61268705 2.2520001 2.255928e-38
-0.33940423 -0.61715978 2.2586663 2.255928e-38
-0.31724 -0.60858285 2.266 2.255928e-38
1.0953875 -0.6329385 2.266 2.255928e-38
1.1431912 -0.61878335 2.2625008 2.255928e-38
1.1654637 -0.60782558 2.2520001 2.255928e-38
-0.3647815 -0.58677489 2.255734 2.255928e-38
-0.33883387 -0.58612221 2.2569671 2.255928e-38
-0.30396122 -0.57698345 2.2646449 2.255928e-38
-0.27515715 -0.56865811 2.266 2.255928e-38
1.1156651 -0.57706344 2.2598753 2.255928e-38
1.135924 -0.58280081 2.255343 2.255928e-38
-0.29656121 -0.54453999 2.2584257 2.255928e-38
-0.27206671 -0.53710908 2.2636664 2.255928e-38
1.1097844 -0.53635007 2.2607162 2.255928e-38
1.1217105 -0.55763811 2.2520001 2.255928e-38
-0.28704065 -0.5086661 2.2520003 2.255928e-38
-0.26935238 -0.51079172 2.2566669 2.255928e-38
1.1054223 -0.49937412 2.2624357 2.255928e-38
1.1230669 -0.5098415 2.2566669 2.255928e-38
1.0951412 -0.46040887 2.2633183 2.255928e-38
1.0884255 -0.4213511 2.2625942 2.255928e-38
1.0711951 -0.37244448 2.2614999 2.255928e-38
1.0824614 -0.39030305 2.2596366 2.255928e-38
1.0618644 -0.33860502 2.2602167 2.255928e-38
1.0380439 -0.28271049 2.266 2.255928e-38
1.0517192 -0.30123952 2.2595928 2.255928e-38
1.0354542 -0.26415086 2.2660003 2.255928e-38
1.0531931 -0.27100593 2.2611537 2.255928e-38
0.032853454 -0.011858691 2.2616253 2.255928e-38
0.0496362 -0.012948573 2.2659998 2.255928e-38
0.024725879 0.010730189 2.2538259 2.255928e-38
0.061272588 0.018839942 2.2612617 2.255928e-38
0.087942377 0.032371428 2.266 2.255928e-38
0.074162677 0.059395317 2.2547998 2.255928e-38
0.096542634 0.061693396 2.2647276 2.255928e-38
0.077211425 0.087935239 2.2520001 2.255928e-38
0.10342447 0.09768483 2.2581961 2.255928e-38
0.12936901 0.10813438 2.2654397 2.255928e-38
0.11751738 0.13469549 2.2537501 2.255928e-38
0.13877992 0.14172311 2.2646585 2.255928e-38
0.16185714 0.15106668 2.266 2.255928e-38
0.11796191 0.16300192 2.2520001 2.255928e-38
0.14472049 0.17546763 2.2556393 2.255928e-38
0.1629362 0.18235907 2.2660003 2.255928e-38
0.15128374 0.21212481 2.2538259 2.255928e-38
0.17681958 0.22065239 2.2636309 2.255928e-38
0.20070286 0.23523238 2.266 2.255928e-38
0.18670206 0.25702727 2.2555809 2.255928e-38
0.20437162 0.26393503 2.266 2.255928e-38
0.1956023 0.28782707 2.2520003 2.255928e-38
0.21801922 0.30336589 2.2643714 2.255928e-38
0.25033903 0.31076571 2.2660003 2.255928e-38
0.23091619 0.32155618 2.266 2.255928e-38
0.24386477 0.32155618 2.266 2.255928e-38
-0.32989159 -0.68616211 2.2810001 2.255928e-38
-0.3036989 -0.68603784 2.2810004 2.255928e-38
-0.25550726 -0.68433589 2.2824547 2.255928e-38
-0.22068836 -0.68685573 2.2810001 2.255928e-38
-0.17696895 -0.68437171 2.2839093 2.255928e-38
-0.15341572 -0.68331236 2.2850001 2.255928e-38
0.151133 -0.68548286 2.2968099 2.255928e-38
0.16918406 -0.68233454 2.2927501 2.255928e-38
0.23027238 -0.68430001 2.2810001 2.255928e-38
0.29880112 -0.68587989 2.2810001 2.255928e-38
0.347581 -0.68502414 2.2810001 2.255928e-38
0.37708566 -0.68397671 2.2839093 2.255928e-38
0.40623528 -0.68430007 2.2810001 2.255928e-38
0.46231672 -0.68688774 2.2865672 2.255928e-38
0.5010649 -0.68693841 2.2822797 2.255928e-38
0.53773582 -0.68635714 2.2836664 2.255928e-38
0.58507931 -0.68505704 2.2823334 2.255928e-38
0.62344766 -0.68480134 2.2871737 2.255928e-38
0.66161263 -0.68685895 2.2886128 2.255928e-38
0.69679034 -0.68578923 2.291832 2.255928e-38
0.74078196 -0.68563682 2.2810001 2.255928e-38
0.78303164 -0.68974513 2.2815709 2.255928e-38
0.81218356 -0.68593907 2.2855003 2.255928e-38
0.86150408 -0.6845122 2.293056 2.255928e-38
0.90399206 -0.68683922 2.2966826 2.255928e-38
0.93230182 -0.68364888 2.2961073 2.255928e-38
-0.3328177 -0.6603595 2.2809987 2.255928e-38
-0.2999033 -0.66118556 2.288039 2.255928e-38
-0.26170611 -0.6708945 2.2944989 2.255928e-38
-0.21938646 -0.67235553 2.2974124 2.255928e-38
-0.18019359 -0.67296946 2.2916372 2.255928e-38
-0.15251482 -0.67307812 2.2922382 2.255928e-38
0.13949317 -0.66537422 2.3041511 2.255928e-38
0.18042177 -0.66847378 2.2950289 2.255928e-38
0.2196786 -0.66628456 2.2893975 2.255928e-38
0.25980943 -0.66780889 2.2924464 2.255928e-38
0.29886976 -0.66987258 2.2921891 2.255928e-38
0.34156176 -0.6703096 2.2950501 2.255928e-38
0.38066334 -0.67272097 2.2985702 2.255928e-38
0.41849434 -0.66878331 2.2943511 2.255928e-38
0.46050102 -0.67177069 2.3034189 2.255928e-38
0.49974599 -0.67112881 2.2985535 2.255928e-38
0.54011106 -0.67226857 2.2940555 2.255928e-38
0.57887608 -0.67449594 2.2945108 2.255928e-38
0.61641896 -0.67710298 2.2943337 2.255928e-38
0.65701675 -0.67494106 2.3044095 2.255928e-38
0.70714027 -0.67476612 2.2999287 2.255928e-38
0.7417739 -0.67397344 2.2983325 2.255928e-38
0.77822506 -0.67475349 2.2972879 2.255928e-38
0.82135069 -0.67591691 2.2923605 2.255928e-38
0.85858792 -0.67724919 2.2955337 2.255928e-38
0.8968417 -0.67187059 2.3078277 2.255928e-38
0.94323939 -0.67342424 2.2998714 2.255928e-38
0.98005718 -0.66538262 2.2901189 2.255928e-38
1.02013 -0.65687126 2.2935176 2.255928e-38
1.0602254 -0.65546262 2.2904594 2.255928e-38
1.1015286 -0.6502158 2.2884226 2.255928e-38
1.1375473 -0.66029203 2.2865262 2.255928e-38
-0.32513306 -0.63143885 2.2810001 2.255928e-38
-0.30010495 -0.62048709 2.2868233 2.255928e-38
-0.26774856 -0.61235267 2.3095 2.255928e-38
1.1100086 -0.61790884 2.2916827 2.255928e-38
1.1278195 -0.62200898 2.2833698 2.255928e-38
-0.28663996 -0.5891726 2.2809999 2.255928e-38
-0.25741044 -0.57959837 2.2953467 2.255928e-38
-0.22119135 -0.56548917 2.3120003 2.255928e-38
1.0679239 -0.57469714 2.312 2.255928e-38
1.1069127 -0.58012545 2.2986743 2.255928e-38
1.1226848 -0.58642006 2.289 2.255928e-38
-0.25430983 -0.54173166 2.283035 2.255928e-38
-0.22307935 -0.54250395 2.2967951 2.255928e-38
-0.19596952 -0.55488002 2.312 2.255928e-38
1.0771807 -0.52876043 2.2927504 2.255928e-38
1.0934058 -0.54206079 2.28984 2.255928e-38
-0.25040793 -0.51459461 2.2863333 2.255928e-38
-0.23190169 -0.5164836 2.2810001 2.255928e-38
1.0737092 -0.49895006 2.3019776 2.255928e-38
1.0896578 -0.50126308 2.2856541 2.255928e-38
1.0725482 -0.45823753 2.2966831 2.255928e-38
1.0867395 -0.46675175 2.285625 2.255928e-38
1.0631396 -0.41834992 2.2875917 2.255928e-38
1.0861907 -0.42206267 2.2810001 2.255928e-38
1.0573823 -0.38211811 2.2899227 2.255928e-38
1.0840182 -0.39537334 2.2810001 2.255928e-38
1.0372058 -0.33431581 2.3013532 2.255928e-38
1.0499835 -0.34319457 2.2894275 2.255928e-38
1.0315267 -0.29876807 2.2979991 2.255928e-38
1.0425016 -0.30171958 2.2809999 2.255928e-38
1.0361638 -0.27138415 2.2905004 2.255928e-38
1.045802 -0.27135229 2.2898574 2.255928e-38
0.020391554 -0.16648312 2.312 2.255928e-38
0.021258473 -0.13974646 2.3046038 2.255928e-38
0.041836195 -0.12550858 2.312 2.255928e-38
0.033126716 -0.09542793 2.3051369 2.255928e-38
0.053203829 -0.09736003 2.3045621 2.255928e-38
0.029887851 -0.058898281 2.2855518 2.255928e-38
0.058374003 -0.058402374 2.2923071 2.255928e-38
0.087141149 -0.050833996 2.3105001 2.255928e-38
0.03102381 -0.033004243 2.2824547 2.255928e-38
0.0638569 -0.023422401 2.2838228 2.255928e-38
0.096407257 -0.017435251 2.3031306 2.255928e-38
0.073860958 0.0065171435 2.2810001 2.255928e-38
0.1008262 0.017724125 2.2899408 2.255928e-38
0.1281873 0.025736008 2.3114233 2.255928e-38
0.11445016 0.057968277 2.2809999 2.255928e-38
0.137969 0.059811428 2.3043027 2.255928e-38
0.1639685 0.066203937 2.312 2.255928e-38
0.11948096 0.082550481 2.2810001 2.255928e-38
0.14471832 0.097344719 2.2870991 2.255928e-38
0.16755727 0.1027924 2.3105717 2.255928e-38
0.15423906 0.1270843 2.2810001 2.255928e-38
0.17951697 0.13968679 2.2984157 2.255928e-38
0.2051601 0.14235798 2.312 2.255928e-38
0.18350774 0.18006411 2.2860718 2.255928e-38
0.20889871 0.18223691 2.3057096 2.255928e-38
0.19381441 0.21289323 2.2836668 2.255928e-38
0.21908182 0.2217339 2.2978158 2.255928e-38
0.2451258 0.22360553 2.3095002 2.255928e-38
0.2240143 0.25753453 2.2835798 2.255928e-38
0.25111771 0.26228699 2.3036993 2.255928e-38
0.22725518 0.29278871 2.2809992 2.255928e-38
0.25982872 0.29664713 2.2971656 2.255928e-38
0.29590216 0.30809733 2.3120003 2.255928e-38
0.23244478 0.32368478 2.2810001 2.255928e-38
0.63604671 -0.68037051 2.3270001 2.255928e-38
0.80890954 -0.68037051 2.3270001 2.255928e-38
0.86209816 -0.68037051 2.3270001 2.255928e-38
-0.2814562 -0.65599239 2.3270001 2.255928e-38
-0.25832415 -0.65423888 2.330344 2.255928e-38
-0.21997413 -0.65267426 2.3372037 2.255928e-38
-0.18207988 -0.6561349 2.3379591 2.255928e-38
0.10570718 -0.64957482 2.3494685 2.255928e-38
0.14064287 -0.64937001 2.3427467 2.255928e-38
0.17907706 -0.65049517 2.3405008 2.255928e-38
0.22027631 -0.6496098 2.3452079 2.255928e-38
0.25902009 -0.64943367 2.3399417 2.255928e-38
0.30012986 -0.65009946 2.3359413 2.255928e-38
0.34022725 -0.65217853 2.336251 2.255928e-38
0.38117161 -0.65300781 2.3354573 2.255928e-38
0.4206042 -0.64977789 2.3388627 2.255928e-38
0.46002409 -0.65159398 2.3372226 2.255928e-38
0.50065905 -0.65057462 2.3411722 2.255928e-38
0.53908485 -0.65238714 2.3361771 2.255928e-38
0.57929939 -0.65845096 2.3419476 2.255928e-38
0.61917329 -0.65717804 2.3386519 2.255928e-38
0.65682888 -0.65687937 2.3386042 2.255928e-38
0.69723117 -0.65866327 2.3378503 2.255928e-38
0.73933637 -0.65674955 2.3401511 2.255928e-38
0.77938402 -0.65785319 2.3411641 2.255928e-38
0.81896341 -0.66168576 2.3402092 2.255928e-38
0.86237407 -0.66051781 2.3369243 2.255928e-38
0.89982641 -0.65568292 2.336082 2.255928e-38
0.94114071 -0.65276241 2.3374689 2.255928e-38
0.98112541 -0.6537565 2.3408675 2.255928e-38
1.0173078 -0.64679235 2.33745 2.255928e-38
1.0608329 -0.64580262 2.3320918 2.255928e-38
1.0955756 -0.64250904 2.3319232 2.255928e-38
-0.25538346 -0.62479097 2.3299778 2.255928e-38
-0.22102535 -0.61821091 2.3412228 2.255928e-38
-0.18323101 -0.615197 2.3510003 2.255928e-38
0.14314479 -0.63259721 2.3590007 2.255928e-38
0.1933796 -0.63233435 2.3532863 2.255928e-38
0.21093707 -0.63181263 2.3590004 2.255928e-38
0.26000062 -0.63458121 2.3590004 2.255928e-38
0.30532566 -0.63409263 2.3554451 2.255928e-38
0.34053975 -0.63294441 2.354295 2.255928e-38
0.37851715 -0.6345278 2.3518 2.255928e-38
0.40798694 -0.63357884 2.3570001 2.255928e-38
0.47195596 -0.63470209 2.3570004 2.255928e-38
0.49988338 -0.63580662 2.3590002 2.255928e-38
0.54327297 -0.63552868 2.354429 2.255928e-38
0.5639134 -0.63580668 2.3590002 2.255928e-38
0.61783338 -0.63356 2.3590002 2.255928e-38
0.65883839 -0.63584429 2.3550005 2.255928e-38
0.94809341 -0.63580668 2.3590002 2.255928e-38
0.9802956 -0.63505781 2.3590002 2.255928e-38
1.0253996 -0.62974137 2.3531823 2.255928e-38
1.0643977 -0.62224191 2.347445 2.255928e-38
1.0968918 -0.62076628 2.3351076 2.255928e-38
-0.24156478 -0.59393907 2.3270001 2.255928e-38
-0.21885489 -0.58487368 2.3273492 2.255928e-38
-0.18531123 -0.58391422 2.351001 2.255928e-38
1.0724467 -0.57798314 2.3416679 2.255928e-38
1.0915041 -0.57938415 2.3270009 2.255928e-38
-0.21201557 -0.55183148 2.3270001 2.255928e-38
1.0677036 -0.539922 2.3411458 2.255928e-38
1.0841606 -0.54030728 2.3269999 2.255928e-38
1.0635605 -0.49961567 2.3435252 2.255928e-38
1.0315638 -0.45786616 2.351001 2.255928e-38
1.0563323 -0.46096745 2.3382826 2.255928e-38
1.0305369 -0.42191526 2.3506675 2.255928e-38
1.0500726 -0.4234769 2.338201 2.255928e-38
1.0229288 -0.37825194 2.3441854 2.255928e-38
1.0464684 -0.37972704 2.331645 2.255928e-38
0.99976677 -0.32801336 2.3590002 2.255928e-38
1.0202687 -0.34039527 2.3386631 2.255928e-38
1.0438257 -0.34572572 2.3270001 2.255928e-38
0.99577546 -0.29659268 2.3492858 2.255928e-38
1.0167344 -0.29964861 2.3339479 2.255928e-38
1.0424533 -0.28308004 2.3590002 2.255928e-38
0.97902703 -0.27371144 2.353667 2.255928e-38
1.0166427 -0.27577874 2.3440671 2.255928e-38
1.047508 -0.27347738 2.3429999 2.255928e-38
0.036567144 -0.17175476 2.3270001 2.255928e-38
0.060774289 -0.17515264 2.3494008 2.255928e-38
0.084025338 -0.17029735 2.3590002 2.255928e-38
0.037675239 -0.15291715 2.3270001 2.255928e-38
0.060693514 -0.1405149 2.3329494 2.255928e-38
0.092927903 -0.13351369 2.351728 2.255928e-38
0.12356667 -0.12356667 2.3590002 2.255928e-38
0.023398612 -0.10436609 2.3319228 2.255928e-38
0.072793335 -0.10279717 2.3269999 2.255928e-38
0.10049763 -0.10046376 2.3439882 2.255928e-38
0.12536401 -0.10469468 2.3590004 2.255928e-38
0.020128574 -0.073804766 2.3483338 2.255928e-38
0.076089218 -0.074611753 2.3270001 2.255928e-38
0.10395858 -0.062844299 2.3332961 2.255928e-38
0.13479827 -0.057960093 2.3564911 2.255928e-38
0.1121271 -0.032257508 2.3294616 2.255928e-38
0.14004914 -0.019631701 2.3401649 2.255928e-38
0.16754028 -0.010894967 2.354429 2.255928e-38
0.14526764 0.016754717 2.3305569 2.255928e-38
0.17258209 0.020803832 2.3476231 2.255928e-38
0.15544994 0.047806397 2.3270001 2.255928e-38
0.18357258 0.058502406 2.3364553 2.255928e-38
0.21577236 0.066854693 2.3496346 2.255928e-38
0.18481447 0.097512379 2.3270016 2.255928e-38
0.21847953 0.1006432 2.3427753 2.255928e-38
0.24039336 0.11682668 2.3590002 2.255928e-38
0.19724098 0.12632287 2.3270001 2.255928e-38
0.224584 0.13922989 2.3370752 2.255928e-38
0.25325942 0.14507581 2.3571403 2.255928e-38
0.22768933 0.17757452 2.3308272 2.255928e-38
0.25953493 0.18204354 2.3443155 2.255928e-38
0.28719321 0.19166036 2.3575461 2.255928e-38
0.23325406 0.20665979 2.3269999 2.255928e-38
0.26388985 0.21806423 2.3326783 2.255928e-38
0.29352742 0.22449332 2.3535268 2.255928e-38
0.26981252 0.25663176 2.3274453 2.255928e-38
0.30098793 0.2602039 2.3416512 2.255928e-38
0.33038902 0.26319307 2.351001 2.255928e-38
0.27449104 0.28588861 2.3270001 2.255928e-38
0.29999769 0.2937485 2.3319468 2.255928e-38
0.3367385 0.29466709 2.3433487 2.255928e-38
-0.2013943 -0.64038861 2.3760002 2.255928e-38
-0.19008002 -0.64265144 2.3760002 2.255928e-38
0.0792 -0.64265144 2.3760002 2.255928e-38
0.10001829 -0.64084113 2.3760002 2.255928e-38
0.13124572 -0.64038861 2.3760002 2.255928e-38
0.16971429 -0.64038861 2.3760002 2.255928e-38
0.23081145 -0.64038861 2.3760002 2.255928e-38
0.24212573 -0.64038861 2.3760002 2.255928e-38
0.43249696 -0.64179218 2.3831112 2.255928e-38
0.45043048 -0.64255488 2.3826668 2.255928e-38
0.5136686 -0.64038861 2.3760002 2.255928e-38
0.58815384 -0.64488083 2.3782854 2.255928e-38
0.61483854 -0.64201212 2.3774545 2.255928e-38
0.65910757 -0.64024925 2.3851433 2.255928e-38
0.70123547 -0.64302754 2.3834281 2.255928e-38
0.73998427 -0.64309984 2.3826201 2.255928e-38
0.782556 -0.64592677 2.3883862 2.255928e-38
0.82099396 -0.64513254 2.3811605 2.255928e-38
0.86129326 -0.64877892 2.3893328 2.255928e-38
0.90016395 -0.64248294 2.3820684 2.255928e-38
0.93261635 -0.64232039 2.3813334 2.255928e-38
0.98291248 -0.64148951 2.3780003 2.255928e-38
1.0124024 -0.64219892 2.3760002 2.255928e-38
-0.20365715 -0.6336 2.3760002 2.255928e-38
-0.18411429 -0.62907434 2.3759999 2.255928e-38
0.079167843 -0.62195051 2.3902223 2.255928e-38
0.10099344 -0.62890667 2.3888688 2.255928e-38
0.13722128 -0.62210482 2.3869467 2.255928e-38
0.17884983 -0.62564343 2.3852301 2.255928e-38
0.22103454 -0.62544942 2.382755 2.255928e-38
0.25899267 -0.62877613 2.3844204 2.255928e-38
0.300639 -0.62730366 2.3865447 2.255928e-38
0.33947188 -0.62181872 2.3875735 2.255928e-38
0.381924 -0.62608618 2.3864341 2.255928e-38
0.41809675 -0.62477356 2.3876071 2.255928e-38
0.46577999 -0.62857318 2.3864994 2.255928e-38
0.50033504 -0.62602919 2.3850172 2.255928e-38
0.54012579 -0.62476295 2.3855481 2.255928e-38
0.57959026 -0.6295535 2.3855131 2.255928e-38
0.62089032 -0.62918919 2.3860564 2.255928e-38
0.65541989 -0.63247651 2.3895378 2.255928e-38
0.69937539 -0.63103241 2.3919995 2.255928e-38
0.73297721 -0.63188672 2.3920002 2.255928e-38
0.78338009 -0.63359529 2.3920002 2.255928e-38
0.81666297 -0.63214338 2.3904757 2.255928e-38
0.85884196 -0.63558859 2.3920002 2.255928e-38
0.89984769 -0.63558859 2.3920002 2.255928e-38
0.94602954 -0.63375843 2.3869472 2.255928e-38
0.98062146 -0.63168061 2.3866661 2.255928e-38
1.0184 -0.62439197 2.3853016 2.255928e-38
1.0578184 -0.61491442 2.3834138 2.255928e-38
1.0631473 -0.58292443 2.3844521 2.255928e-38
1.0365335 -0.52168387 2.3920002 2.255928e-38
1.0574261 -0.5376572 2.3891754 2.255928e-38
1.0333797 -0.4948431 2.3912375 2.255928e-38
1.0518283 -0.50482887 2.3851907 2.255928e-38
1.0235661 -0.46100372 2.3837411 2.255928e-38
1.0234754 -0.41650972 2.3836184 2.255928e-38
0.99552768 -0.3804419 2.3920002 2.255928e-38
1.0083009 -0.38067043 2.3882098 2.255928e-38
0.99278802 -0.33356714 2.3894734 2.255928e-38
1.0043217 -0.34264013 2.3872588 2.255928e-38
0.98230726 -0.29799229 2.3868978 2.255928e-38
1.0024458 -0.30774859 2.3760004 2.255928e-38
1.047703 -0.28285718 2.3760002 2.255928e-38
0.97599852 -0.27320433 2.386667 2.255928e-38
1.0597715 -0.27380574 2.3760002 2.255928e-38
0.074746132 -0.20417851 2.3782859 2.255928e-38
0.097806916 -0.21418795 2.3911572 2.255928e-38
0.073542856 -0.19404 2.3760002 2.255928e-38
0.099332474 -0.17906328 2.3841395 2.255928e-38
0.12854968 -0.16369744 2.3920002 2.255928e-38
0.10675174 -0.14502311 2.3791108 2.255928e-38
0.13544977 -0.13973793 2.3898029 2.255928e-38
0.1427097 -0.099966057 2.384701 2.255928e-38
0.16565011 -0.098608993 2.3919997 2.255928e-38
0.15111515 -0.067629948 2.3782859 2.255928e-38
0.17485939 -0.056473728 2.3904302 2.255928e-38
0.15613715 -0.038468573 2.3760002 2.255928e-38
0.18427445 -0.022998551 2.3854907 2.255928e-38
0.20857227 -0.011137355 2.392 2.255928e-38
0.19172147 0.019192943 2.3765924 2.255928e-38
0.21930255 0.021329219 2.388324 2.255928e-38
0.22695844 0.052580524 2.3806446 2.255928e-38
0.25100741 0.067948848 2.3897138 2.255928e-38
0.23920001 0.084289528 2.3920002 2.255928e-38
