# .PCD v0.7 - Point Cloud Data file format
VERSION 0.7
FIELDS x y z rgb
SIZE 4 4 4 4
TYPE F F F F
COUNT 1 1 1 1
WIDTH 1026
HEIGHT 1
VIEWPOINT 0 0 0 1 0 0 0
POINTS 1026
DATA ascii
-0.46475616 -0.4540745 2.1115463 4.2703085e-39
1.0896467 -0.45856261 2.1064167 4.2703085e-39
-0.48410666 -0.42577523 2.0880001 4.2703085e-39
-0.45991459 -0.42019531 2.0981359 4.2703085e-39
-0.43040594 -0.40781185 2.1139998 4.2703085e-39
1.0728244 -0.41852561 2.1026249 4.2703085e-39
1.0864742 -0.42073849 2.1014199 4.2703085e-39
-0.45031467 -0.39268294 2.0930004 4.2703085e-39
-0.4217492 -0.38082546 2.1058323 4.2703085e-39
-0.39317527 -0.38972384 2.1140003 4.2703085e-39
1.065322 -0.37485024 2.1090469 4.2703085e-39
1.0864229 -0.37832403 2.1067071 4.2703085e-39
1.0712757 -0.33885255 2.1061203 4.2703085e-39
1.0850323 -0.34071416 2.1005523 4.2703085e-39
1.0714216 -0.29840627 2.100199 4.2703085e-39
1.0832022 -0.30953717 2.0937779 4.2703085e-39
1.0316696 -0.25024447 2.1075001 4.2703085e-39
1.0557251 -0.25963274 2.1014421 4.2703085e-39
0.94626671 -0.22952001 2.1140001 4.2703085e-39
1.0291442 -0.23744635 2.1010001 4.2703085e-39
1.0470886 -0.23439722 2.0907857 4.2703085e-39
-0.058386669 0.11878667 2.1140001 4.2703085e-39
-0.05555933 0.14364347 2.1070144 4.2703085e-39
-0.029343303 0.14887597 2.1124699 4.2703085e-39
-0.058448352 0.17965493 2.0923319 4.2703085e-39
-0.023456139 0.18254796 2.1059358 4.2703085e-39
0.0020133334 0.19328001 2.1140001 4.2703085e-39
-0.058892306 0.20329319 2.0879998 4.2703085e-39
-0.01901651 0.21889049 2.0949776 4.2703085e-39
0.0050271433 0.22647181 2.1101 4.2703085e-39
-0.010288696 0.25496945 2.0879996 4.2703085e-39
0.017134055 0.26436913 2.1051042 4.2703085e-39
0.044964448 0.27582669 2.1140001 4.2703085e-39
-0.0046399999 0.28304002 2.0880003 4.2703085e-39
0.021770399 0.29851297 2.0962322 4.2703085e-39
0.047408503 0.30620453 2.1096666 4.2703085e-39
0.028778458 0.33279926 2.0885773 4.2703085e-39
0.056307361 0.33859497 2.0970685 4.2703085e-39
0.050377153 0.36722288 2.0879998 4.2703085e-39
-0.65642345 -0.77934736 2.1269994 4.2703085e-39
-0.62062222 -0.77520519 2.1307969 4.2703085e-39
-0.57349795 -0.76625425 2.1369045 4.2703085e-39
-0.53913695 -0.76944619 2.1366565 4.2703085e-39
-0.49778208 -0.76973712 2.1334081 4.2703085e-39
-0.46056077 -0.77021867 2.133662 4.2703085e-39
-0.42053303 -0.76848543 2.1363106 4.2703085e-39
-0.3802321 -0.7688688 2.1353195 4.2703085e-39
-0.34659943 -0.77244419 2.1282678 4.2703085e-39
-0.29474062 -0.76467937 2.1345482 4.2703085e-39
-0.26946151 -0.76516443 2.1366448 4.2703085e-39
-0.21125309 -0.76658827 2.1270006 4.2703085e-39
-0.1964943 -0.76572001 2.1270001 4.2703085e-39
-0.12453961 -0.76092905 2.1437147 4.2703085e-39
-0.10020739 -0.76314259 2.1403608 4.2703085e-39
-0.076724008 -0.76355904 2.1426001 4.2703085e-39
-0.64850241 -0.74376571 2.1269996 4.2703085e-39
-0.62074524 -0.74038827 2.1355767 4.2703085e-39
-0.58635557 -0.7427308 2.1431041 4.2703085e-39
-0.54884416 -0.75252479 2.1530004 4.2703085e-39
-0.50869972 -0.75688636 2.1360004 4.2703085e-39
-0.45731789 -0.75560498 2.1501112 4.2703085e-39
-0.4262512 -0.75640053 2.1474285 4.2703085e-39
-0.37783921 -0.75567669 2.1511428 4.2703085e-39
-0.3377569 -0.75332785 2.1407645 4.2703085e-39
-0.3032957 -0.75272894 2.1419997 4.2703085e-39
-0.2562854 -0.75331235 2.1450729 4.2703085e-39
-0.22030531 -0.7526713 2.1418569 4.2703085e-39
-0.17929095 -0.75214559 2.1434665 4.2703085e-39
-0.13902882 -0.7489329 2.1479218 4.2703085e-39
-0.10189904 -0.75014114 2.150234 4.2703085e-39
-0.059856635 -0.73933589 2.143049 4.2703085e-39
-0.020306997 -0.73887372 2.142031 4.2703085e-39
0.020910595 -0.74156016 2.1428747 4.2703085e-39
0.06009867 -0.74171287 2.142921 4.2703085e-39
0.099992044 -0.73757613 2.1405196 4.2703085e-39
0.13968849 -0.7398023 2.1406767 4.2703085e-39
0.17769399 -0.73833293 2.1408567 4.2703085e-39
0.21999779 -0.73215103 2.131727 4.2703085e-39
0.25945783 -0.73193657 2.135381 4.2703085e-39
0.30086017 -0.7323997 2.1342795 4.2703085e-39
0.34157631 -0.7318458 2.1325078 4.2703085e-39
0.37956175 -0.73461342 2.1362638 4.2703085e-39
0.41986075 -0.73362762 2.1321008 4.2703085e-39
0.45807558 -0.73081201 2.1351244 4.2703085e-39
0.49892348 -0.72733295 2.1338542 4.2703085e-39
0.53738689 -0.72633892 2.1292937 4.2703085e-39
0.57985419 -0.72850126 2.134428 4.2703085e-39
0.61699653 -0.72630149 2.1302497 4.2703085e-39
0.66450107 -0.73048532 2.1336756 4.2703085e-39
0.69792473 -0.72653222 2.1371737 4.2703085e-39
0.72572148 -0.72367096 2.1465001 4.2703085e-39
0.87713432 -0.72318006 2.1270001 4.2703085e-39
-0.64215147 -0.71912861 2.1270001 4.2703085e-39
-0.61340797 -0.70270717 2.1304781 4.2703085e-39
-0.57815701 -0.70054871 2.1373687 4.2703085e-39
-0.55760878 -0.69361591 2.1518183 4.2703085e-39
-0.054542672 -0.7197172 2.1530001 4.2703085e-39
-0.029116763 -0.7197172 2.1530001 4.2703085e-39
0.028706666 -0.7197172 2.1530001 4.2703085e-39
0.19283396 -0.71583569 2.1465001 4.2703085e-39
0.2201466 -0.71479654 2.1458807 4.2703085e-39
0.26191106 -0.71787953 2.1522779 4.2703085e-39
0.29416615 -0.7186414 2.1505625 4.2703085e-39
0.33971509 -0.71503353 2.1456215 4.2703085e-39
0.36601001 -0.71869195 2.1530001 4.2703085e-39
0.42107806 -0.71794116 2.14975 4.2703085e-39
0.46269572 -0.71862453 2.14975 4.2703085e-39
0.50474763 -0.7188431 2.1504002 4.2703085e-39
0.54237092 -0.7156027 2.1422746 4.2703085e-39
0.5766986 -0.71712077 2.1464999 4.2703085e-39
0.62069106 -0.71449965 2.1479824 4.2703085e-39
0.65611225 -0.7164979 2.1461387 4.2703085e-39
0.70410365 -0.71793187 2.1492083 4.2703085e-39
0.74318904 -0.71153414 2.1449242 4.2703085e-39
0.77717453 -0.70702255 2.1418867 4.2703085e-39
0.82313794 -0.71018082 2.143441 4.2703085e-39
0.86046791 -0.70418501 2.1411371 4.2703085e-39
0.90007782 -0.70258516 2.1426709 4.2703085e-39
0.93621522 -0.69270402 2.1433833 4.2703085e-39
0.98147601 -0.6948269 2.1403997 4.2703085e-39
1.0198705 -0.69230175 2.1323647 4.2703085e-39
1.0493963 -0.68955863 2.1330934 4.2703085e-39
1.102934 -0.69595158 2.1327348 4.2703085e-39
-0.60753018 -0.66486394 2.1269996 4.2703085e-39
-0.57556862 -0.6633361 2.1290355 4.2703085e-39
-0.54624432 -0.65504789 2.1479018 4.2703085e-39
0.94371569 -0.67278522 2.1515555 4.2703085e-39
0.96987528 -0.67050576 2.1530001 4.2703085e-39
1.0204889 -0.66708422 2.1465821 4.2703085e-39
1.0587947 -0.67074668 2.1463671 4.2703085e-39
1.0991863 -0.67186701 2.1483777 4.2703085e-39
1.1216105 -0.67460674 2.1530004 4.2703085e-39
-0.60163718 -0.6360743 2.1270001 4.2703085e-39
-0.57015169 -0.62664026 2.1269996 4.2703085e-39
-0.54131025 -0.61975628 2.1340225 4.2703085e-39
-0.51234555 -0.60858482 2.14975 4.2703085e-39
1.1124245 -0.61555302 2.1529999 4.2703085e-39
1.1216105 -0.6192438 2.1530001 4.2703085e-39
-0.53577554 -0.58771688 2.1269996 4.2703085e-39
-0.50292283 -0.5770545 2.1417651 4.2703085e-39
-0.4721688 -0.56760913 2.1530001 4.2703085e-39
1.1063682 -0.57967836 2.1525002 4.2703085e-39
1.1216105 -0.58028477 2.1530001 4.2703085e-39
-0.52263433 -0.5523448 2.1270001 4.2703085e-39
-0.49584767 -0.54097611 2.1298695 4.2703085e-39
-0.46626264 -0.53858829 2.1446126 4.2703085e-39
1.0753167 -0.54210585 2.1515555 4.2703085e-39
1.0988245 -0.54029453 2.1483369 4.2703085e-39
1.1216105 -0.55978006 2.1530001 4.2703085e-39
-0.48519608 -0.50425285 2.1269999 4.2703085e-39
-0.45738626 -0.49974176 2.1338031 4.2703085e-39
-0.42834449 -0.48821846 2.1530001 4.2703085e-39
-0.37441698 -0.49006388 2.1530001 4.2703085e-39
1.074636 -0.50385797 2.1530001 4.2703085e-39
1.0943825 -0.5012697 2.1452811 4.2703085e-39
-0.45281863 -0.46775967 2.1312244 4.2703085e-39
-0.42225519 -0.45953855 2.139524 4.2703085e-39
-0.38753378 -0.46117306 2.1504722 4.2703085e-39
1.0702068 -0.4537102 2.1478 4.2703085e-39
1.0892613 -0.46265194 2.140609 4.2703085e-39
-0.44363144 -0.43958002 2.1270001 4.2703085e-39
-0.41762462 -0.42384034 2.1293364 4.2703085e-39
-0.38549009 -0.42029831 2.1423633 4.2703085e-39
1.0657221 -0.41847709 2.1399996 4.2703085e-39
1.0879748 -0.42119741 2.1372914 4.2703085e-39
-0.41040975 -0.39825544 2.1270001 4.2703085e-39
-0.39177313 -0.39825544 2.1270001 4.2703085e-39
1.0395914 -0.39574191 2.1530001 4.2703085e-39
1.0573775 -0.38103244 2.1418774 4.2703085e-39
1.0869082 -0.39276353 2.1270001 4.2703085e-39
1.0380142 -0.33485854 2.1530001 4.2703085e-39
1.054493 -0.33971545 2.1384106 4.2703085e-39
1.030118 -0.2979438 2.1477499 4.2703085e-39
1.0545219 -0.30155903 2.1338415 4.2703085e-39
1.0336359 -0.26353008 2.1420889 4.2703085e-39
1.0492241 -0.2755836 2.1302505 4.2703085e-39
0.95425504 -0.23576215 2.1432502 4.2703085e-39
-0.042800002 0.079485722 2.1400001 4.2703085e-39
-0.022198731 0.074075334 2.1496296 4.2703085e-39
-0.051325418 0.10391825 2.1349587 4.2703085e-39
-0.021073136 0.10089619 2.146076 4.2703085e-39
0.0066338936 0.10771032 2.1530001 4.2703085e-39
-0.065310955 0.13324545 2.1296 4.2703085e-39
-0.015756933 0.134496 2.1333084 4.2703085e-39
0.01548346 0.14382803 2.1503999 4.2703085e-39
-0.0077983523 0.17199014 2.1304998 4.2703085e-39
0.020821391 0.17933539 2.1432498 4.2703085e-39
0.047720175 0.18845743 2.1530001 4.2703085e-39
0.023750069 0.21805739 2.1325481 4.2703085e-39
0.056500703 0.22386827 2.1471407 4.2703085e-39
0.028997237 0.24937041 2.1299353 4.2703085e-39
0.061468378 0.26051873 2.1399994 4.2703085e-39
0.092672952 0.26714551 2.1519461 4.2703085e-39
0.065376177 0.29879239 2.1346262 4.2703085e-39
0.095185421 0.30141923 2.1449704 4.2703085e-39
0.076198027 0.3301914 2.1270003 4.2703085e-39
0.097539 0.33711332 2.1395869 4.2703085e-39
-0.57029939 -0.76154584 2.1670003 4.2703085e-39
-0.54165614 -0.76267141 2.1670001 4.2703085e-39
-0.50081778 -0.76154578 2.1670001 4.2703085e-39
-0.42308098 -0.76154578 2.1670001 4.2703085e-39
-0.38180476 -0.76154578 2.1670001 4.2703085e-39
-0.60882384 -0.75329047 2.1670001 4.2703085e-39
-0.57495862 -0.74503517 2.1670001 4.2703085e-39
-0.53938931 -0.73899293 2.1752684 4.2703085e-39
-0.50005782 -0.74080634 2.1836405 4.2703085e-39
-0.46174556 -0.74652022 2.1832104 4.2703085e-39
-0.42026815 -0.74958932 2.1808956 4.2703085e-39
-0.38073075 -0.74686533 2.1799302 4.2703085e-39
-0.34177157 -0.7398476 2.179395 4.2703085e-39
-0.2978375 -0.7370429 2.1768224 4.2703085e-39
-0.2597504 -0.73702121 2.1794827 4.2703085e-39
-0.21911308 -0.73237664 2.1767337 4.2703085e-39
-0.18056326 -0.73139602 2.1763484 4.2703085e-39
-0.14180669 -0.73015875 2.174916 4.2703085e-39
-0.099143736 -0.73385674 2.1780741 4.2703085e-39
-0.066119775 -0.72572142 2.1758385 4.2703085e-39
-0.014848028 -0.72250295 2.1690001 4.2703085e-39
0.018862778 -0.72252321 2.1731389 4.2703085e-39
0.062067572 -0.7254647 2.1755712 4.2703085e-39
0.098524213 -0.7242704 2.1785555 4.2703085e-39
0.14356637 -0.72392595 2.1751177 4.2703085e-39
0.17169702 -0.72261155 2.1767082 4.2703085e-39
0.25384858 -0.72026956 2.1670001 4.2703085e-39
0.30978063 -0.72083914 2.1701112 4.2703085e-39
0.38615409 -0.7230106 2.1706843 4.2703085e-39
0.40308619 -0.72142625 2.1705 4.2703085e-39
0.46102148 -0.72124225 2.1685555 4.2703085e-39
0.50098979 -0.72078556 2.1670001 4.2703085e-39
0.58818573 -0.72026962 2.1670001 4.2703085e-39
0.60056859 -0.72026956 2.1670001 4.2703085e-39
0.69687974 -0.72026956 2.1670003 4.2703085e-39
0.73265243 -0.72026956 2.1670001 4.2703085e-39
-0.56342 -0.71407807 2.1670001 4.2703085e-39
-0.53892493 -0.70087463 2.1739793 4.2703085e-39
-0.50228059 -0.69852108 2.1889553 4.2703085e-39
-0.20268381 -0.71670663 2.194 4.2703085e-39
-0.052659176 -0.71415871 2.1874092 4.2703085e-39
-0.019939439 -0.7117328 2.1862726 4.2703085e-39
0.018043108 -0.71336913 2.1913238 4.2703085e-39
0.060179591 -0.71056539 2.1922669 4.2703085e-39
0.10374016 -0.70467931 2.1928 4.2703085e-39
0.13645133 -0.70652771 2.1896887 4.2703085e-39
0.18081816 -0.70902914 2.1895967 4.2703085e-39
0.21931958 -0.70346135 2.1827896 4.2703085e-39
0.26103684 -0.70595568 2.1821446 4.2703085e-39
0.30045685 -0.70520616 2.1858838 4.2703085e-39
0.3389093 -0.70263439 2.1851857 4.2703085e-39
0.38024828 -0.70590442 2.1838033 4.2703085e-39
0.41905764 -0.7056548 2.1820247 4.2703085e-39
0.46132973 -0.70311004 2.1826022 4.2703085e-39
0.49963647 -0.70366836 2.1773145 4.2703085e-39
0.54045677 -0.70110482 2.1815336 4.2703085e-39
0.57991606 -0.69989437 2.1817687 4.2703085e-39
0.61832112 -0.69939214 2.1766098 4.2703085e-39
0.66235024 -0.70051157 2.1785402 4.2703085e-39
0.70029652 -0.70058566 2.1769562 4.2703085e-39
0.7362318 -0.69871128 2.1765513 4.2703085e-39
0.77915949 -0.69251513 2.1783102 4.2703085e-39
0.82129359 -0.69387698 2.1766677 4.2703085e-39
0.85991096 -0.68837672 2.1717231 4.2703085e-39
0.90041023 -0.68775755 2.1709778 4.2703085e-39
0.94109714 -0.68312097 2.1670001 4.2703085e-39
0.98481244 -0.68687338 2.1670001 4.2703085e-39
1.0030113 -0.6893124 2.1670001 4.2703085e-39
-0.53273225 -0.66580307 2.1670001 4.2703085e-39
-0.50081736 -0.66130316 2.1770949 4.2703085e-39
-0.47623068 -0.65089279 2.1889446 4.2703085e-39
0.11701334 -0.67909521 2.194 4.2703085e-39
0.57461905 -0.67909521 2.194 4.2703085e-39
0.83371997 -0.67909521 2.194 4.2703085e-39
0.86201578 -0.67592925 2.1862309 4.2703085e-39
0.90088868 -0.6763981 2.1843078 4.2703085e-39
0.94145328 -0.6687848 2.1762679 4.2703085e-39
0.98147964 -0.66227251 2.179076 4.2703085e-39
1.0201472 -0.65655589 2.1813128 4.2703085e-39
1.0636606 -0.65463877 2.1767638 4.2703085e-39
1.0998482 -0.6545769 2.1734197 4.2703085e-39
1.1255308 -0.65687108 2.1695454 4.2703085e-39
-0.52420765 -0.63152575 2.1670001 4.2703085e-39
-0.49681908 -0.62187678 2.1695468 4.2703085e-39
-0.46298426 -0.61758673 2.1860731 4.2703085e-39
1.0259562 -0.63625997 2.194 4.2703085e-39
1.0676514 -0.63768286 2.181 4.2703085e-39
1.1011393 -0.62235332 2.1833303 4.2703085e-39
1.1206486 -0.61501527 2.1670001 4.2703085e-39
-0.48596647 -0.5889141 2.1670001 4.2703085e-39
-0.45716459 -0.58246005 2.1777956 4.2703085e-39
-0.43031311 -0.57494396 2.1906574 4.2703085e-39
1.0769784 -0.56876397 2.1807144 4.2703085e-39
1.0938131 -0.58332533 2.1808155 4.2703085e-39
-0.44904071 -0.54751945 2.1698823 4.2703085e-39
-0.4215906 -0.53897488 2.1826701 4.2703085e-39
-0.39032301 -0.53450012 2.194 4.2703085e-39
1.0740846 -0.54221362 2.1818299 4.2703085e-39
1.0859048 -0.53310573 2.1801922 4.2703085e-39
-0.41697788 -0.50293982 2.1706009 4.2703085e-39
-0.38514027 -0.49902302 2.1732609 4.2703085e-39
-0.32805523 -0.51402283 2.194 4.2703085e-39
1.0384933 -0.48685902 2.194 4.2703085e-39
1.0651683 -0.49509758 2.1886523 4.2703085e-39
1.086418 -0.50230163 2.1750324 4.2703085e-39
-0.40698329 -0.46807203 2.1670001 4.2703085e-39
-0.39418766 -0.46229336 2.1670001 4.2703085e-39
1.0384933 -0.44088951 2.194 4.2703085e-39
1.0614554 -0.46040297 2.1864789 4.2703085e-39
1.0835 -0.47674003 2.1670001 4.2703085e-39
1.0347123 -0.4180043 2.194 4.2703085e-39
1.0520905 -0.42128372 2.1818266 4.2703085e-39
1.0802838 -0.43044189 2.194 4.2703085e-39
1.0321066 -0.3782919 2.190439 4.2703085e-39
1.0447316 -0.38045236 2.1778839 4.2703085e-39
1.0290625 -0.34041703 2.1795282 4.2703085e-39
1.0429569 -0.35239118 2.171 4.2703085e-39
1.0203327 -0.30106741 2.1786504 4.2703085e-39
0.95967144 -0.24146572 2.1670001 4.2703085e-39
0.98695177 -0.24308126 2.194 4.2703085e-39
1.0240872 -0.26023081 2.1764839 4.2703085e-39
1.0442703 -0.24547118 2.1842501 4.2703085e-39
0.95967144 -0.23527429 2.1670001 4.2703085e-39
1.0240314 -0.23887143 2.181 4.2703085e-39
1.04688 -0.23887143 2.181 4.2703085e-39
0.0062685711 0.039700951 2.194 4.2703085e-39
-0.0059635988 0.065621786 2.1685555 4.2703085e-39
0.016859608 0.063698366 2.1870637 4.2703085e-39
-0.0020638097 0.086679995 2.1670001 4.2703085e-39
0.023484662 0.097908147 2.1798303 4.2703085e-39
0.051840089 0.10248618 2.194 4.2703085e-39
0.030090641 0.13207009 2.1718001 4.2703085e-39
0.057215057 0.14286628 2.1851976 4.2703085e-39
0.03921238 0.16304097 2.1670001 4.2703085e-39
0.064002253 0.17736579 2.1770003 4.2703085e-39
0.086597733 0.18571737 2.1930003 4.2703085e-39
0.071262427 0.21196474 2.1675599 4.2703085e-39
0.09589687 0.22360344 2.1863663 4.2703085e-39
0.12537143 0.23193714 2.1940002 4.2703085e-39
0.10661075 0.25472873 2.1777894 4.2703085e-39
0.13364881 0.26690066 2.1916666 4.2703085e-39
0.11436176 0.29796308 2.168077 4.2703085e-39
0.13989347 0.29990819 2.1850219 4.2703085e-39
0.16953003 0.30994603 2.194 4.2703085e-39
0.11576334 0.32661188 2.1705 4.2703085e-39
0.13338952 0.32668188 2.183476 4.2703085e-39
-0.48333621 -0.72501153 2.2130001 4.2703085e-39
-0.46125433 -0.73081112 2.2161577 4.2703085e-39
-0.42054808 -0.732512 2.2167866 4.2703085e-39
-0.38006449 -0.73010415 2.2191501 4.2703085e-39
-0.34003505 -0.72747028 2.2116487 4.2703085e-39
-0.30710566 -0.72654951 2.2092001 4.2703085e-39
-0.26395431 -0.72475433 2.2080002 4.2703085e-39
-0.22266923 -0.7217474 2.2080002 4.2703085e-39
-0.18014479 -0.72268206 2.2080002 4.2703085e-39
-0.13902657 -0.72284275 2.2097647 4.2703085e-39
-0.1018624 -0.72464478 2.2080002 4.2703085e-39
-0.075827859 -0.72249794 2.21175 4.2703085e-39
-0.484988 -0.70629728 2.2121999 4.2703085e-39
-0.45869917 -0.70099425 2.2281172 4.2703085e-39
-0.42249563 -0.70695835 2.2338889 4.2703085e-39
-0.38079044 -0.71474701 2.2354999 4.2703085e-39
-0.33858931 -0.70814061 2.2262757 4.2703085e-39
-0.3001765 -0.71042454 2.2228 4.2703085e-39
-0.25937802 -0.70599079 2.2230136 4.2703085e-39
-0.2213705 -0.70644414 2.2234445 4.2703085e-39
-0.18083675 -0.70956224 2.2224693 4.2703085e-39
-0.13868545 -0.70745045 2.2287147 4.2703085e-39
-0.10013276 -0.70773917 2.2228067 4.2703085e-39
-0.060716126 -0.70004821 2.2193422 4.2703085e-39
-0.019653294 -0.70057434 2.2207916 4.2703085e-39
0.020426625 -0.6995815 2.2172821 4.2703085e-39
0.058309294 -0.69925392 2.2096074 4.2703085e-39
0.094055645 -0.69727105 2.2087145 4.2703085e-39
0.14546289 -0.69641155 2.2080002 4.2703085e-39
0.18209679 -0.69397467 2.2110205 4.2703085e-39
0.22154064 -0.68834186 2.2197752 4.2703085e-39
0.25842384 -0.68920529 2.2147059 4.2703085e-39
0.3034595 -0.68849021 2.219238 4.2703085e-39
0.34202453 -0.68643647 2.2126563 4.2703085e-39
0.3803685 -0.69063759 2.2213395 4.2703085e-39
0.42015088 -0.68866044 2.2207885 4.2703085e-39
0.45907822 -0.68859601 2.2244997 4.2703085e-39
0.50209236 -0.68755978 2.2128751 4.2703085e-39
0.53720152 -0.685965 2.2120385 4.2703085e-39
0.58478129 -0.68434489 2.2126875 4.2703085e-39
0.62184942 -0.68822795 2.2137692 4.2703085e-39
0.65949959 -0.68659908 2.214 4.2703085e-39
0.70122248 -0.68541634 2.2201176 4.2703085e-39
0.7424776 -0.68785816 2.2157145 4.2703085e-39
0.77910858 -0.68553156 2.2080002 4.2703085e-39
0.81705564 -0.68667859 2.2080002 4.2703085e-39
0.8432458 -0.68342859 2.2080002 4.2703085e-39
-0.48155436 -0.67501724 2.2080002 4.2703085e-39
-0.45917001 -0.66248405 2.2191029 4.2703085e-39
-0.42653272 -0.65766758 2.2319176 4.2703085e-39
-0.38817278 -0.6523518 2.237 4.2703085e-39
-0.062321331 -0.67537236 2.2258 4.2703085e-39
0.22137657 -0.67604107 2.2358797 4.2703085e-39
0.25931817 -0.6755662 2.2333844 4.2703085e-39
0.29901844 -0.67588317 2.2337739 4.2703085e-39
0.33905765 -0.67524135 2.2313747 4.2703085e-39
0.37632182 -0.67627263 2.2359998 4.2703085e-39
0.41775084 -0.67571586 2.2369998 4.2703085e-39
0.45805237 -0.67962188 2.237 4.2703085e-39
0.49936864 -0.67144603 2.2334833 4.2703085e-39
0.54053354 -0.67149901 2.232131 4.2703085e-39
0.57855529 -0.66955578 2.2292469 4.2703085e-39
0.61897349 -0.67416841 2.2334182 4.2703085e-39
0.65929353 -0.67566895 2.2322192 4.2703085e-39
0.70528942 -0.67075366 2.236243 4.2703085e-39
0.74033612 -0.66994834 2.2310424 4.2703085e-39
0.77978188 -0.66647077 2.22154 4.2703085e-39
0.81970531 -0.66788173 2.218751 4.2703085e-39
0.85986006 -0.66303241 2.2252359 4.2703085e-39
0.9004755 -0.66483551 2.2276676 4.2703085e-39
0.93805844 -0.65808827 2.2212703 4.2703085e-39
0.97729725 -0.64750957 2.2181957 4.2703085e-39
1.0168576 -0.6489988 2.21924 4.2703085e-39
1.0622324 -0.64222783 2.2095001 4.2703085e-39
1.0871773 -0.64347434 2.2080002 4.2703085e-39
-0.4466469 -0.62665147 2.2080002 4.2703085e-39
-0.42094857 -0.62032717 2.2208714 4.2703085e-39
-0.38821441 -0.61601913 2.2369995 4.2703085e-39
-0.34726763 -0.61144662 2.237 4.2703085e-39
0.95052129 -0.63216454 2.2256665 4.2703085e-39
0.97828567 -0.63547689 2.2343636 4.2703085e-39
1.0286075 -0.63314426 2.2287416 4.2703085e-39
1.0628707 -0.62134737 2.2196412 4.2703085e-39
1.0866516 -0.61929166 2.2080002 4.2703085e-39
-0.41372734 -0.58526641 2.2151051 4.2703085e-39
-0.3789252 -0.57809645 2.2253067 4.2703085e-39
-0.34249061 -0.56656533 2.2347596 4.2703085e-39
1.0674919 -0.58085793 2.22785 4.2703085e-39
1.0827219 -0.58678985 2.2194614 4.2703085e-39
-0.40344819 -0.54343843 2.2080002 4.2703085e-39
-0.37857181 -0.54215401 2.2137721 4.2703085e-39
-0.33788586 -0.54025489 2.2236013 4.2703085e-39
-0.31418383 -0.53509808 2.2360666 4.2703085e-39
1.0613075 -0.53970146 2.21873 4.2703085e-39
-0.37115431 -0.5183543 2.2080002 4.2703085e-39
-0.32754073 -0.51817787 2.21175 4.2703085e-39
-0.30522665 -0.51475859 2.2335 4.2703085e-39
1.0356985 -0.49633124 2.2176538 4.2703085e-39
1.0518267 -0.50459188 2.2104082 4.2703085e-39
1.0357993 -0.45653853 2.2198 4.2703085e-39
1.0457869 -0.46569899 2.213788 4.2703085e-39
1.0274704 -0.42050508 2.2214119 4.2703085e-39
1.0423163 -0.43669337 2.2080002 4.2703085e-39
1.0230449 -0.37913519 2.2280004 4.2703085e-39
1.0183066 -0.33887494 2.2271819 4.2703085e-39
0.99271351 -0.2921122 2.2356665 4.2703085e-39
1.0101972 -0.30012387 2.2186942 4.2703085e-39
0.98426265 -0.26111418 2.2237542 4.2703085e-39
1.0133258 -0.26337606 2.2148421 4.2703085e-39
1.0514287 -0.24603431 2.2080002 4.2703085e-39
0.031104952 -0.0029826665 2.237 4.2703085e-39
0.04260952 -0.0063914279 2.237 4.2703085e-39
0.02646734 0.023103012 2.2179089 4.2703085e-39
0.04910047 0.023469318 2.2305675 4.2703085e-39
0.031542864 0.053541984 2.2080002 4.2703085e-39
0.06059967 0.059904493 2.2197223 4.2703085e-39
0.086654 0.07027597 2.2359228 4.2703085e-39
0.03995429 0.082011431 2.2080002 4.2703085e-39
0.06878949 0.099121742 2.2108126 4.2703085e-39
0.096797064 0.10274705 2.2268863 4.2703085e-39
0.12143715 0.11504571 2.237 4.2703085e-39
0.073319629 0.13135849 2.2080002 4.2703085e-39
0.098228067 0.14032421 2.2114706 4.2703085e-39
0.12463286 0.15872046 2.237 4.2703085e-39
0.10490073 0.17952661 2.2110445 4.2703085e-39
0.13383894 0.1790282 2.2289634 4.2703085e-39
0.11161965 0.21154739 2.2080002 4.2703085e-39
0.14219353 0.21964885 2.2204444 4.2703085e-39
0.16885079 0.23046719 2.2315552 4.2703085e-39
0.14567445 0.25452828 2.2080002 4.2703085e-39
0.17768312 0.26178864 2.2263427 4.2703085e-39
0.21347372 0.27426326 2.237 4.2703085e-39
0.18161924 0.29641595 2.2189212 4.2703085e-39
0.22023794 0.29498208 2.2369998 4.2703085e-39
0.24287428 0.29826665 2.237 4.2703085e-39
-0.41339108 -0.69652462 2.2530239 4.2703085e-39
-0.38033539 -0.69993907 2.2623162 4.2703085e-39
-0.33846328 -0.69257796 2.2574897 4.2703085e-39
-0.30075848 -0.69499719 2.2607205 4.2703085e-39
-0.26180422 -0.68970442 2.2581458 4.2703085e-39
-0.21847399 -0.69239771 2.2591887 4.2703085e-39
-0.17936386 -0.69726139 2.2598529 4.2703085e-39
-0.14523351 -0.69158584 2.2576752 4.2703085e-39
-0.046469845 -0.68882602 2.2520003 4.2703085e-39
-0.022215618 -0.69039279 2.2533996 4.2703085e-39
0.011796191 -0.68739629 2.2520003 4.2703085e-39
0.46166 -0.68471527 2.2520001 4.2703085e-39
0.48257142 -0.68417907 2.2520001 4.2703085e-39
-0.40981275 -0.66825253 2.2557054 4.2703085e-39
-0.38533726 -0.65936702 2.2604523 4.2703085e-39
-0.33972019 -0.66559255 2.2659998 4.2703085e-39
-0.31580126 -0.6783613 2.2660003 4.2703085e-39
-0.25033903 -0.67980003 2.266 4.2703085e-39
-0.19207048 -0.67980003 2.2660003 4.2703085e-39
-0.13965961 -0.67671704 2.266 4.2703085e-39
-0.049937148 -0.67574346 2.2604001 4.2703085e-39
-0.016990324 -0.67757344 2.2631998 4.2703085e-39
0.0074741733 -0.67475677 2.261059 4.2703085e-39
0.22338983 -0.66405988 2.2562604 4.2703085e-39
0.26086485 -0.66257781 2.2558715 4.2703085e-39
0.29902697 -0.66138613 2.2524583 4.2703085e-39
0.34126121 -0.66129243 2.2559192 4.2703085e-39
0.38150826 -0.66495055 2.2561696 4.2703085e-39
0.4191753 -0.66491777 2.2547994 4.2703085e-39
0.46158877 -0.67040753 2.2583854 4.2703085e-39
0.50086546 -0.65544027 2.2579224 4.2703085e-39
0.5361498 -0.65595365 2.2564385 4.2703085e-39
0.57987916 -0.65441102 2.255769 4.2703085e-39
0.62114519 -0.66238457 2.2581761 4.2703085e-39
0.66207588 -0.66486138 2.2530496 4.2703085e-39
0.70220065 -0.66212809 2.2577641 4.2703085e-39
0.74147624 -0.65980637 2.2566667 4.2703085e-39
0.78347337 -0.65041679 2.2646871 4.2703085e-39
0.82009596 -0.65019011 2.2641501 4.2703085e-39
0.8593902 -0.64998412 2.2656813 4.2703085e-39
0.90066981 -0.64958662 2.2659996 4.2703085e-39
0.93399292 -0.64681196 2.2659998 4.2703085e-39
0.99302477 -0.64128381 2.2520001 4.2703085e-39
1.0016038 -0.64342856 2.2520001 4.2703085e-39
-0.37175441 -0.62354481 2.2558715 4.2703085e-39
-0.34309855 -0.61716223 2.2609305 4.2703085e-39
0.78030556 -0.63478833 2.266 4.2703085e-39
0.8168391 -0.6366381 2.266 4.2703085e-39
0.86971247 -0.6366381 2.266 4.2703085e-39
0.88266093 -0.6366381 2.266 4.2703085e-39
0.92582285 -0.63448 2.266 4.2703085e-39
0.98268461 -0.62726766 2.260139 4.2703085e-39
1.0217147 -0.62434661 2.2619998 4.2703085e-39
1.0494823 -0.61427039 2.2584872 4.2703085e-39
-0.36310095 -0.59515059 2.256 4.2703085e-39
-0.33699182 -0.58734858 2.2579992 4.2703085e-39
-0.30188677 -0.5779199 2.2624445 4.2703085e-39
-0.27507412 -0.57189524 2.2660005 4.2703085e-39
1.0348067 -0.56973714 2.266 4.2703085e-39
1.0500009 -0.58213252 2.2587302 4.2703085e-39
-0.2974703 -0.54144877 2.2550123 4.2703085e-39
-0.271835 -0.53856629 2.2647996 4.2703085e-39
1.0351664 -0.54455936 2.266 4.2703085e-39
1.0488926 -0.54326802 2.2594278 4.2703085e-39
-0.2884405 -0.50608587 2.2573099 4.2703085e-39
-0.26598737 -0.5048542 2.2625773 4.2703085e-39
1.0369648 -0.48988765 2.266 4.2703085e-39
1.0427179 -0.49875733 2.2589998 4.2703085e-39
1.0309161 -0.45835707 2.2627687 4.2703085e-39
1.0425528 -0.46789899 2.2545457 4.2703085e-39
1.0193812 -0.41591185 2.2594278 4.2703085e-39
1.0120089 -0.38112113 2.2609086 4.2703085e-39
0.99723613 -0.3313657 2.2660003 4.2703085e-39
1.0087676 -0.34203333 2.2603996 4.2703085e-39
0.983845 -0.29707125 2.2622302 4.2703085e-39
1.0031023 -0.30881929 2.2540002 4.2703085e-39
0.97937024 -0.27011672 2.2620001 4.2703085e-39
0.060426667 -0.053952381 2.266 4.2703085e-39
0.029490476 -0.0085790483 2.2520001 4.2703085e-39
0.060910642 -0.016105531 2.2603047 4.2703085e-39
0.087817885 -0.017762784 2.2660005 4.2703085e-39
0.067405812 0.016229611 2.2527919 4.2703085e-39
0.093291521 0.01901223 2.2638216 4.2703085e-39
0.078283809 0.04396762 2.2520001 4.2703085e-39
0.10296747 0.058791131 2.2576001 4.2703085e-39
0.13149497 0.070026472 2.2659996 4.2703085e-39
0.11280558 0.089810759 2.2530005 4.2703085e-39
0.13623884 0.10349162 2.2615783 4.2703085e-39
0.11796191 0.13297525 2.2520001 4.2703085e-39
0.13989118 0.13942924 2.2560244 4.2703085e-39
0.17065553 0.1492406 2.2659998 4.2703085e-39
0.15065105 0.17979023 2.2519996 4.2703085e-39
0.17559063 0.1827383 2.2613337 4.2703085e-39
0.20070286 0.19422857 2.266 4.2703085e-39
0.18280889 0.21787365 2.2547994 4.2703085e-39
0.21533202 0.2250396 2.2636266 4.2703085e-39
0.24731772 0.23782209 2.266 4.2703085e-39
0.19715312 0.25258696 2.2520006 4.2703085e-39
0.22218427 0.25820583 2.2523828 4.2703085e-39
0.24996901 0.26130781 2.2582219 4.2703085e-39
0.19946286 0.28525335 2.2520001 4.2703085e-39
0.21464117 0.29581216 2.2520006 4.2703085e-39
0.25283304 0.28903282 2.2538259 4.2703085e-39
0.30272034 0.29341751 2.2543335 4.2703085e-39
-0.37039098 -0.68592924 2.2810001 4.2703085e-39
-0.35844287 -0.68647242 2.2810001 4.2703085e-39
-0.2954438 -0.68430001 2.2810001 4.2703085e-39
-0.26024351 -0.68364161 2.2836668 4.2703085e-39
-0.21955854 -0.68640649 2.2825239 4.2703085e-39
-0.17767468 -0.68748093 2.2863331 4.2703085e-39
-0.15423906 -0.68430007 2.2810001 4.2703085e-39
-0.36959878 -0.66762048 2.2858882 4.2703085e-39
-0.33803779 -0.6608696 2.2814848 4.2703085e-39
-0.30016419 -0.66174227 2.2933357 4.2703085e-39
-0.26299971 -0.67036945 2.2945161 4.2703085e-39
-0.218435 -0.66981918 2.2978778 4.2703085e-39
-0.18310428 -0.67059463 2.2972145 4.2703085e-39
-0.15222944 -0.6707347 2.2883847 4.2703085e-39
-0.042868257 -0.6714325 2.289 4.2703085e-39
-0.020196294 -0.66341031 2.3005247 4.2703085e-39
0.0048973812 -0.66376072 2.2869999 4.2703085e-39
0.22817406 -0.64921677 2.2952762 4.2703085e-39
0.26022252 -0.65036434 2.2938621 4.2703085e-39
0.30074111 -0.64857912 2.2927129 4.2703085e-39
0.34103414 -0.64937335 2.3028667 4.2703085e-39
0.37985021 -0.65048492 2.2988739 4.2703085e-39
0.42109895 -0.65018374 2.2975376 4.2703085e-39
0.45982662 -0.65116709 2.2960703 4.2703085e-39
0.49366796 -0.64699817 2.2898457 4.2703085e-39
0.5456543 -0.64655006 2.285363 4.2703085e-39
0.57901192 -0.64670205 2.2870188 4.2703085e-39
0.61931598 -0.64917916 2.2827382 4.2703085e-39
0.6608386 -0.65128821 2.2870002 4.2703085e-39
0.69656467 -0.64782852 2.284888 4.2703085e-39
0.74344462 -0.65171993 2.2869315 4.2703085e-39
0.7719335 -0.65049177 2.2889407 4.2703085e-39
0.8163808 -0.64085239 2.2810001 4.2703085e-39
0.85157341 -0.64193863 2.2810001 4.2703085e-39
0.90704167 -0.64432818 2.2810004 4.2703085e-39
0.94188237 -0.64209384 2.2810001 4.2703085e-39
0.96236479 -0.64085239 2.2810001 4.2703085e-39
-0.32778814 -0.62612844 2.2809999 4.2703085e-39
-0.3017194 -0.62003207 2.2912023 4.2703085e-39
-0.26843706 -0.61229122 2.3096001 4.2703085e-39
0.22741641 -0.63294327 2.3087859 4.2703085e-39
0.26323411 -0.63294297 2.3067055 4.2703085e-39
0.29976055 -0.63122857 2.3077683 4.2703085e-39
0.34180596 -0.62924296 2.3116145 4.2703085e-39
0.38048914 -0.63106596 2.3119998 4.2703085e-39
0.41555732 -0.63358217 2.3112106 4.2703085e-39
0.46268722 -0.63213807 2.312 4.2703085e-39
0.50405002 -0.63063866 2.3020859 4.2703085e-39
0.53748572 -0.63142496 2.3025494 4.2703085e-39
0.58336335 -0.63426727 2.3051822 4.2703085e-39
0.61778003 -0.62998509 2.3009222 4.2703085e-39
0.65417421 -0.63124269 2.3044686 4.2703085e-39
0.7015698 -0.63418204 2.2993329 4.2703085e-39
0.74018896 -0.63250726 2.3085709 4.2703085e-39
0.78099936 -0.6271221 2.2984653 4.2703085e-39
0.82029897 -0.62917739 2.2958407 4.2703085e-39
0.85977936 -0.62628549 2.2926078 4.2703085e-39
0.90091848 -0.62614644 2.2945366 4.2703085e-39
0.93861049 -0.62420136 2.2924144 4.2703085e-39
0.9778384 -0.61770737 2.2962143 4.2703085e-39
1.0188179 -0.61066753 2.2963145 4.2703085e-39
1.0438291 -0.60500813 2.2810001 4.2703085e-39
-0.28458193 -0.59175658 2.2810001 4.2703085e-39
-0.2574257 -0.58068502 2.2910464 4.2703085e-39
-0.22871993 -0.57623458 2.3012004 4.2703085e-39
1.0328592 -0.57980603 2.2962818 4.2703085e-39
1.0427428 -0.58002579 2.2810001 4.2703085e-39
-0.2523517 -0.54139692 2.2809987 4.2703085e-39
-0.22875953 -0.541942 2.2813802 4.2703085e-39
1.0299646 -0.53914791 2.2973106 4.2703085e-39
1.0424384 -0.53550309 2.2844288 4.2703085e-39
-0.24493596 -0.51539737 2.2810001 4.2703085e-39
-0.23331372 -0.51746118 2.2810001 4.2703085e-39
1.0298728 -0.49890134 2.2966714 4.2703085e-39
1.0421441 -0.51002276 2.2836671 4.2703085e-39
0.99526101 -0.44258285 2.312 4.2703085e-39
1.0215049 -0.46045774 2.2998245 4.2703085e-39
0.99639642 -0.41677791 2.3063686 4.2703085e-39
1.008321 -0.42272651 2.2957726 4.2703085e-39
0.98611689 -0.37792325 2.2986238 4.2703085e-39
1.0049638 -0.38238344 2.2846999 4.2703085e-39
0.95802009 -0.32585716 2.2810001 4.2703085e-39
0.98241675 -0.34126213 2.2894385 4.2703085e-39
1.0038813 -0.34975335 2.2810001 4.2703085e-39
0.95390677 -0.2926212 2.3040001 4.2703085e-39
0.97213203 -0.30476275 2.2891026 4.2703085e-39
0.9528147 -0.2711671 2.3033128 4.2703085e-39
0.97226131 -0.26513204 2.2891533 4.2703085e-39
1.0340533 -0.25199619 2.2810001 4.2703085e-39
1.0405706 -0.25199619 2.2810001 4.2703085e-39
0.077066667 -0.12110476 2.312 4.2703085e-39
0.081470475 -0.13211429 2.312 4.2703085e-39
0.073543623 -0.10789334 2.312 4.2703085e-39
0.069855079 -0.053944074 2.2891374 4.2703085e-39
0.094184235 -0.054254573 2.3083251 4.2703085e-39
0.070385151 -0.03171676 2.2810001 4.2703085e-39
0.10055539 -0.020178197 2.2937293 4.2703085e-39
0.1333597 -0.013045786 2.3101697 4.2703085e-39
0.11114989 0.020408574 2.2825477 4.2703085e-39
0.13842559 0.020420603 2.3056011 4.2703085e-39
0.16416426 0.03253926 2.312 4.2703085e-39
0.11948096 0.043447621 2.2810001 4.2703085e-39
0.14511295 0.05485202 2.2913809 4.2703085e-39
0.1713634 0.060126565 2.3107831 4.2703085e-39
0.21358477 0.077066667 2.312 4.2703085e-39
0.15269634 0.092645429 2.2828457 4.2703085e-39
0.17801605 0.10113421 2.3064137 4.2703085e-39
0.21291754 0.10495746 2.3119996 4.2703085e-39
0.18459341 0.13615404 2.2919481 4.2703085e-39
0.21746092 0.14078654 2.3044982 4.2703085e-39
0.24504057 0.15256055 2.312 4.2703085e-39
0.19279882 0.1716181 2.2810001 4.2703085e-39
0.2199319 0.1810085 2.2915993 4.2703085e-39
0.25327444 0.18216464 2.3076019 4.2703085e-39
0.22797881 0.21155365 2.2868669 4.2703085e-39
0.26121053 0.21908335 2.3006356 4.2703085e-39
0.28649226 0.22728549 2.312 4.2703085e-39
0.27046794 0.25742927 2.2943583 4.2703085e-39
0.30024227 0.26426297 2.3107123 4.2703085e-39
0.32441401 0.26716447 2.3120003 4.2703085e-39
0.2703214 0.29115939 2.2860525 4.2703085e-39
0.29874355 0.28923079 2.3002257 4.2703085e-39
0.32810926 0.2896224 2.3082502 4.2703085e-39
-0.2814562 -0.65820861 2.3270001 4.2703085e-39
-0.25797534 -0.65484136 2.332016 4.2703085e-39
-0.22168717 -0.65057898 2.3354223 4.2703085e-39
-0.18244185 -0.65306062 2.3341439 4.2703085e-39
-0.030980604 -0.64675742 2.3320525 4.2703085e-39
-0.2814562 -0.63604671 2.3270001 4.2703085e-39
-0.25554016 -0.62407768 2.3297837 4.2703085e-39
-0.22091801 -0.61901397 2.3355806 4.2703085e-39
-0.18839635 -0.62798786 2.3429995 4.2703085e-39
-0.026336953 -0.63505238 2.3430002 4.2703085e-39
0.22822723 -0.62116367 2.3489432 4.2703085e-39
0.25867063 -0.62145871 2.3440001 4.2703085e-39
0.2994917 -0.61544394 2.3471854 4.2703085e-39
0.33796823 -0.61685121 2.3479464 4.2703085e-39
0.38093722 -0.61836159 2.3478007 4.2703085e-39
0.421105 -0.61946636 2.3492696 4.2703085e-39
0.45835182 -0.62040848 2.3454785 4.2703085e-39
0.49979857 -0.6179834 2.3430009 4.2703085e-39
0.54068881 -0.61471868 2.3430007 4.2703085e-39
0.58005816 -0.6195091 2.3437529 4.2703085e-39
0.61824429 -0.61390179 2.3430011 4.2703085e-39
0.65874583 -0.61636841 2.3476069 4.2703085e-39
0.69843531 -0.62012058 2.3468099 4.2703085e-39
0.73841739 -0.61637408 2.3451917 4.2703085e-39
0.77780837 -0.61262733 2.3418059 4.2703085e-39
0.82016987 -0.61127275 2.3358583 4.2703085e-39
0.85829777 -0.60959619 2.3359835 4.2703085e-39
0.90044165 -0.60942805 2.338201 4.2703085e-39
0.94013983 -0.60785604 2.336601 4.2703085e-39
0.97848648 -0.60765511 2.3334873 4.2703085e-39
1.0175992 -0.60241473 2.3318691 4.2703085e-39
-0.22186531 -0.59369278 2.3269999 4.2703085e-39
0.41862893 -0.59986007 2.3590002 4.2703085e-39
0.51448673 -0.59986007 2.3590002 4.2703085e-39
0.54465628 -0.5982554 2.3590007 4.2703085e-39
0.59087336 -0.59986007 2.3590002 4.2703085e-39
0.62232673 -0.59929836 2.3590002 4.2703085e-39
0.66108173 -0.59929836 2.3590002 4.2703085e-39
0.70844901 -0.59686446 2.3590002 4.2703085e-39
0.74000931 -0.59643656 2.3590009 4.2703085e-39
0.77322787 -0.59798783 2.3590007 4.2703085e-39
0.81956983 -0.5970276 2.3561766 4.2703085e-39
0.86169887 -0.59904313 2.3590004 4.2703085e-39
0.90461564 -0.59000689 2.3569498 4.2703085e-39
0.94038647 -0.58880305 2.3511465 4.2703085e-39
0.97491229 -0.58870703 2.344372 4.2703085e-39
1.0197457 -0.57957625 2.3399231 4.2703085e-39
0.99577266 -0.53944969 2.3590007 4.2703085e-39
1.0148753 -0.54011369 2.3398831 4.2703085e-39
0.98578733 -0.49827468 2.3486006 4.2703085e-39
1.0151777 -0.50157809 2.3351135 4.2703085e-39
0.98663598 -0.45909423 2.3430004 4.2703085e-39
1.009776 -0.46524972 2.3290002 4.2703085e-39
0.9807294 -0.42106029 2.3397999 4.2703085e-39
0.94796026 -0.37371594 2.353147 4.2703085e-39
0.97152787 -0.38157633 2.3390014 4.2703085e-39
0.94554639 -0.33857369 2.3476663 4.2703085e-39
0.96940386 -0.34253344 2.3353817 4.2703085e-39
0.91439342 -0.28083336 2.3590002 4.2703085e-39
0.93739116 -0.30013731 2.333292 4.2703085e-39
0.96758884 -0.3151423 2.3270001 4.2703085e-39
0.90535444 -0.26483327 2.3503845 4.2703085e-39
0.9368434 -0.26910076 2.3360014 4.2703085e-39
0.96552038 -0.2688978 2.3270001 4.2703085e-39
0.084924005 -0.20804136 2.3590002 4.2703085e-39
0.075171061 -0.16958116 2.3494003 4.2703085e-39
0.085185409 -0.18156859 2.3536668 4.2703085e-39
0.078633346 -0.15502001 2.3590002 4.2703085e-39
0.09684664 -0.13798784 2.3508554 4.2703085e-39
0.12672715 -0.12448049 2.3550003 4.2703085e-39
0.077566676 -0.097512394 2.3269999 4.2703085e-39
0.099988565 -0.099972762 2.3325307 4.2703085e-39
0.12732552 -0.10077745 2.3562179 4.2703085e-39
0.077566676 -0.077566676 2.3270001 4.2703085e-39
0.10719398 -0.067811847 2.3295002 4.2703085e-39
0.13909657 -0.059146535 2.3465075 4.2703085e-39
0.16378419 -0.051615428 2.3558004 4.2703085e-39
0.11745811 -0.035459049 2.3270001 4.2703085e-39
0.14510302 -0.026939675 2.327801 4.2703085e-39
0.17112099 -0.015263234 2.3497882 4.2703085e-39
0.15624143 0.0055404762 2.3270001 4.2703085e-39
0.18170017 0.019270198 2.3420589 4.2703085e-39
0.22085261 0.026176278 2.3590009 4.2703085e-39
0.24264002 0.035946667 2.3590002 4.2703085e-39
0.18999533 0.058801427 2.3291628 4.2703085e-39
0.21927188 0.060401302 2.3427813 4.2703085e-39
0.25004581 0.062064912 2.3585796 4.2703085e-39
0.19428603 0.087908901 2.3269999 4.2703085e-39
0.22249644 0.096492156 2.3323343 4.2703085e-39
0.2591604 0.10087393 2.3541107 4.2703085e-39
0.28133264 0.10259779 2.3590004 4.2703085e-39
0.2349162 0.12632287 2.3270001 4.2703085e-39
0.26046947 0.13932101 2.3350005 4.2703085e-39
0.29150501 0.146595 2.3590009 4.2703085e-39
0.2702117 0.17162099 2.3303332 4.2703085e-39
0.29994714 0.18166438 2.3517883 4.2703085e-39
0.32865533 0.18823861 2.3590009 4.2703085e-39
0.30286345 0.21930031 2.3374836 4.2703085e-39
0.33656549 0.222468 2.3551915 4.2703085e-39
0.3647089 0.23215559 2.3590002 4.2703085e-39
0.30583212 0.24531269 2.3279409 4.2703085e-39
0.34219828 0.25798383 2.3447788 4.2703085e-39
0.36570743 0.2618615 2.3590007 4.2703085e-39
0.31396031 0.29179844 2.3270001 4.2703085e-39
0.34103292 0.28664961 2.3315713 4.2703085e-39
0.37369561 0.28582597 2.3590007 4.2703085e-39
-0.036335237 -0.64026666 2.3840003 4.2703085e-39
-0.063648008 -0.60884732 2.3872001 4.2703085e-39
-0.036335237 -0.63572574 2.3840003 4.2703085e-39
0.22584262 -0.60715437 2.3802104 4.2703085e-39
0.25828627 -0.60793257 2.3818662 4.2703085e-39
0.30096003 -0.6041829 2.3760002 4.2703085e-39
0.34249011 -0.60631263 2.3759999 4.2703085e-39
0.38016 -0.60644579 2.3759999 4.2703085e-39
0.4180629 -0.60531431 2.3760002 4.2703085e-39
0.4604249 -0.60631263 2.3759999 4.2703085e-39
0.49875602 -0.60845858 2.3774545 4.2703085e-39
0.58155435 -0.60418296 2.3760004 4.2703085e-39
0.61323434 -0.6041829 2.3760002 4.2703085e-39
0.66075432 -0.6041829 2.3760002 4.2703085e-39
0.70180905 -0.60482949 2.3760004 4.2703085e-39
0.79878867 -0.6041829 2.3760002 4.2703085e-39
0.80331433 -0.6041829 2.3760002 4.2703085e-39
-0.064546041 -0.59762037 2.3920002 4.2703085e-39
0.22785677 -0.59684938 2.3877337 4.2703085e-39
0.2658743 -0.59697789 2.3884442 4.2703085e-39
0.29963818 -0.59473926 2.3835547 4.2703085e-39
0.34204507 -0.59373504 2.3825636 4.2703085e-39
0.37933382 -0.59246737 2.3821535 4.2703085e-39
0.41929358 -0.59260303 2.3784611 4.2703085e-39
0.45728296 -0.59569877 2.3796921 4.2703085e-39
0.49966481 -0.59751397 2.38713 4.2703085e-39
0.54024756 -0.59141362 2.384177 4.2703085e-39
0.58107764 -0.59175336 2.3828566 4.2703085e-39
0.6187942 -0.5931536 2.3858454 4.2703085e-39
0.66083956 -0.59566861 2.3849995 4.2703085e-39
0.69866461 -0.59560549 2.3857141 4.2703085e-39
0.73855036 -0.59095955 2.3839996 4.2703085e-39
0.78217858 -0.59211999 2.3809993 4.2703085e-39
0.82079041 -0.59266299 2.3817139 4.2703085e-39
0.86128956 -0.58626968 2.3870337 4.2703085e-39
0.89587069 -0.58174336 2.3878026 4.2703085e-39
0.94283891 -0.57581925 2.3866663 4.2703085e-39
0.98247725 -0.57453585 2.3822742 4.2703085e-39
1.0093796 -0.58128673 2.3791997 4.2703085e-39
0.88845724 -0.55813336 2.3920002 4.2703085e-39
0.98748928 -0.54186571 2.3864822 4.2703085e-39
1.0069715 -0.55892575 2.3760002 4.2703085e-39
0.95543331 -0.48250061 2.3920002 4.2703085e-39
0.97530138 -0.49934456 2.3859451 4.2703085e-39
0.95318377 -0.4585453 2.390285 4.2703085e-39
0.97248828 -0.46311498 2.3814461 4.2703085e-39
0.94660026 -0.41701621 2.3893807 4.2703085e-39
0.96644646 -0.41936487 2.3801286 4.2703085e-39
0.91807246 -0.36677337 2.3920002 4.2703085e-39
0.93486154 -0.38194391 2.3864913 4.2703085e-39
0.96397722 -0.39600003 2.3760002 4.2703085e-39
0.91237724 -0.33355111 2.3919997 4.2703085e-39
0.93030417 -0.34315315 2.3869259 4.2703085e-39
0.072899058 -0.29387432 2.3920002 4.2703085e-39
0.91019517 -0.29752806 2.3883991 4.2703085e-39
0.92511135 -0.30108249 2.3782065 4.2703085e-39
0.075177141 -0.259956 2.3920002 4.2703085e-39
0.087093346 -0.25392008 2.3920002 4.2703085e-39
0.89916039 -0.26957867 2.3848 4.2703085e-39
0.077516891 -0.22844195 2.3876364 4.2703085e-39
0.098590627 -0.22050856 2.3898029 4.2703085e-39
0.82922673 -0.20502858 2.3920002 4.2703085e-39
0.0792 -0.16066287 2.3760002 4.2703085e-39
0.10463784 -0.17967312 2.3832445 4.2703085e-39
0.13575199 -0.17660838 2.3919988 4.2703085e-39
0.16174477 -0.16174477 2.3920002 4.2703085e-39
0.0792 -0.14708573 2.3760002 4.2703085e-39
0.11368891 -0.14689268 2.3768888 4.2703085e-39
0.14196327 -0.1409843 2.3827097 4.2703085e-39
0.16522895 -0.13306759 2.3920002 4.2703085e-39
0.14558978 -0.10118698 2.3766804 4.2703085e-39
0.17472266 -0.097534955 2.3858454 4.2703085e-39
0.15613715 -0.072411433 2.3760002 4.2703085e-39
0.18150686 -0.062386084 2.3853712 4.2703085e-39
0.21641913 -0.055390265 2.3919992 4.2703085e-39
0.18781714 -0.024543302 2.3759997 4.2703085e-39
0.21886393 -0.019465867 2.3806324 4.2703085e-39
0.24796087 -0.0097578233 2.3885717 4.2703085e-39
0.19686858 0.0045257146 2.3760002 4.2703085e-39
0.21949711 0.011022304 2.3759997 4.2703085e-39
0.25837818 0.020412151 2.3826029 4.2703085e-39
0.28172448 0.02809651 2.3920002 4.2703085e-39
0.26813751 0.059913792 2.3764207 4.2703085e-39
0.29169774 0.067830421 2.3873541 4.2703085e-39
0.2647543 0.088251434 2.3760002 4.2703085e-39
0.29840156 0.10223718 2.3812239 4.2703085e-39
0.32121146 0.11618286 2.3920002 4.2703085e-39
0.30709788 0.13591889 2.3787994 4.2703085e-39
0.33180866 0.14353389 2.3901167 4.2703085e-39
0.31755432 0.16217145 2.3760002 4.2703085e-39
0.34496167 0.17586391 2.3813329 4.2703085e-39
0.36772257 0.18243748 2.3919997 4.2703085e-39
0.7343061 0.18604445 2.3920002 4.2703085e-39
0.35466513 0.20863546 2.3760002 4.2703085e-39
0.37813908 0.2236259 2.3803995 4.2703085e-39
0.4064773 0.23399295 2.3920002 4.2703085e-39
0.38429657 0.25917938 2.3771849 4.2703085e-39
0.41007426 0.26191297 2.3859453 4.2703085e-39
0.39147431 0.28939429 2.3760002 4.2703085e-39
0.40856278 0.2917856 2.3908572 4.2703085e-39
0.20829239 -0.60648584 2.4187145 4.2703085e-39
0.25007716 -0.60339713 2.4090002 4.2703085e-39
0.22539338 -0.58730114 2.4209461 4.2703085e-39
0.26034403 -0.58402342 2.4205148 4.2703085e-39
0.29942441 -0.58377182 2.4198978 4.2703085e-39
0.33914679 -0.58483177 2.4206569 4.2703085e-39
0.38041416 -0.58200449 2.4208052 4.2703085e-39
0.42104182 -0.58402556 2.4211426 4.2703085e-39
0.45984834 -0.58663446 2.4186594 4.2703085e-39
0.50420481 -0.58794022 2.4218445 4.2703085e-39
0.53867024 -0.57340306 2.414573 4.2703085e-39
0.5788765 -0.57425314 2.4171727 4.2703085e-39
0.6203565 -0.57663542 2.4156518 4.2703085e-39
0.65929252 -0.58000571 2.418047 4.2703085e-39
0.70133471 -0.57770306 2.4198165 4.2703085e-39
0.7391488 -0.5745793 2.4152756 4.2703085e-39
0.77874416 -0.57804906 2.4200184 4.2703085e-39
0.82102311 -0.57883388 2.4164555 4.2703085e-39
0.85577464 -0.56971097 2.4125414 4.2703085e-39
0.89684868 -0.56613171 2.4115503 4.2703085e-39
0.93944407 -0.56609011 2.414973 4.2703085e-39
0.96971816 -0.56554145 2.4090004 4.2703085e-39
0.5418067 -0.55682474 2.4260001 4.2703085e-39
0.69314289 -0.55682474 2.4260001 4.2703085e-39
0.76630801 -0.5537442 2.4260001 4.2703085e-39
0.8602941 -0.55692285 2.4235718 4.2703085e-39
0.89934838 -0.55630565 2.4175003 4.2703085e-39
0.94761664 -0.54150832 2.4214234 4.2703085e-39
0.970016 -0.54074228 2.4101322 4.2703085e-39
0.94545865 -0.4998942 2.4145572 4.2703085e-39
0.96818876 -0.50474298 2.4090004 4.2703085e-39
0.93978369 -0.46113068 2.4151545 4.2703085e-39
0.9172591 -0.40433335 2.4260001 4.2703085e-39
0.93141747 -0.42333531 2.414022 4.2703085e-39
0.90503263 -0.37404647 2.4173262 4.2703085e-39
0.92201602 -0.3802779 2.4090002 4.2703085e-39
0.076245718 -0.3211562 2.4260001 4.2703085e-39
0.097964197 -0.32485291 2.4259999 4.2703085e-39
0.89765507 -0.34199768 2.4124618 4.2703085e-39
0.92153811 -0.35408479 2.4090002 4.2703085e-39
0.072294898 -0.29768673 2.4120002 4.2703085e-39
0.096208826 -0.29954129 2.4174991 4.2703085e-39
0.89837801 -0.30201793 2.4150441 4.2703085e-39
0.070392959 -0.27103755 2.4158001 4.2703085e-39
0.10088497 -0.26106435 2.4137707 4.2703085e-39
0.12245524 -0.24953143 2.4260001 4.2703085e-39
0.86673439 -0.25226784 2.4181218 4.2703085e-39
0.88986778 -0.26334935 2.413722 4.2703085e-39
0.11587971 -0.22578943 2.4141004 4.2703085e-39
0.13836372 -0.21628591 2.4203331 4.2703085e-39
0.16404381 -0.21025336 2.4260004 4.2703085e-39
0.83520359 -0.20745176 2.4203336 4.2703085e-39
0.85799015 -0.22833914 2.4217501 4.2703085e-39
0.14942887 -0.19122268 2.4098949 4.2703085e-39
0.17299229 -0.17426927 2.4195511 4.2703085e-39
0.8338691 -0.18963917 2.4107003 4.2703085e-39
0.1832276 -0.14208004 2.4139445 4.2703085e-39
0.21193369 -0.12917662 2.4260006 4.2703085e-39
0.24260001 -0.12476572 2.4260001 4.2703085e-39
0.19345921 -0.10515952 2.4118338 4.2703085e-39
0.22057404 -0.098536037 2.4182277 4.2703085e-39
0.2489538 -0.092419051 2.4259996 4.2703085e-39
0.22302039 -0.064319119 2.4089999 4.2703085e-39
0.2577852 -0.057698358 2.4205256 4.2703085e-39
0.28649902 -0.043899048 2.4260001 4.2703085e-39
0.23631144 -0.036708571 2.4090002 4.2703085e-39
0.26425377 -0.023914879 2.4187534 4.2703085e-39
0.2890527 -0.014227667 2.4259999 4.2703085e-39
0.27669087 0.0078005716 2.4090002 4.2703085e-39
0.30163342 0.019628532 2.4192531 4.2703085e-39
0.32475024 0.025415238 2.4259999 4.2703085e-39
0.30567771 0.055422567 2.4141946 4.2703085e-39
0.32953173 0.061083212 2.4260001 4.2703085e-39
0.31678796 0.093712762 2.4090004 4.2703085e-39
0.34185395 0.098984331 2.4236045 4.2703085e-39
0.37083143 0.10974761 2.4260006 4.2703085e-39
0.34713274 0.13527998 2.4146664 4.2703085e-39
0.37796706 0.14168474 2.4195931 4.2703085e-39
0.40779907 0.15249144 2.4260001 4.2703085e-39
0.38782692 0.17904572 2.4159546 4.2703085e-39
0.41645056 0.18283567 2.4260008 4.2703085e-39
0.73626024 0.17964053 2.4225998 4.2703085e-39
0.3909536 0.21175194 2.4120913 4.2703085e-39
0.42055574 0.21812278 2.4240804 4.2703085e-39
0.44438162 0.23079091 2.4260004 4.2703085e-39
0.71855813 0.22642666 2.4260001 4.2703085e-39
0.72780001 0.22180572 2.4260001 4.2703085e-39
0.43029881 0.25742096 2.4135332 4.2703085e-39
0.45688695 0.26249361 2.4260004 4.2703085e-39
0.4875105 0.27956766 2.4260001 4.2703085e-39
0.42499313 0.29224002 2.416158 4.2703085e-39
0.45700249 0.28656459 2.4222221 4.2703085e-39
0.4859702 0.2857289 2.4260001 4.2703085e-39
0.1961119 -0.60703003 2.4514999 4.2703085e-39
0.20242 -0.60493338 2.4430001 4.2703085e-39
0.18866059 -0.57951617 2.4644892 4.2703085e-39
0.21678683 -0.57534426 2.4539325 4.2703085e-39
0.25914606 -0.56701618 2.4567354 4.2703085e-39
0.3019146 -0.56965822 2.4554102 4.2703085e-39
0.34006622 -0.57154596 2.4593 4.2703085e-39
0.37969178 -0.56812638 2.44346 4.2703085e-39
0.41999167 -0.56912535 2.4430006 4.2703085e-39
0.46374661 -0.57057136 2.4499252 4.2703085e-39
0.49779594 -0.57112592 2.4469812 4.2703085e-39
0.53048003 -0.56305337 2.4430001 4.2703085e-39
0.58269072 -0.56364107 2.4472501 4.2703085e-39
0.61828822 -0.56544453 2.4456158 4.2703085e-39
0.66239482 -0.56483948 2.4447002 4.2703085e-39
0.70218801 -0.56072664 2.4430001 4.2703085e-39
0.74051744 -0.56121439 2.4451251 4.2703085e-39
0.78512079 -0.56460446 2.4430003 4.2703085e-39
0.82093686 -0.56715953 2.44912 4.2703085e-39
0.84882134 -0.56232005 2.4500003 4.2703085e-39
0.18172 -0.55813998 2.4780002 4.2703085e-39
0.23202403 -0.55956918 2.4708002 4.2703085e-39
