# .PCD v0.7 - Point Cloud Data file format
VERSION 0.7
FIELDS x y z rgb
SIZE 4 4 4 4
TYPE F F F F
COUNT 1 1 1 1
WIDTH 281
HEIGHT 1
VIEWPOINT 0 0 0 1 0 0 0
POINTS 281
DATA ascii
0.034424264 -0.054268707 0.5178569 1.0691464e-38
0.044938073 -0.056353513 0.51800501 1.2999978e-38
-0.042583466 -0.0024115164 0.51900011 1.1692988e-38
-0.022602189 -0.006704208 0.51831406 1.2245443e-38
-0.043059349 0.0022454697 0.51900011 1.1323844e-38
-0.031958096 0.0022274761 0.51887721 1.1601513e-38
-0.31526947 0.23178613 0.51892316 9.4939849e-39
-0.0014107485 -0.12306858 0.54557151 1.8067471e-38
0.018107109 -0.12735003 0.53772885 1.134839e-38
-0.041935336 -0.083116196 0.55810535 1.1988631e-38
-0.012326826 -0.092276469 0.54449624 1.0700466e-38
0.014810205 -0.10201708 0.53838259 9.8757897e-39
-0.050922897 -0.056171235 0.548522 9.5876308e-39
-0.020537945 -0.060459506 0.53815728 7.6609141e-39
0.017204423 -0.059391562 0.529872 7.3865062e-39
0.044570595 -0.048375104 0.52195728 1.6870016e-38
-0.083720692 -0.0140298 0.5412938 1.4183709e-38
-0.059313633 -0.02050636 0.53339911 9.5764527e-39
-0.021923997 -0.024198063 0.52896458 7.6511793e-39
0.023814248 -0.013886505 0.52929342 9.866045e-39
0.041625381 -0.02275908 0.52888447 2.1110638e-38
-0.083026156 0.012183824 0.55378187 1.3262465e-38
-0.059464827 0.020345746 0.53709477 1.0218931e-38
-0.019402267 0.02040012 0.53333604 9.6682924e-39
0.016844397 0.019030541 0.5423491 1.1246813e-38
-0.053883277 0.056690503 0.54394644 1.0311488e-38
-0.021874404 0.063408472 0.5450592 1.0503468e-38
0.012177119 0.057829823 0.55261821 1.0888491e-38
-0.046492528 0.083392814 0.55546045 8.2842705e-39
-0.021376267 0.084267385 0.55125535 1.2162262e-38
0.0040361555 0.081718206 0.55277783 2.0925887e-38
-0.3022576 0.13997738 0.5464927 1.2072593e-38
-0.32285213 0.18423238 0.53614914 8.9397349e-39
-0.29926622 0.18588956 0.54224312 1.0137199e-38
-0.27273279 0.1940508 0.55439669 1.0320507e-38
-0.3204 0.20365715 0.54000002 8.6645983e-39
-0.29730633 0.21883962 0.5357964 9.8609709e-39
-0.27281645 0.20249219 0.54571623 9.0312173e-39
-0.29381508 0.24116303 0.53475016 9.6754965e-39
-0.045284573 -0.082421087 0.56026667 1.8069954e-38
-0.083380423 -0.044915918 0.56687886 1.556845e-38
-0.066186897 -0.055889864 0.56190699 1.2066096e-38
-0.086113773 -0.035688657 0.56994122 1.381421e-38
-0.063630313 -0.017037725 0.56563288 8.1963923e-39
-0.086289637 0.020542793 0.56448632 1.593542e-38
-0.040822383 0.014016123 0.56292868 6.5361549e-39
-0.023863968 0.02151317 0.5675897 8.658811e-39
-0.060277045 0.073853634 0.56110007 2.0186139e-38
-0.012957998 0.050027736 0.58654177 1.7223288e-38
-0.048754003 0.10578601 0.57963449 8.1920707e-39
-0.028829671 0.10453253 0.57551116 1.3904963e-38
-0.3216421 0.13853849 0.56430429 1.4196682e-38
-0.31897727 0.13896418 0.56337506 1.4655856e-38
-0.049581267 0.13522242 0.59356898 8.1917162e-39
-0.032944139 0.1311534 0.59110159 1.3535821e-38
-0.25599098 0.19486922 0.56443661 1.2163702e-38
-0.23536786 0.19896288 0.57661545 1.243994e-38
-0.28042763 0.20643334 0.56300008 9.7716367e-39
-0.25375992 0.21767592 0.57289773 9.215247e-39
-0.22605895 0.22243957 0.58545065 9.8602605e-39
-0.24244538 0.24363126 0.58823538 7.7372386e-39
-0.22695895 0.2428439 0.58996439 7.0936713e-39
-0.063507572 0.11265148 0.60326874 9.7590461e-39
-0.081912287 0.15614225 0.63655567 1.0037431e-38
-0.061404921 0.14734405 0.60554516 8.6537719e-39
-0.02800802 0.14903048 0.60831672 1.5839629e-38
-0.083895795 0.18416996 0.63120264 8.6541335e-39
-0.059588708 0.17981935 0.61495489 8.1920749e-39
-0.029343817 0.18024859 0.62327689 1.5101705e-38
-0.21569233 0.23626374 0.59999996 1.1243199e-38
-0.084512472 0.21533732 0.63512474 7.9162111e-39
-0.059860881 0.21937783 0.62856287 8.1924378e-39
-0.033627175 0.21413979 0.63320428 1.3719853e-38
-0.060802735 0.2436658 0.63708705 7.3633974e-39
0.19716896 0.27467176 0.63794547 8.7441725e-39
0.21906774 0.26841864 0.63533419 1.0863229e-38
0.24702832 0.27343342 0.63709652 1.5288255e-38
0.19537376 0.28306153 0.63696176 8.3753858e-39
0.22013336 0.28221196 0.63283628 9.8512347e-39
0.25186944 0.28293452 0.6369642 1.4642884e-38
-0.085095719 0.15829572 0.64050007 9.7608524e-39
-0.093000911 0.18812899 0.64594853 8.9318021e-39
-0.018819753 0.1870721 0.64145166 1.5744189e-38
-0.095611401 0.22442254 0.64977723 8.1931581e-39
-0.041244451 0.23913655 0.64000005 1.0956505e-38
-0.023365067 0.22540276 0.65224069 1.5470485e-38
0.19623831 0.23802361 0.67633349 1.1692608e-38
0.22162059 0.23548508 0.67153966 1.3167381e-38
0.25304762 0.23578109 0.67364007 1.6393146e-38
-0.089363992 0.25780183 0.6551162 7.4563161e-39
-0.059577025 0.26263621 0.649014 7.3630387e-39
-0.026491521 0.25804821 0.66348577 1.1969573e-38
0.15456972 0.27226242 0.67225975 1.0217848e-38
0.18116868 0.26062277 0.65867198 1.0494435e-38
0.21918975 0.24868156 0.65112537 1.2429108e-38
0.26087403 0.25695893 0.65345794 1.7869368e-38
0.29302892 0.2645947 0.6668852 2.0912907e-38
-0.087562881 0.28966713 0.6727913 6.9038626e-39
-0.059307881 0.2908957 0.66706258 6.1655787e-39
-0.03307439 0.28881016 0.67419189 8.3761088e-39
0.14914766 0.28989568 0.66951656 8.9281966e-39
0.17370504 0.28533584 0.64973271 8.6519684e-39
0.27147999 0.28480035 0.6440742 1.713252e-38
0.30215159 0.28908804 0.66341019 1.9160107e-38
0.32315239 0.29649189 0.67777103 1.8236707e-38
-0.013245715 0.23690288 0.68400002 1.5378647e-38
0.1532802 0.23163842 0.71412832 1.113908e-38
0.18156382 0.22451568 0.70464975 1.2060314e-38
0.21913061 0.21860047 0.701177 1.3534366e-38
0.25965282 0.22211707 0.6999554 1.6853047e-38
0.2928741 0.23095398 0.70547992 1.9988061e-38
-0.10533386 0.27669275 0.6845144 7.2733682e-39
-0.007180809 0.26408732 0.70329773 9.2955358e-39
0.019504314 0.26246664 0.71443951 9.9409052e-39
0.047252174 0.26250681 0.71765745 9.0200307e-39
0.11972223 0.27843842 0.71833342 8.928191e-39
0.1428071 0.26078951 0.70114446 1.0401878e-38
0.16955233 0.245478 0.68825066 1.1323467e-38
0.27763811 0.2408084 0.68080002 1.9066828e-38
0.30666947 0.25224432 0.69264096 2.0819987e-38
0.3325161 0.26652393 0.70719945 2.0452286e-38
-0.10212012 0.30120501 0.69775492 7.5481558e-39
-0.01401327 0.2980487 0.69850427 7.5459852e-39
0.017621344 0.29691592 0.7106778 7.6374606e-39
0.04248894 0.28621981 0.7180512 7.361231e-39
0.112487 0.30281806 0.7110247 8.0984345e-39
0.12965213 0.29279456 0.69290119 9.0196692e-39
0.31862855 0.28106666 0.68000001 2.1373158e-38
0.33925432 0.29207352 0.6933217 1.8698768e-38
-0.10914205 0.32117093 0.71685719 8.1855995e-39
0.020516191 0.32070667 0.71800005 3.8632033e-39
0.10257047 0.32070667 0.71800005 6.8105796e-39
0.18625145 0.15954095 0.75800002 1.6113322e-38
0.026297299 0.19330482 0.75012308 1.2887564e-38
0.060440142 0.18928842 0.74659294 1.3993551e-38
0.10024607 0.18872765 0.75110847 1.3902072e-38
0.1417883 0.18330823 0.74867892 1.2151438e-38
0.18006998 0.18119572 0.74149084 1.417794e-38
0.21917433 0.18429093 0.74092859 1.5560154e-38
0.25673369 0.19029884 0.74388576 1.7864322e-38
0.28759429 0.19667785 0.75461286 1.9063222e-38
-0.0081372242 0.22295085 0.73659897 1.1135486e-38
0.019826127 0.21983877 0.73179829 1.1044372e-38
0.059951358 0.21992354 0.7288329 1.2244357e-38
0.099466741 0.21960071 0.73659456 1.1876293e-38
0.13784792 0.21814762 0.73404115 1.0125294e-38
0.17460886 0.20493561 0.72306514 1.2796806e-38
0.22015598 0.20183323 0.72261268 1.4454883e-38
0.26346081 0.20536941 0.72655296 1.7773205e-38
0.30187693 0.21437468 0.73738259 1.9710032e-38
0.33695966 0.22747344 0.7458573 2.0264651e-38
0.3678703 0.23523815 0.75553024 1.9159382e-38
-0.008146137 0.24682453 0.72196579 1.0675584e-38
0.018769685 0.24320155 0.72077727 1.0308246e-38
0.065309733 0.257893 0.72264165 9.2040632e-39
0.10160291 0.26028907 0.73444396 6.9013319e-39
0.12630872 0.25383127 0.72729641 8.3750214e-39
0.34700525 0.25432462 0.73015684 1.9344498e-38
0.3669444 0.25454715 0.74178654 1.7501304e-38
-0.11238373 0.31351045 0.72066677 8.0970122e-39
0.033753637 0.312583 0.72347683 4.8741182e-39
0.058586013 0.29660356 0.72973371 5.3347306e-39
0.097426511 0.29863536 0.73775083 5.7038705e-39
-0.11335239 0.32219684 0.72133338 1.4554622e-38
0.028744308 0.32163003 0.7247895 2.8508576e-39
0.079367734 0.33002949 0.75652641 4.4149408e-39
0.087986842 0.32542351 0.74060279 5.5198394e-39
0.38535613 -0.0088150278 0.78757113 5.8951267e-39
0.35872 0.038000003 0.79800004 1.0588082e-38
0.38028133 0.026452111 0.79349113 1.1600798e-38
0.3542828 0.063526541 0.79551196 9.6664875e-39
0.37639603 0.059427578 0.78870732 1.0681002e-38
0.3537201 0.097505093 0.79509813 6.2606526e-39
0.37698469 0.10012262 0.78820515 6.9993023e-39
0.072277591 0.15531968 0.79204386 1.408538e-38
0.10262352 0.14827932 0.78481239 1.3809157e-38
0.14043868 0.14234394 0.7800715 1.4638915e-38
0.17889221 0.14392917 0.77824634 1.6298072e-38
0.21715061 0.1508591 0.78267807 1.6850167e-38
0.25084662 0.15663622 0.79156798 1.6574656e-38
0.357454 0.12403873 0.79755008 5.8003891e-39
0.37798154 0.1293204 0.79302227 5.8940337e-39
-0.0020652816 0.19796331 0.76909101 1.2704976e-38
0.022352617 0.1832464 0.7742511 1.3533652e-38
0.059516348 0.17023551 0.77489412 1.4362328e-38
0.098790146 0.16884406 0.76641554 1.3808799e-38
0.13438992 0.16466317 0.76263428 1.3348902e-38
0.17274453 0.16124681 0.76100004 1.5098457e-38
0.224874 0.16471313 0.76548046 1.6573586e-38
0.26200894 0.17114358 0.77474374 1.7495541e-38
0.29893103 0.18311474 0.77973193 1.8234905e-38
0.33288175 0.19339705 0.78880519 2.0263566e-38
-0.0097672623 0.2049816 0.76420021 1.2059968e-38
0.0014480953 0.20062715 0.76050007 1.2426593e-38
0.31428602 0.20176554 0.76195234 1.9432729e-38
0.34406003 0.20939636 0.77357525 1.9893709e-38
0.37655094 0.21942742 0.78076786 1.9250499e-38
0.4000181 0.21632859 0.79700005 1.8328185e-38
0.078219309 0.31692997 0.76500005 2.2987671e-39
0.08154548 0.31315169 0.76025009 2.6664664e-39
0.07229808 0.3342728 0.77540165 3.5869793e-39
0.080342866 0.32137144 0.76000005 4.0468771e-39
0.38894168 -0.083061092 0.83437276 4.2381263e-39
0.40759453 -0.083860978 0.82984227 4.3314051e-39
0.35768852 -0.045595482 0.83612508 3.1314102e-39
0.38283589 -0.057788085 0.8269664 4.5125426e-39
0.40448958 -0.063015126 0.81760269 4.3281583e-39
0.35132867 -0.016454024 0.82926816 5.3415816e-39
0.3777439 -0.022573348 0.81172985 8.195679e-39
0.40179837 -0.03326143 0.80475008 1.1508954e-38
0.34397802 0.021779155 0.81830728 9.9434317e-39
0.37209955 0.0098624956 0.80359316 9.9423513e-39
0.31828722 0.066979922 0.83636373 9.0225572e-39
0.33464974 0.058970157 0.81607854 9.4828123e-39
0.11828773 0.11828857 0.82988894 1.4268346e-38
0.14150946 0.11565393 0.81851053 1.4731833e-38
0.17506306 0.11463881 0.81812704 1.5561232e-38
0.31662381 0.1029191 0.83625811 9.9426989e-39
0.33394617 0.10037261 0.81524897 7.8250888e-39
0.06733609 0.14906774 0.81147945 1.3994269e-38
0.099140301 0.13267 0.81529242 1.4270136e-38
0.13584399 0.12265476 0.80600053 1.5008056e-38
0.18383087 0.12424596 0.80691898 1.6758686e-38
0.21953554 0.13755226 0.81214797 1.5836731e-38
0.26099488 0.14866513 0.81745744 1.4639268e-38
0.30354035 0.1441521 0.8297202 1.2521291e-38
0.33964491 0.13895212 0.82347971 1.0126733e-38
0.37461999 0.14503634 0.80999088 9.2073072e-39
0.40082243 0.14346795 0.80266666 1.4193808e-38
0.038454764 0.16687952 0.80750006 1.4270856e-38
0.046209466 0.16328324 0.80664521 1.4087183e-38
0.27906668 0.16051938 0.80133337 1.5744903e-38
0.30485955 0.16548508 0.80758172 1.6853044e-38
0.34223938 0.17668194 0.81628227 1.9065745e-38
0.37566444 0.1863846 0.82380098 1.9250139e-38
0.40833819 0.19576882 0.83247542 1.8420738e-38
0.38671365 0.20555639 0.80563456 1.924978e-38
0.40717217 0.20616312 0.81749398 1.8512575e-38
0.062786676 0.35125768 0.80672735 3.0374111e-39
0.35758707 -0.08174096 0.87400007 3.1332151e-39
0.37135768 -0.086098485 0.86169463 3.5934716e-39
0.34482858 -0.055599067 0.8590439 3.0399377e-39
0.36858833 -0.072299756 0.85103464 3.0402978e-39
0.31374973 -0.012379291 0.87206358 1.095398e-38
0.3338308 -0.021590332 0.85627329 5.523812e-39
0.31091624 0.020185756 0.86514062 1.1413879e-38
0.3267341 0.014854518 0.85187584 1.0586996e-38
0.31077418 0.060992394 0.85959357 1.1508587e-38
0.32062477 0.04361143 0.84800005 1.1415311e-38
0.27806747 0.11783385 0.87300003 1.2522009e-38
0.30070934 0.1011202 0.85693967 1.1784449e-38
0.094335482 0.12922643 0.84212506 1.4728269e-38
0.23029222 0.13243538 0.86660618 1.3443249e-38
0.26194379 0.13199665 0.85821784 1.3074468e-38
0.29145324 0.12934051 0.84803587 1.1968839e-38
0.3774398 0.15662946 0.84231246 1.694704e-38
0.38423929 0.17188169 0.84653866 1.9986621e-38
0.41690353 0.18834719 0.86303294 1.7775367e-38
0.35850316 -0.087886043 0.88433337 3.2254121e-39
0.36867309 -0.094824448 0.8857668 3.2247003e-39
0.31844124 -0.041844476 0.90030003 3.7760664e-39
0.33141652 -0.059051599 0.89239961 3.5923884e-39
0.31175852 -0.021030078 0.89095521 5.1568316e-39
0.32111514 -0.035643339 0.88394445 3.2239688e-39
0.30351141 0.023076285 0.89685678 6.8152683e-39
0.3004199 0.060456879 0.89122993 1.0406925e-38
0.22091036 0.11760713 0.89280272 1.3720936e-38
0.26586452 0.11369058 0.89822078 1.3259588e-38
0.2882669 0.095809855 0.89173532 1.1969924e-38
0.2224998 0.12366039 0.88366729 1.3258862e-38
0.25247306 0.12242758 0.88546896 1.3259219e-38
0.42673293 0.18336198 0.88818842 1.7037074e-38
0.44506097 0.18738873 0.89355087 1.5932172e-38
-0.089363992 0.25780183 0.6551162 7.4563161e-39
0.19192494 0.12714618 0.67579091 1.1884592e-38
-0.038487602 0.14849618 0.91087526 1.326536e-38
-0.083249189 0.21478894 0.63185918 9.3945838e-39
0.012406737 0.26111484 0.60737509 1.5478409e-38
0.054056022 0.32582974 0.74065793 3.5869808e-39
0.08603292 0.21027614 0.89846903 1.2801133e-38
-0.066778354 0.09190806 0.59740901 1.1704165e-38
