# .PCD v0.7 - Point Cloud Data file format
VERSION 0.7
FIELDS x y z rgb
SIZE 4 4 4 4
TYPE F F F F
COUNT 1 1 1 1
WIDTH 265
HEIGHT 1
VIEWPOINT 0 0 0 1 0 0 0
POINTS 265
DATA ascii
-0.032802384 -0.0007130953 0.59900004 9.0503758e-39
-0.032298416 0.0061326823 0.59831727 7.4808795e-39
-0.080813333 -0.043748572 0.63800001 7.4751033e-39
-0.063413575 -0.049272586 0.6286335 8.5749601e-39
-0.081426859 -0.03651429 0.639 8.9527445e-39
-0.059150133 -0.019551994 0.6275773 7.295761e-39
-0.032303844 -0.0055695544 0.60407805 1.2183931e-38
-0.051780511 0.0088597834 0.61493349 6.552054e-39
-0.027712224 0.013348469 0.6025157 1.1440592e-38
-0.092641212 -0.082348466 0.67417312 5.5314757e-39
-0.079071432 -0.080357142 0.67500001 1.190198e-38
-0.091821142 -0.064584874 0.67404628 8.5763992e-39
-0.064657293 -0.05950864 0.67125601 1.5312437e-38
-0.026904298 -0.044293039 0.65970188 1.1800724e-38
-0.097531706 -0.017007096 0.66610759 8.2994396e-39
-0.06033447 -0.021298183 0.64761317 6.8358702e-39
-0.028065562 -0.030181808 0.65772647 9.7799955e-39
-0.1601619 0.021695238 0.67000002 2.1940403e-38
-0.13808997 0.027421689 0.65981215 1.4921643e-38
-0.10009136 0.020585593 0.66462916 8.8471847e-39
-0.071288072 0.017778989 0.65056956 1.0605343e-38
-0.13335904 0.05838643 0.64940435 1.3536179e-38
-0.10948266 0.063878134 0.65685016 1.6942375e-38
-0.12618306 0.088825747 0.65446162 1.2247944e-38
-0.098310255 0.097941399 0.65764511 1.3444345e-38
-0.072548509 0.10287527 0.66836661 1.9707531e-38
-0.090144686 0.1368631 0.67258501 9.7576041e-39
-0.074460566 0.13762537 0.67505896 1.5746722e-38
-0.083974287 0.16319095 0.67900014 9.3891804e-39
-0.077658795 0.16372424 0.67899996 1.1509324e-38
0.19096358 0.2684314 0.67544669 9.2962631e-39
0.21899436 0.26662922 0.67273486 1.2522028e-38
0.25214309 0.27097312 0.67467493 1.7039251e-38
0.18755729 0.29073763 0.67388904 8.2835489e-39
0.2199575 0.29004857 0.66783124 1.0034904e-38
0.25982642 0.29121634 0.67285836 1.4918389e-38
0.28080648 0.29671812 0.67876923 1.630096e-38
-0.10422157 -0.055353615 0.68486023 8.2130187e-39
-0.05006877 -0.062471721 0.69486058 1.0510354e-38
-0.037870858 -0.056498516 0.69664007 1.8166157e-38
-0.12402509 -0.0047927639 0.68022239 1.3166322e-38
-0.1103728 -0.022193909 0.68250018 1.151835e-38
-0.12852767 0.0075893668 0.68223482 1.2061054e-38
-0.10584301 0.020119583 0.6850965 1.0681e-38
-0.066167459 0.032556038 0.70170242 1.4550334e-38
-0.12218736 0.057240445 0.69592011 1.7312587e-38
-0.096396402 0.059888713 0.69561684 1.2243991e-38
-0.067336336 0.06181844 0.69672751 1.6670117e-38
-0.081309147 0.080528572 0.68300003 1.9803654e-38
-0.06330774 0.093525924 0.69261897 1.9892996e-38
-0.10033163 0.14936912 0.68365067 1.3448306e-38
-0.061680835 0.14200573 0.69636738 1.8972124e-38
-0.091591083 0.18090008 0.68800467 8.7448927e-39
-0.064185828 0.18141215 0.69641954 1.5562689e-38
-0.093855202 0.22044213 0.70112884 8.2846349e-39
-0.061365772 0.22042964 0.70234293 1.3167043e-38
0.19118319 0.23703858 0.71181703 1.2336903e-38
0.21983038 0.23462878 0.7087763 1.3995344e-38
0.25172639 0.23565732 0.71160263 1.6945247e-38
-0.091984257 0.25848493 0.70907968 7.9162125e-39
-0.059676766 0.25973406 0.70740908 1.0587725e-38
-0.039031431 0.27276349 0.71900004 1.2891172e-38
0.15065278 0.26824099 0.7076683 1.0955412e-38
0.17695431 0.25633639 0.69502121 1.0954696e-38
0.2210245 0.24710141 0.68849099 1.4180102e-38
0.26237899 0.25443509 0.69262427 1.8697691e-38
0.29483303 0.2660006 0.70357555 2.1004744e-38
0.32162941 0.27750018 0.71649998 2.0636326e-38
-0.086473234 0.29079515 0.71550024 7.363403e-39
-0.062115915 0.29404294 0.71423745 8.0073305e-39
0.14354283 0.29746783 0.70297331 9.0200335e-39
0.16786627 0.29342827 0.68459344 8.5597756e-39
0.27844715 0.28363091 0.68066674 1.9249787e-38
0.30141956 0.29436886 0.6905517 1.7960123e-38
0.33647043 0.30222797 0.70715451 1.7316194e-38
0.36086956 0.30814287 0.71900004 1.8608727e-38
0.12793049 0.32085559 0.71833342 8.5594141e-39
-0.048146602 0.18017115 0.72620255 1.7497718e-38
-0.11166478 0.2381328 0.72057158 1.6032313e-38
-0.04266322 0.21393202 0.72481203 1.7312596e-38
-0.035178751 0.22683586 0.73450541 1.5100978e-38
0.15080573 0.22979015 0.75059932 1.2060319e-38
0.18036884 0.22373903 0.7411719 1.2612772e-38
0.21938096 0.21630923 0.73970342 1.4363047e-38
0.25968266 0.22185399 0.73889518 1.7589534e-38
0.29403764 0.23127179 0.7456606 1.9986625e-38
0.3204 0.23976001 0.75600004 2.0817107e-38
-0.108649 0.26275909 0.72398603 1.1511481e-38
-0.040457144 0.25165713 0.72000003 1.5377936e-38
-0.026892154 0.26190212 0.73676348 1.3995355e-38
0.1180491 0.27624372 0.75476944 9.5724884e-39
0.13787074 0.25822279 0.73841673 1.123092e-38
0.16479453 0.24303071 0.72485483 1.1691896e-38
0.27814361 0.24136801 0.72040004 1.943525e-38
0.30636656 0.25116563 0.73117763 2.1095137e-38
0.33813339 0.26436564 0.74455816 1.9437054e-38
0.3682211 0.27190822 0.75211543 1.5657752e-38
-0.096394263 0.30065498 0.72772557 7.7318296e-39
-0.054222442 0.3100585 0.72187394 7.7307422e-39
-0.02293751 0.29967034 0.73604685 1.0402608e-38
0.11191574 0.30318308 0.74345386 9.0196706e-39
0.12501457 0.29612485 0.72634554 9.6646784e-39
0.3484363 0.28907621 0.7287302 1.8331065e-38
0.36564773 0.29054812 0.73654282 1.6210925e-38
-0.089758672 0.32449406 0.73498172 6.9957037e-39
-0.058745462 0.32261908 0.72590446 6.6258338e-39
-0.018836986 0.32693663 0.74249732 7.6374634e-39
0.013220717 0.33143079 0.75708646 7.7296604e-39
0.10375889 0.32661584 0.74358571 8.2824685e-39
0.12275317 0.32141533 0.72154552 8.742369e-39
0.145532 0.18957646 0.78912258 1.3348544e-38
0.18009721 0.18627812 0.782453 1.4453809e-38
0.21928731 0.18715255 0.7798323 1.5744185e-38
0.25601223 0.19189095 0.78585798 1.8047635e-38
0.28771427 0.19734773 0.794348 1.8325301e-38
0.030729342 0.23300582 0.79310244 1.1875213e-38
0.061483487 0.22601032 0.78875279 1.2612781e-38
0.099849507 0.22518697 0.78896868 1.1231285e-38
0.13633892 0.21667477 0.77385217 1.1968127e-38
0.17619956 0.20474517 0.7634235 1.3625126e-38
0.21928385 0.20155783 0.7610895 1.5007339e-38
0.26421812 0.20515071 0.76780146 1.8325298e-38
0.30190328 0.21451773 0.77778947 1.9248337e-38
0.33747891 0.22758493 0.78227174 1.9802594e-38
0.37365517 0.2354517 0.79143012 1.8973192e-38
0.40052003 0.23940001 0.79800004 1.8329257e-38
-0.0074101612 0.26696149 0.79044479 9.4781306e-39
0.020617714 0.26064664 0.78236622 1.0124217e-38
0.059674814 0.25999853 0.77320355 1.049408e-38
0.10118118 0.25995883 0.7765407 8.3753816e-39
0.1243763 0.25009 0.76458329 9.8497886e-39
0.34803548 0.24755374 0.76611167 1.9158665e-38
0.37707761 0.25222012 0.77404058 1.7499864e-38
0.4000181 0.24061811 0.79700005 1.8328184e-38
-0.0037405656 0.29707679 0.77031648 7.451633e-39
0.019373812 0.29982233 0.76624233 8.7430865e-39
0.059015427 0.29931334 0.76881099 7.7296548e-39
0.095731072 0.29803753 0.77355379 6.0719341e-39
-0.0025342859 0.32738978 0.76045007 5.6131196e-39
0.024110293 0.32873395 0.76128894 7.5452678e-39
0.059894405 0.33448902 0.77721113 5.0585095e-39
0.087039538 0.33092275 0.77407855 5.704232e-39
0.39191476 -0.002491029 0.83280665 5.6207076e-39
0.41114432 -0.0070072552 0.83567315 1.1328891e-38
0.38503295 0.02438711 0.83283395 1.0128913e-38
0.40887052 0.020207521 0.82999039 9.1180067e-39
0.35485914 0.068963349 0.83466822 1.0218224e-38
0.3788892 0.059247252 0.82532895 1.1693354e-38
0.4073498 0.059397351 0.82432353 1.0218944e-38
0.35239625 0.099391714 0.83257699 7.6410661e-39
0.37952226 0.10059469 0.8215487 8.2886005e-39
0.40629718 0.098576732 0.82077587 1.1509694e-38
0.11444207 0.15794189 0.83774078 1.3994269e-38
0.14364882 0.15393879 0.83081526 1.4638917e-38
0.1787345 0.15228067 0.82691622 1.6113321e-38
0.21663076 0.15655972 0.83167177 1.5929293e-38
0.24291049 0.15861095 0.83900005 1.5561223e-38
0.35453653 0.12914163 0.83516622 6.3517678e-39
0.37992734 0.13800131 0.82456899 6.0769872e-39
0.40510824 0.1336372 0.81690133 9.2127289e-39
0.066726454 0.19291207 0.82645881 1.3993909e-38
0.10189628 0.18229455 0.82008475 1.3256708e-38
0.13621515 0.17287754 0.81150705 1.3717326e-38
0.17979465 0.16613275 0.8074193 1.5375761e-38
0.2213189 0.16701762 0.8120575 1.6112609e-38
0.26082027 0.174806 0.81832838 1.685053e-38
0.2986103 0.1861103 0.8198387 1.7681371e-38
0.32891816 0.19315067 0.83181608 1.9894791e-38
0.38770622 0.1619112 0.83850002 1.5574189e-38
-0.0024223379 0.2364393 0.8246364 1.2336918e-38
0.021031933 0.22183572 0.81789923 1.2888286e-38
0.056329362 0.20674464 0.81041574 1.3717325e-38
0.10115331 0.20561932 0.80264586 1.196705e-38
0.12114286 0.20190477 0.80000007 1.095542e-38
0.31468016 0.2027013 0.80362958 1.9432724e-38
0.34400219 0.20933323 0.81678456 1.9524926e-38
0.37987602 0.21964391 0.81923014 1.8788802e-38
0.40783602 0.22634844 0.82436419 1.8050519e-38
-0.014460305 0.25225896 0.81190133 1.0769948e-38
0.0052879765 0.24362181 0.80412495 1.1229119e-38
0.071795061 0.35352966 0.80152947 2.0236179e-39
0.079999998 0.34514284 0.80000001 3.5862661e-39
0.066782854 0.36001337 0.80600005 1.5630027e-39
0.38936415 -0.053445417 0.87124956 3.8686151e-39
0.41282895 -0.055499543 0.85976458 3.6849497e-39
0.35454971 -0.0081243869 0.87254333 4.4217945e-39
0.37945697 -0.019623566 0.85909945 6.9989407e-39
0.41142273 -0.026779417 0.84730417 1.0311856e-38
0.34772772 0.023142477 0.86153203 9.2065912e-39
0.37215045 0.012905282 0.84638 9.5742891e-39
0.33848715 0.059263308 0.85641921 9.8512347e-39
0.36149654 0.044319369 0.84100002 1.0679921e-38
0.31591487 0.10560456 0.8752411 1.1139443e-38
0.33209872 0.099839747 0.85541499 8.6541306e-39
0.10529228 0.14935982 0.85910678 1.4270856e-38
0.13943051 0.1368224 0.8571524 1.4731833e-38
0.17862743 0.13532218 0.85853124 1.5929293e-38
0.21782206 0.14836241 0.85164827 1.5284641e-38
0.26000202 0.1555067 0.8637777 1.3902428e-38
0.30581281 0.14539252 0.87012559 1.1876646e-38
0.33728188 0.14035726 0.85641402 9.1129438e-39
0.36594361 0.15529799 0.84897774 8.281744e-39
0.038993333 0.19821875 0.85300004 1.4179743e-38
0.062752113 0.18128683 0.85674369 1.3810239e-38
0.08820498 0.16628222 0.8494733 1.3625491e-38
0.26973096 0.16308345 0.848014 1.4823662e-38
0.30194357 0.1675193 0.85186201 1.491694e-38
0.34164873 0.17741583 0.85447383 1.7037442e-38
0.37478349 0.18277496 0.86436927 1.7959759e-38
0.40180728 0.19714515 0.87640011 1.7867204e-38
0.028418625 0.20706576 0.84499991 1.3904954e-38
0.35802573 0.20103905 0.84100002 1.8421098e-38
0.38589403 0.2038139 0.84859639 1.8788799e-38
0.41819593 0.21125506 0.8585217 1.777537e-38
0.44083336 0.20916668 0.87500006 1.7130711e-38
0.35024232 -0.047586553 0.90147477 3.1314172e-39
0.37218562 -0.058099113 0.89121461 3.2239688e-39
0.3178761 -0.0063677896 0.91064119 1.0217135e-38
0.34066004 -0.020219918 0.89571965 4.2356012e-39
0.36265889 -0.034637973 0.88133329 3.2232457e-39
0.31314516 0.022540728 0.90932655 1.1322045e-38
0.33060944 0.017054662 0.89427638 1.0033825e-38
0.31376484 0.061143182 0.90056431 1.1692262e-38
0.32301918 0.055235289 0.88387078 1.1139095e-38
0.30559498 0.1008526 0.89767647 1.2153233e-38
0.078710169 0.15769875 0.8823334 1.3441817e-38
0.099658474 0.14497492 0.88243878 1.4086469e-38
0.13164154 0.12629393 0.88112503 1.4637504e-38
0.17530546 0.12353916 0.88071442 1.575035e-38
0.22792098 0.14537302 0.90684718 1.3719478e-38
0.26137188 0.1436957 0.89735126 1.3351056e-38
0.29340097 0.13335404 0.8914454 1.2245427e-38
0.075413577 0.16279356 0.88225007 1.3534731e-38
0.3935824 0.18878718 0.88614702 1.9432728e-38
0.41184989 0.19325483 0.89525747 1.7866481e-38
0.45138353 0.19955018 0.91233337 1.4919468e-38
0.42709303 0.20273626 0.88870305 1.6944888e-38
0.44786438 0.20396772 0.89904118 1.6024012e-38
0.36687621 -0.081033342 0.93500006 3.2196752e-39
0.33270651 -0.0409954 0.92916667 3.777144e-39
0.36655331 -0.076960467 0.92889488 3.3158099e-39
0.31221586 -0.0014603175 0.92000002 1.1596814e-38
0.32593766 -0.026620653 0.93336648 3.6845868e-39
0.30783758 0.022635944 0.93722922 6.2631792e-39
0.30650738 0.059433125 0.93253821 8.9339601e-39
0.29485297 0.10065844 0.93062037 1.141784e-38
0.22723275 0.13783123 0.92984229 1.3441811e-38
0.26200187 0.13219033 0.92888278 1.2982637e-38
0.28409556 0.12418117 0.9252001 1.2613492e-38
0.42698425 0.1910585 0.92587966 1.7038164e-38
0.45187747 0.19694379 0.92561287 1.5102419e-38
0.45364767 0.20064761 0.92000002 1.4918748e-38
-0.026459049 0.2846629 0.95800012 4.1448545e-39
-0.04049167 0.26554072 0.9887501 4.6976625e-39
-0.021545822 0.26740739 0.98250604 4.2374046e-39
0.00094952382 0.2658667 0.99700004 6.1677549e-39
-0.025241904 0.28232998 0.96406227 4.237406e-39
-0.0095348777 0.23611116 1.02842 5.1586463e-39
0.010758542 0.23585184 1.0338551 4.8831356e-39
-0.041054767 0.25969574 1.0025001 5.065729e-39
-0.018191863 0.24943642 1.0093231 4.790577e-39
0.0098747723 0.24814597 1.0154608 4.6065473e-39
0.012267768 0.23084177 1.046154 5.4352346e-39
0.059670661 0.18607311 0.83996105 1.2986612e-38
0.00036056369 0.16655055 0.8421278 1.3268258e-38
