# .PCD v0.7 - Point Cloud Data file format
VERSION 0.7
FIELDS x y z rgb
SIZE 4 4 4 4
TYPE F F F F
COUNT 1 1 1 1
WIDTH 728
HEIGHT 1
VIEWPOINT 0 0 0 1 0 0 0
POINTS 728
DATA ascii
0.71688944 -0.64818442 1.8430002 4.6430651e-39
0.73144811 -0.6579178 1.8487694 4.6430651e-39
0.71789241 -0.63715148 1.8430001 4.6430651e-39
0.7315833 -0.63574725 1.8430003 4.6430651e-39
0.78844386 -0.54941332 1.8730001 4.6430651e-39
0.75940382 -0.68184006 1.8940001 4.6430651e-39
0.76421398 -0.68123877 1.8940001 4.6430651e-39
0.75589007 -0.66891336 1.8830001 4.6430651e-39
0.76455444 -0.67120528 1.895286 4.6430651e-39
0.79700482 -0.62191904 1.9150001 4.6430651e-39
0.81159532 -0.61462384 1.9150002 4.6430651e-39
0.79460949 -0.5651471 1.8907144 4.6430651e-39
0.8168115 -0.57841223 1.8965437 4.6430651e-39
0.79574037 -0.55148095 1.8903334 4.6430651e-39
0.82361418 -0.5292064 1.9044619 4.6430651e-39
0.84077626 -0.5434953 1.9150001 4.6430651e-39
0.81417692 -0.50911891 1.8925947 4.6430651e-39
0.87681103 -0.72464651 1.9580001 4.6430651e-39
0.88389719 -0.7253924 1.9580001 4.6430651e-39
0.78448409 -0.66033381 1.9532858 4.6430651e-39
0.81639284 -0.650056 1.9580001 4.6430651e-39
0.81033689 -0.62794173 1.9323335 4.6430651e-39
0.89508569 -0.63401908 1.9580001 4.6430651e-39
0.82243341 -0.58850002 1.9250001 4.6430651e-39
0.83429205 -0.54384524 1.9321922 4.6430651e-39
0.86042279 -0.53486395 1.9479998 4.6430651e-39
0.8978579 -0.73146856 1.9761339 4.6430651e-39
0.92011434 -0.74937147 1.9920001 4.6430651e-39
0.79547608 -0.68521208 1.9690001 4.6430651e-39
0.812419 -0.68502778 1.9808235 4.6430651e-39
0.79544145 -0.67320001 1.9745002 4.6430651e-39
0.81745768 -0.66778582 1.9814392 4.6430651e-39
0.8428489 -0.66451752 1.9920005 4.6430651e-39
0.90263146 -0.64879721 1.9890001 4.6430651e-39
0.8221612 -0.63568193 1.9736 4.6430651e-39
0.84422863 -0.63933712 1.9920001 4.6430651e-39
0.89298838 -0.63495564 1.9690001 4.6430651e-39
0.86823529 -0.5306924 1.9690001 4.6430651e-39
0.94980574 -0.76639909 2.0270002 4.6430651e-39
0.84905773 -0.72525221 1.9907295 4.6430651e-39
0.82860118 -0.73614752 2.0188489 4.6430651e-39
0.84951383 -0.73824763 2.0338571 4.6430651e-39
0.90233135 -0.72441566 2.0161428 4.6430651e-39
0.93109751 -0.7432214 2.0130002 4.6430651e-39
0.96334761 -0.75732476 2.003 4.6430651e-39
0.83117884 -0.69977874 2.011308 4.6430651e-39
0.85703683 -0.69460714 2.02175 4.6430651e-39
0.90199125 -0.70110029 2.0263574 4.6430651e-39
0.92240477 -0.6854924 2.039 4.6430651e-39
0.82374454 -0.65972161 2.0060003 4.6430651e-39
0.86063802 -0.65161836 2.0125995 4.6430651e-39
0.90620571 -0.65827894 2.0216668 4.6430651e-39
0.92083722 -0.6718058 2.0270002 4.6430651e-39
0.83515978 -0.63774133 2.0190003 4.6430651e-39
0.85782349 -0.63459927 2.0190973 4.6430651e-39
0.88084292 -0.63904291 2.0150001 4.6430651e-39
0.83919054 -0.57357907 2.0210001 4.6430651e-39
0.84456623 -0.57819474 2.0270002 4.6430651e-39
0.8538124 -0.73167753 2.0510001 4.6430651e-39
0.94662625 -0.74303579 2.0731113 4.6430651e-39
0.8770467 -0.69343334 2.0510001 4.6430651e-39
0.90058309 -0.69161117 2.0601742 4.6430651e-39
0.93202031 -0.68923545 2.0651431 4.6430651e-39
0.96797353 -0.70141256 2.0670717 4.6430651e-39
0.87066013 -0.67116082 2.0610914 4.6430651e-39
0.90004498 -0.67301279 2.0665791 4.6430651e-39
0.92330045 -0.67558724 2.0595717 4.6430651e-39
0.85452092 -0.62421042 2.0630014 4.6430651e-39
0.85193843 -0.59272432 2.0558002 4.6430651e-39
0.97695839 -0.73118168 2.0977502 4.6430651e-39
0.91222644 -0.68519777 2.0909998 4.6430651e-39
0.9224391 -0.68232477 2.1010001 4.6430651e-39
0.97361797 -0.70503837 2.1071389 4.6430651e-39
0.9067086 -0.67567211 2.0912502 4.6430651e-39
0.85744065 -0.62160063 2.0986364 4.6430651e-39
0.9895615 -0.72824436 2.1270001 4.6430651e-39
1.0263149 -0.73004413 2.1504002 4.6430651e-39
0.96788639 -0.71264631 2.1270001 4.6430651e-39
1.0267127 -0.71849597 2.1432502 4.6430651e-39
1.0277772 -0.74090761 2.1670001 4.6430651e-39
1.0718876 -0.73500794 2.1888001 4.6430651e-39
1.0802838 -0.72506475 2.194 4.6430651e-39
1.073869 -0.71476603 2.1670003 4.6430651e-39
1.0728391 -0.74407786 2.2126842 4.6430651e-39
1.0858907 -0.73224223 2.2242589 4.6430651e-39
1.0947891 -0.71671361 2.2226 4.6430651e-39
1.0844123 -0.60292476 2.237 4.6430651e-39
1.0917481 -0.73068935 2.2590001 4.6430651e-39
1.101006 -0.71292645 2.2637596 4.6430651e-39
1.096797 -0.60822546 2.2566669 4.6430651e-39
1.0999093 -0.57261467 2.2660003 4.6430651e-39
1.0927076 -0.72557533 2.2810001 4.6430651e-39
1.1095074 -0.70689279 2.2810004 4.6430651e-39
1.123121 -0.70819622 2.2810001 4.6430651e-39
1.111962 -0.62313908 2.312 4.6430651e-39
1.0780292 -0.57817197 2.2836668 4.6430651e-39
1.0998306 -0.57718486 2.2893174 4.6430651e-39
1.1335981 -0.57831621 2.3045001 4.6430651e-39
1.1187763 -0.55830193 2.2810001 4.6430651e-39
1.1121001 -0.64030004 2.3590002 4.6430651e-39
1.1046304 -0.61941332 2.3407149 4.6430651e-39
1.1268716 -0.62216294 2.3430004 4.6430651e-39
1.0952414 -0.57931226 2.3270001 4.6430651e-39
1.150519 -0.5779897 2.3284545 4.6430651e-39
1.1185448 -0.644701 2.3920002 4.6430651e-39
1.1201143 -0.64491433 2.3760002 4.6430651e-39
1.1065372 -0.63586289 2.3760002 4.6430651e-39
1.1829181 -0.59487242 2.3840003 4.6430651e-39
1.1999115 -0.64928293 2.4090002 4.6430651e-39
1.2097199 -0.64809835 2.4217501 4.6430651e-39
1.1976173 -0.60569143 2.4090002 4.6430651e-39
1.2107743 -0.60587299 2.416286 4.6430651e-39
1.1999115 -0.59651434 2.4090002 4.6430651e-39
1.2090888 -0.59345531 2.4090004 4.6430651e-39
1.1156132 -0.69988239 2.466167 4.6430651e-39
1.1371835 -0.6962536 2.4747684 4.6430651e-39
1.1758318 -0.70309502 2.4643679 4.6430651e-39
1.2203315 -0.69714576 2.4730005 4.6430651e-39
1.1478802 -0.66784823 2.4681113 4.6430651e-39
1.1965201 -0.66316003 2.4780002 4.6430651e-39
1.2157174 -0.65530002 2.4647503 4.6430651e-39
1.2312914 -0.63331425 2.4720001 4.6430651e-39
1.1457829 -0.72027433 2.4960001 4.6430651e-39
1.1164649 -0.70442665 2.4960001 4.6430651e-39
1.1392457 -0.69947428 2.4960001 4.6430651e-39
1.1711391 -0.70601147 2.4960003 4.6430651e-39
1.2252805 -0.70265573 2.5095 4.6430651e-39
1.2426344 -0.69434291 2.5140002 4.6430651e-39
1.15644 -0.67279428 2.5140002 4.6430651e-39
1.2256091 -0.65524566 2.5080001 4.6430651e-39
1.2426344 -0.65124577 2.5140002 4.6430651e-39
1.1488954 -0.69279838 2.5409415 4.6430651e-39
1.169908 -0.69186211 2.5367501 4.6430651e-39
1.2348226 -0.70504349 2.536222 4.6430651e-39
1.2432117 -0.70729566 2.5347145 4.6430651e-39
1.1532694 -0.67682022 2.5472 4.6430651e-39
1.1713777 -0.65874803 2.5510004 4.6430651e-39
1.2259699 -0.66142768 2.5371819 4.6430651e-39
1.2475933 -0.6612227 2.5358002 4.6430651e-39
1.1686009 -0.63896477 2.5510001 4.6430651e-39
1.0706742 -0.4461143 2.5320001 4.6430651e-39
1.0374068 -0.41058955 2.5510004 4.6430651e-39
1.0659708 -0.41516533 2.5438752 4.6430651e-39
1.1669508 -0.68894506 2.5784447 4.6430651e-39
1.2550488 -0.71259147 2.5890002 4.6430651e-39
1.1577239 -0.67799056 2.5700002 4.6430651e-39
1.1755514 -0.66690892 2.5777404 4.6430651e-39
1.1671047 -0.6369763 2.5890005 4.6430651e-39
1.0594977 -0.41144061 2.5776002 4.6430651e-39
1.1554143 -0.69324863 2.6090002 4.6430651e-39
1.1685681 -0.68966055 2.619 4.6430651e-39
1.1592638 -0.64347911 2.6290002 4.6430651e-39
1.1815537 -0.66203964 2.6166196 4.6430651e-39
1.2034531 -0.6766836 2.6090002 4.6430651e-39
1.1542938 -0.61962175 2.6170006 4.6430651e-39
1.1740063 -0.63103408 2.6204293 4.6430651e-39
1.1066839 -0.47322002 2.6290002 4.6430651e-39
1.0709324 -0.40253147 2.6090002 4.6430651e-39
1.1798563 -0.69042194 2.6490002 4.6430651e-39
1.1392341 -0.64666104 2.6523337 4.6430651e-39
1.1757265 -0.65883875 2.6580913 4.6430651e-39
1.1438867 -0.6259439 2.6573339 4.6430651e-39
1.1627599 -0.62813854 2.6530004 4.6430651e-39
1.1082705 -0.52109051 2.6690001 4.6430651e-39
1.1964095 -0.68915236 2.6900001 4.6430651e-39
1.2091923 -0.69108987 2.7110002 4.6430651e-39
1.1554191 -0.64816189 2.6900001 4.6430651e-39
1.1779635 -0.65988153 2.6930003 4.6430651e-39
1.2005858 -0.67904097 2.7110002 4.6430651e-39
1.1502954 -0.62510478 2.6900003 4.6430651e-39
1.160543 -0.62254292 2.6900001 4.6430651e-39
1.1161526 -0.52704328 2.6942003 4.6430651e-39
1.141202 -0.52412671 2.7110002 4.6430651e-39
1.1292821 -0.51003814 2.7092502 4.6430651e-39
1.2148867 -0.70024419 2.744813 4.6430651e-39
1.1999171 -0.67934567 2.733 4.6430651e-39
1.2051228 -0.67934567 2.733 4.6430651e-39
1.182101 -0.62628579 2.7400002 4.6430651e-39
1.1166258 -0.53879142 2.733 4.6430651e-39
1.1391858 -0.52908856 2.7435002 4.6430651e-39
1.1724172 -0.52194858 2.7540004 4.6430651e-39
1.1505169 -0.50965536 2.740875 4.6430651e-39
1.1619258 -0.51408005 2.7540002 4.6430651e-39
1.3195286 -0.76506001 2.799 4.6430651e-39
1.3380121 -0.77022433 2.7939234 4.6430651e-39
1.2342257 -0.72507429 2.799 4.6430651e-39
1.3276706 -0.75904673 2.7770002 4.6430651e-39
1.2267096 -0.71425903 2.7880001 4.6430651e-39
1.1441283 -0.53463882 2.7825003 4.6430651e-39
1.1804454 -0.53159714 2.7770002 4.6430651e-39
1.1523629 -0.51777142 2.7880001 4.6430651e-39
1.1814287 -0.51123947 2.7814002 4.6430651e-39
1.2022371 -0.51448286 2.799 4.6430651e-39
1.3431376 -0.78545666 2.8220003 4.6430651e-39
1.3791965 -0.77045077 2.8220003 4.6430651e-39
1.4020413 -0.76776314 2.822 4.6430651e-39
1.1476133 -0.54128647 2.8220003 4.6430651e-39
1.2228668 -0.5240857 2.822 4.6430651e-39
1.2201791 -0.51736665 2.822 4.6430651e-39
1.3579934 -0.80058765 2.8690002 4.6430651e-39
1.3520525 -0.79389048 2.845 4.6430651e-39
1.3904066 -0.77818096 2.8570001 4.6430651e-39
1.1522168 -0.5660001 2.8556664 4.6430651e-39
1.1634582 -0.57311845 2.8610001 4.6430651e-39
1.2250175 -0.56378132 2.8690002 4.6430651e-39
1.1545652 -0.54770082 2.8498001 4.6430651e-39
1.1683339 -0.53331006 2.8657999 4.6430651e-39
1.2432334 -0.5218848 2.8690002 4.6430651e-39
1.1694591 -0.51642001 2.8690002 4.6430651e-39
1.2217462 -0.50117397 2.8559093 4.6430651e-39
1.3665981 -0.79626381 2.8930001 4.6430651e-39
1.1792419 -0.5358938 2.8930001 4.6430651e-39
1.1796019 -0.57158864 2.9420002 4.6430651e-39
1.2000505 -0.5957495 2.993 4.6430651e-39
-0.015509016 -0.10826229 0.50098711 9.6197878e-39
-0.23424125 -0.13138334 0.55662906 9.6197878e-39
-0.22752622 -0.1179534 0.55788881 9.6197878e-39
-0.33027095 0.22208755 0.5530951 9.6197878e-39
-0.307345 0.21215327 0.54953641 9.6197878e-39
-0.17025831 0.20709571 0.55550009 9.6197878e-39
-0.15476289 0.20759879 0.55662489 9.6197878e-39
-0.08678133 -0.1740495 0.5768432 9.6197878e-39
-0.076385051 -0.1718438 0.56950009 9.6197878e-39
-0.29369661 -0.12318154 0.5988 9.6197878e-39
-0.26071134 -0.12536119 0.59185189 9.6197878e-39
-0.23145965 -0.13770331 0.56921047 9.6197878e-39
-0.081015721 -0.15877858 0.56900007 9.6197878e-39
-0.077616639 -0.15868711 0.56807691 9.6197878e-39
-0.25649104 -0.11060639 0.59748578 9.6197878e-39
-0.23219669 -0.11502866 0.56531262 9.6197878e-39
-0.1770335 0.19902234 0.56327271 9.6197878e-39
-0.33963799 0.22782519 0.56006253 9.6197878e-39
-0.29904246 0.21421324 0.56079185 9.6197878e-39
-0.17226088 0.20443721 0.56234407 9.6197878e-39
-0.14862451 0.21045603 0.56448233 9.6197878e-39
-0.33224612 -0.22085196 0.62534463 9.6197878e-39
-0.36833495 -0.23096986 0.62892854 9.6197878e-39
-0.35886994 -0.22896571 0.6274001 9.6197878e-39
-0.29170573 -0.12579249 0.60640001 9.6197878e-39
-0.27720168 -0.12533019 0.60503572 9.6197878e-39
-0.29273587 -0.11334392 0.61055917 9.6197878e-39
-0.26332703 -0.10412157 0.60369962 9.6197878e-39
-0.25927389 -0.042119581 0.6388889 9.6197878e-39
-0.26451224 -0.035132796 0.63896668 9.6197878e-39
-0.32569534 0.030930961 0.63184536 9.6197878e-39
-0.3105911 0.027610337 0.63071436 9.6197878e-39
-0.25398466 0.039186984 0.60411114 9.6197878e-39
-0.32682824 0.040178731 0.62966669 9.6197878e-39
-0.29915738 0.049232762 0.62630826 9.6197878e-39
-0.2625016 0.045045756 0.60955048 9.6197878e-39
-0.35209242 0.11353239 0.639 9.6197878e-39
-0.30780768 0.19445066 0.6305297 9.6197878e-39
-0.32062283 0.21616381 0.634 9.6197878e-39
-0.30545688 0.21314494 0.62851423 9.6197878e-39
-0.36256173 -0.22865373 0.64127856 9.6197878e-39
-0.38540384 -0.23866096 0.64200008 9.6197878e-39
-0.28968853 -0.14402261 0.65233493 9.6197878e-39
-0.27688536 -0.14760697 0.65952271 9.6197878e-39
-0.32421517 -0.081891507 0.67899996 9.6197878e-39
-0.31132385 -0.080238096 0.67400002 9.6197878e-39
-0.32627758 -0.074392296 0.6768375 9.6197878e-39
-0.30494878 -0.074312188 0.66963387 9.6197878e-39
-0.25016713 -0.042639229 0.6449827 9.6197878e-39
-0.25770652 -0.029492615 0.6456635 9.6197878e-39
-0.31091112 0.029969843 0.64233351 9.6197878e-39
-0.37226349 0.11034667 0.65837485 9.6197878e-39
-0.35545024 0.11444653 0.64135903 9.6197878e-39
-0.37245664 0.1291108 0.65772891 9.6197878e-39
-0.35103148 0.12676193 0.64635783 9.6197878e-39
-0.38027772 0.1710289 0.67506248 9.6197878e-39
-0.36087331 -0.17943239 0.70300001 9.6197878e-39
-0.34663579 -0.17469233 0.710783 9.6197878e-39
-0.33422643 -0.15076897 0.70125222 9.6197878e-39
-0.32834288 -0.081877559 0.68000001 9.6197878e-39
-0.3353315 -0.067180917 0.68829185 9.6197878e-39
-0.40227714 0.18577172 0.68442857 9.6197878e-39
-0.38699695 0.18442713 0.68455458 9.6197878e-39
-0.40388384 0.20955014 0.69354361 9.6197878e-39
-0.39609912 0.20581365 0.6950351 9.6197878e-39
-0.36033431 -0.17496 0.72900003 9.6197878e-39
-0.34656772 -0.17065255 0.72321099 9.6197878e-39
-0.30404976 0.22842696 0.78994751 9.6197878e-39
-0.38376203 -0.2865352 0.83596778 9.6197878e-39
-0.3855198 -0.27876097 0.83739996 9.6197878e-39
-0.41874853 -0.13074112 0.81927204 9.6197878e-39
-0.4147743 -0.11586232 0.82219487 9.6197878e-39
-0.26750341 0.19718722 0.83900011 9.6197878e-39
-0.33983883 0.23900911 0.83257157 9.6197878e-39
-0.30402496 0.23365103 0.81504244 9.6197878e-39
-0.26591751 0.20478532 0.83885199 9.6197878e-39
-0.33490327 0.24630211 0.83501798 9.6197878e-39
-0.31180221 0.24350667 0.8257274 9.6197878e-39
-0.40748 -0.28060001 0.85400003 9.6197878e-39
-0.38013861 -0.29117802 0.84506053 9.6197878e-39
-0.33865714 -0.28179622 0.87800002 9.6197878e-39
-0.40760171 -0.26177883 0.86465466 9.6197878e-39
-0.38315928 -0.2586025 0.85793543 9.6197878e-39
-0.3429015 -0.26788452 0.87090909 9.6197878e-39
-0.41042489 -0.2357575 0.87354052 9.6197878e-39
-0.36514747 -0.23873071 0.86276931 9.6197878e-39
-0.35610023 -0.23832421 0.85640001 9.6197878e-39
-0.44083384 0.1509324 0.86600012 9.6197878e-39
-0.43386573 0.1550868 0.87033331 9.6197878e-39
-0.42822087 0.16725387 0.86205834 9.6197878e-39
-0.28998756 0.19369864 0.86758214 9.6197878e-39
-0.27624252 0.19788216 0.85982609 9.6197878e-39
-0.290115 0.20943804 0.86259353 9.6197878e-39
-0.27166918 0.21021336 0.8518244 9.6197878e-39
-0.33629507 0.26266137 0.84766632 9.6197878e-39
-0.37326199 -0.32562172 0.9003213 9.6197878e-39
-0.35898668 -0.3208867 0.88900006 9.6197878e-39
-0.37180597 -0.30968013 0.90728527 9.6197878e-39
-0.35046786 -0.29784152 0.89447093 9.6197878e-39
-0.40937862 -0.2499525 0.881037 9.6197878e-39
-0.39546123 -0.25394288 0.88000011 9.6197878e-39
-0.3454915 -0.27246457 0.88642865 9.6197878e-39
-0.30670455 -0.23174106 0.91123074 9.6197878e-39
-0.30043998 -0.18609604 0.91026598 9.6197878e-39
-0.25733763 -0.1651721 0.90138799 9.6197878e-39
-0.23689082 -0.16552252 0.90990913 9.6197878e-39
-0.28361619 -0.14848579 0.89765644 9.6197878e-39
-0.25931072 -0.14559089 0.90087521 9.6197878e-39
-0.25690457 -0.11854211 0.90460008 9.6197878e-39
-0.5273028 -0.0017463494 0.91666663 9.6197878e-39
-0.52487338 0.00087333343 0.91700006 9.6197878e-39
-0.43002948 0.15518481 0.88307995 9.6197878e-39
-0.44369322 0.18470339 0.89305001 9.6197878e-39
-0.42948395 0.18122083 0.89059347 9.6197878e-39
-0.38989046 -0.32542095 0.921 9.6197878e-39
-0.32249838 -0.22429141 0.92662966 9.6197878e-39
-0.31328785 -0.21508135 0.92556584 9.6197878e-39
-0.29603878 -0.19246332 0.93011671 9.6197878e-39
-0.24095237 -0.17260952 0.92000002 9.6197878e-39
-0.2392 -0.17260952 0.92000002 9.6197878e-39
-0.56172484 0.026071157 0.95328581 9.6197878e-39
-0.54259712 0.018478962 0.94495261 9.6197878e-39
-0.5398286 0.040285718 0.94000006 9.6197878e-39
-0.60104859 -0.071214288 0.99700004 9.6197878e-39
-0.59250522 -0.073459044 0.9894399 9.6197878e-39
-0.55392164 -0.051076084 0.99522209 9.6197878e-39
-0.56207812 0.033975877 0.98200005 9.6197878e-39
-0.54788053 0.028578315 0.96609086 9.6197878e-39
-0.55456388 0.040010478 0.97700006 9.6197878e-39
-0.52572042 0.17597431 0.99531996 9.6197878e-39
-0.51408893 0.17063656 0.99399978 9.6197878e-39
-0.50909871 0.22216302 0.99545443 9.6197878e-39
-0.50741339 0.2414 0.99400002 9.6197878e-39
-0.2240708 -0.37887901 1.0343078 9.6197878e-39
-0.60064095 -0.12171143 1.039 9.6197878e-39
-0.58667666 -0.12344473 1.0293751 9.6197878e-39
-0.60578859 -0.09690886 1.0176462 9.6197878e-39
-0.58864421 -0.098182335 1.0181314 9.6197878e-39
-0.61336732 -0.056503657 1.0260419 9.6197878e-39
-0.58435184 -0.06004405 1.0116291 9.6197878e-39
-0.55356169 -0.052477527 1.0017999 9.6197878e-39
-0.56578892 0.016487263 1.0298681 9.6197878e-39
-0.55727875 0.011237294 1.029844 9.6197878e-39
-0.59074575 0.053143252 1.0389998 9.6197878e-39
-0.55237383 0.054420579 1.0264474 9.6197878e-39
-0.45967925 0.097072229 1.0365001 9.6197878e-39
-0.52791589 0.18936618 1.0159535 9.6197878e-39
-0.51732409 0.18706349 1.0184546 9.6197878e-39
-0.5255456 0.20454986 1.0189525 9.6197878e-39
-0.50498372 0.22530557 1.0080534 9.6197878e-39
-0.52165717 0.2613143 1.0200002 9.6197878e-39
-0.50564009 0.25085333 1.0076836 9.6197878e-39
-0.24037142 -0.40198284 1.074 9.6197878e-39
-0.23664001 -0.40086004 1.0710001 9.6197878e-39
-0.24759977 -0.37758529 1.0629815 9.6197878e-39
-0.22223465 -0.38069588 1.0596385 9.6197878e-39
-0.196179 -0.38733119 1.0555135 9.6197878e-39
-0.25082892 -0.34523731 1.0641011 9.6197878e-39
-0.2361391 -0.35217154 1.0535836 9.6197878e-39
-0.64815044 -0.12240191 1.0740001 9.6197878e-39
-0.61610878 -0.12985784 1.0582201 9.6197878e-39
-0.59808004 -0.13528001 1.0680001 9.6197878e-39
-0.64385146 -0.11900572 1.0680001 9.6197878e-39
-0.62654138 -0.11262765 1.0493507 9.6197878e-39
-0.60985547 -0.061057713 1.0443672 9.6197878e-39
-0.59400332 -0.068915628 1.0456002 9.6197878e-39
-0.57346284 0.035323903 1.0466667 9.6197878e-39
-0.55871052 0.036718097 1.0420001 9.6197878e-39
-0.58151883 0.049832117 1.0507634 9.6197878e-39
-0.55407941 0.048295878 1.0420001 9.6197878e-39
-0.45104504 0.099868193 1.0618805 9.6197878e-39
-0.42550275 0.093377203 1.0732269 9.6197878e-39
-0.28306171 -0.36796108 1.1087335 9.6197878e-39
-0.27573991 -0.36888921 1.1068667 9.6197878e-39
-0.23452908 -0.38319463 1.0812502 9.6197878e-39
-0.28203809 -0.35675713 1.105 9.6197878e-39
-0.25713795 -0.35304132 1.0867264 9.6197878e-39
-0.23936002 -0.35748574 1.0880001 9.6197878e-39
-0.46033204 0.092314921 1.0848666 9.6197878e-39
-0.43219939 0.097496413 1.0817406 9.6197878e-39
-0.40823168 -0.019953677 1.1357014 9.6197878e-39
-0.39606601 -0.018978378 1.1389003 9.6197878e-39
-0.3345153 0.061317217 0.68233079 9.6197878e-39
-0.23444811 0.040518221 0.70227242 9.6197878e-39
-0.25332028 -0.15628922 1.0380079 9.6197878e-39
-0.33885127 0.09783756 0.69072419 9.6197878e-39
-0.42684025 -0.18230103 0.89211547 9.6197878e-39
-0.40760171 -0.26177883 0.86465466 9.6197878e-39
-0.38315928 -0.2586025 0.85793543 9.6197878e-39
-0.26670808 -0.033061657 1.0472068 9.6197878e-39
-0.3953805 -0.26019067 0.86129504 9.6197878e-39
-0.35477853 -0.031480178 0.87399381 9.6197878e-39
-0.19899404 -0.23530486 1.078037 9.6197878e-39
-2.1810286 1.7584544 4.7710004 1.6567971e-38
-2.2955158 1.7518167 4.8380008 1.6567971e-38
-2.2715561 1.7555029 4.8380003 1.6567971e-38
-2.3315182 1.7801771 4.9060001 1.6567971e-38
-2.2474153 1.7988667 4.9060001 1.6567971e-38
-2.3936999 1.80594 4.9770002 1.6567971e-38
-2.34867 1.81305 4.9770002 1.6567971e-38
-2.2562401 1.81779 4.9770002 1.6567971e-38
-2.4233129 1.8475442 5.0500002 1.6567971e-38
-2.3884099 1.8497429 5.0500002 1.6567971e-38
-2.2845237 1.8516668 5.0500002 1.6567971e-38
-2.274905 1.8564763 5.0500002 1.6567971e-38
-2.2877302 1.8837303 5.0500002 1.6567971e-38
-2.2716987 1.9045715 5.0500002 1.6567971e-38
-2.4453573 1.8791668 5.1250005 1.6567971e-38
-2.3282144 1.8791668 5.1250005 1.6567971e-38
-2.4583733 1.8921828 5.125001 1.6567971e-38
-2.4193258 1.8889288 5.125001 1.6567971e-38
-2.3965478 1.8889288 5.1250005 1.6567971e-38
-2.3282144 1.9182144 5.1250005 1.6567971e-38
-2.3282144 1.9279764 5.1250005 1.6567971e-38
-2.3119447 1.9426193 5.1250005 1.6567971e-38
-2.5217316 1.9123542 5.2020001 1.6567971e-38
-2.5118229 1.9123542 5.2020001 1.6567971e-38
-2.3631942 1.9173086 5.2020001 1.6567971e-38
-2.3532856 1.9173086 5.2020001 1.6567971e-38
-2.4920056 1.9321715 5.2020001 1.6567971e-38
-2.4556746 1.9272172 5.2020006 1.6567971e-38
-2.3631942 1.9718058 5.2020001 1.6567971e-38
-2.3532856 1.9866685 5.2020001 1.6567971e-38
-2.3285143 2.0064857 5.2020001 1.6567971e-38
-2.5504515 1.9568552 5.2820001 1.6567971e-38
-2.5001466 1.9467943 5.2820001 1.6567971e-38
-2.3945065 1.9568552 5.2820001 1.6567971e-38
-2.3819306 2.0272818 5.2820001 1.6567971e-38
-2.3693542 2.0524344 5.2820001 1.6567971e-38
-2.3592935 2.0574648 5.2820005 1.6567971e-38
-2.5389602 1.9872345 5.3640003 1.6567971e-38
-2.5798285 2.0076687 5.3640003 1.6567971e-38
-2.4929829 2.0689716 5.3640003 1.6567971e-38
-2.447006 2.0536458 5.3640003 1.6567971e-38
-2.4265716 2.0664172 5.3640003 1.6567971e-38
-2.4112458 2.099623 5.3640003 1.6567971e-38
-2.6306059 2.0287316 5.4480004 1.6567971e-38
-2.5839086 2.0287316 5.4480004 1.6567971e-38
-2.5392873 2.0930698 5.4480004 1.6567971e-38
-2.5060804 2.0961828 5.4480009 1.6567971e-38
-2.4714899 2.1082897 5.4480009 1.6567971e-38
-2.4645717 2.1273146 5.4480004 1.6567971e-38
-2.6515288 2.0716715 5.5350003 1.6567971e-38
-2.6093574 2.0927572 5.5350003 1.6567971e-38
-2.5742145 2.1068144 5.5350008 1.6567971e-38
-2.6199002 2.1349287 5.5350008 1.6567971e-38
-2.5882714 2.1243858 5.5350003 1.6567971e-38
-2.5408287 2.150743 5.5350003 1.6567971e-38
-2.5144715 2.1560144 5.5350003 1.6567971e-38
-2.5144715 2.1665573 5.5350003 1.6567971e-38
-2.7165546 2.1057315 5.6260004 1.6567971e-38
-2.6576154 2.1057315 5.6260004 1.6567971e-38
-2.6567225 2.1441312 5.6260004 1.6567971e-38
-2.6281459 2.135201 5.6260004 1.6567971e-38
-2.695122 2.1700289 5.6260004 1.6567971e-38
-2.641541 2.1807449 5.6260004 1.6567971e-38
-2.6093926 2.1861029 5.6260004 1.6567971e-38
-2.5665278 2.2021773 5.6260004 1.6567971e-38
-2.7687223 2.1478024 5.7190008 1.6567971e-38
-2.7369504 2.1487103 5.7190003 1.6567971e-38
-2.7015467 2.1487103 5.7190003 1.6567971e-38
-2.7669067 2.1732202 5.7190008 1.6567971e-38
-2.7353165 2.1688628 5.7190003 1.6567971e-38
-2.7015469 2.1732202 5.7190003 1.6567971e-38
-2.6525266 2.1623268 5.7190003 1.6567971e-38
-2.7287803 2.2331333 5.7190003 1.6567971e-38
-2.709717 2.2195168 5.7190003 1.6567971e-38
-2.8410428 2.1930857 5.8150001 1.6567971e-38
-2.829967 2.1875477 5.8150001 1.6567971e-38
-2.7635095 2.1875477 5.8150001 1.6567971e-38
-2.7192047 2.1875477 5.8150001 1.6567971e-38
-2.8410428 2.2097001 5.8150001 1.6567971e-38
-2.8299668 2.2097001 5.8150001 1.6567971e-38
-2.7834468 2.227422 5.8150001 1.6567971e-38
-2.7745857 2.2484665 5.8150001 1.6567971e-38
-2.8448334 2.2477002 5.9150004 1.6567971e-38
-2.8335667 2.2589669 5.9150004 1.6567971e-38
-2.8335667 2.2927668 5.9150004 1.6567971e-38
-2.8217733 2.2486305 6.0180006 1.6567971e-38
-2.7740114 2.355617 6.0180001 1.6567971e-38
-2.7568171 2.355617 6.0180001 1.6567971e-38
-2.68804 2.4702458 6.0180001 1.6567971e-38
-2.6708455 2.4645143 6.0180001 1.6567971e-38
-2.6995029 2.4931715 6.0180001 1.6567971e-38
-2.6765771 2.4817085 6.0180001 1.6567971e-38
-2.863699 2.2687962 6.1240001 1.6567971e-38
-2.8549507 2.2892096 6.1240001 1.6567971e-38
-2.9336877 2.3912764 6.1240001 1.6567971e-38
-2.8403695 2.3971086 6.1240001 1.6567971e-38
-2.8287048 2.4087732 6.1240001 1.6567971e-38
-2.7820458 2.4087732 6.1240001 1.6567971e-38
-2.7587163 2.4146056 6.1240001 1.6567971e-38
-2.8670321 2.4654307 6.1240001 1.6567971e-38
-2.7237217 2.4787619 6.1240001 1.6567971e-38
-2.7120571 2.4787619 6.1240001 1.6567971e-38
-2.7742691 2.5098681 6.1240001 1.6567971e-38
-2.7437189 2.5020914 6.1240001 1.6567971e-38
-2.7120571 2.4904265 6.1240001 1.6567971e-38
-2.7732971 2.5400019 6.1240001 1.6567971e-38
-2.741219 2.5254211 6.1240001 1.6567971e-38
-2.7762132 2.5604153 6.1240001 1.6567971e-38
-2.8997698 2.3059604 6.2350001 1.6567971e-38
-2.8918524 2.3336713 6.2350001 1.6567971e-38
-2.8918524 2.4524336 6.2350001 1.6567971e-38
-2.8562241 2.4563923 6.2350001 1.6567971e-38
-2.8265333 2.4643097 6.2350001 1.6567971e-38
-2.9037285 2.496969 6.2350001 1.6567971e-38
-2.8799763 2.499938 6.2350001 1.6567971e-38
-2.8087192 2.4880619 6.2350001 1.6567971e-38
-2.781404 2.5023134 6.2350001 1.6567971e-38
-2.7493382 2.5118144 6.2350001 1.6567971e-38
-2.898978 2.5403173 6.2350001 1.6567971e-38
-2.8681002 2.5533812 6.2350001 1.6567971e-38
-2.817626 2.5355666 6.2350001 1.6567971e-38
-2.7928843 2.5276494 6.2350001 1.6567971e-38
-2.7493382 2.5236905 6.2350001 1.6567971e-38
-2.8918524 2.5771334 6.2350001 1.6567971e-38
-2.8760176 2.5751541 6.2350001 1.6567971e-38
-2.8324714 2.5771334 6.2350001 1.6567971e-38
-2.9084468 2.5093668 6.3490005 1.6567971e-38
-3.0051935 2.5275068 6.3490005 1.6567971e-38
-2.9931002 2.5275068 6.3490005 1.6567971e-38
-2.9326334 2.553709 6.3490005 1.6567971e-38
-2.8950098 2.5429595 6.349 1.6567971e-38
-2.8661201 2.5516934 6.3490005 1.6567971e-38
-2.9366646 2.5819268 6.3490005 1.6567971e-38
-2.8963535 2.5819268 6.3490005 1.6567971e-38
-2.8721669 2.5698335 6.3490005 1.6567971e-38
-2.9205401 2.6303 6.3490005 1.6567971e-38
-2.9044158 2.6222379 6.3490005 1.6567971e-38
-2.9205401 2.6423936 6.3490005 1.6567971e-38
-2.9084468 2.6423936 6.3490005 1.6567971e-38
-3.0861602 2.55024 6.4680004 1.6567971e-38
-3.0615201 2.5533202 6.4680004 1.6567971e-38
-3.02456 2.5564001 6.4680004 1.6567971e-38
-2.9999201 2.5564001 6.4680004 1.6567971e-38
-3.0861602 2.5687201 6.4680004 1.6567971e-38
-3.0738401 2.5687201 6.4680004 1.6567971e-38
-3.0184002 2.5687201 6.4680004 1.6567971e-38
-2.9814401 2.5748801 6.4680014 1.6567971e-38
-2.9301071 2.5769336 6.4680004 1.6567971e-38
-2.9136803 2.5687201 6.4680004 1.6567971e-38
-2.97528 2.6149201 6.4680004 1.6567971e-38
-2.97528 2.6426401 6.4680004 1.6567971e-38
-2.95064 2.6796 6.4680004 1.6567971e-38
-2.95064 2.69192 6.4680004 1.6567971e-38
-3.0448763 2.4610133 6.5920005 1.6567971e-38
-3.1285844 2.5844829 6.5920005 1.6567971e-38
-3.0900788 2.5853198 6.5920005 1.6567971e-38
-3.0699887 2.5865755 6.5920005 1.6567971e-38
-3.0888228 2.6179657 6.5920005 1.6567971e-38
-3.0448763 2.6054096 6.5920005 1.6567971e-38
-3.0323203 2.6054096 6.5920005 1.6567971e-38
-3.0954666 2.4938667 6.7200003 1.6567971e-38
-3.072 2.5023999 6.7200003 1.6567971e-38
-3.1040001 2.5280001 6.7200003 1.6567971e-38
-3.1680002 2.6304002 6.7200003 1.6567971e-38
-3.1392 2.6143999 6.7200003 1.6567971e-38
-3.1552002 2.6687999 6.7200003 1.6567971e-38
-3.1393268 2.5345225 6.8530002 1.6567971e-38
-3.1480289 2.5693312 6.8530002 1.6567971e-38
-3.2437534 2.6694067 6.8530002 1.6567971e-38
-3.2241733 2.6694067 6.8530002 1.6567971e-38
-3.2429562 2.5770514 6.9920001 1.6567971e-38
-3.2296381 2.5770514 6.9920001 1.6567971e-38
-3.203002 2.6303239 6.9920001 1.6567971e-38
-3.2626288 2.6033058 7.1370006 1.6567971e-38
-3.2558317 2.6712775 7.1370006 1.6567971e-38
-3.2558317 2.6848717 7.1370006 1.6567971e-38
-3.1844046 -0.72549051 5.8150001 4.5194356e-39
-3.1844046 -0.7144143 5.8150001 4.5194356e-39
-2.9684191 -0.70887619 5.8150001 4.5194356e-39
-2.9462667 -0.70333809 5.8150001 4.5194356e-39
-2.9684191 -0.65349519 5.8150001 4.5194356e-39
-2.9462667 -0.65349519 5.8150001 4.5194356e-39
-3.0237999 -0.63134289 5.8150001 4.5194356e-39
-3.0566468 -0.76726002 5.9150004 4.5194356e-39
-3.0251002 -0.76050013 5.9150004 4.5194356e-39
-3.2222667 -0.73796672 5.9150004 4.5194356e-39
-3.0194669 -0.74923337 5.9150004 4.5194356e-39
-3.0476334 -0.71543342 5.9150004 4.5194356e-39
-3.0194671 -0.69430846 5.9150004 4.5194356e-39
-3.0927002 -0.64783335 5.9150004 4.5194356e-39
-3.0927002 -0.6365667 5.9150004 4.5194356e-39
-3.3127656 -0.77947426 6.0180001 4.5194356e-39
-3.2382572 -0.79666859 6.0180001 4.5194356e-39
-3.1007028 -0.76228005 6.0180001 4.5194356e-39
-3.093061 -0.74317527 6.0180006 4.5194356e-39
-3.0605829 -0.75081718 6.0180001 4.5194356e-39
-3.1396766 -0.68662518 6.0180001 4.5194356e-39
-3.0994294 -0.6973238 6.0180006 4.5194356e-39
-3.0663145 -0.70496577 6.0180006 4.5194356e-39
-3.1465542 -0.67057717 6.0180001 4.5194356e-39
-3.0892401 -0.67057717 6.0180001 4.5194356e-39
-3.4352725 -0.8806895 6.1240001 4.5194356e-39
-3.365284 -0.81070095 6.1240001 4.5194356e-39
-3.3477867 -0.81070095 6.1240001 4.5194356e-39
-3.3477867 -0.79320383 6.1240001 4.5194356e-39
-3.2976284 -0.76637489 6.1240001 4.5194356e-39
-3.2719657 -0.77570665 6.1240001 4.5194356e-39
-3.1436534 -0.7640419 6.1240001 4.5194356e-39
-3.3390379 -0.7436285 6.1240001 4.5194356e-39
-3.1763148 -0.73604649 6.1240001 4.5194356e-39
-3.216975 -0.70071894 6.1240001 4.5194356e-39
-3.1825359 -0.69988573 6.1240001 4.5194356e-39
-3.155318 -0.68238854 6.1240001 4.5194356e-39
-3.2486362 -0.66489142 6.1240001 4.5194356e-39
-3.225307 -0.66489148 6.1240001 4.5194356e-39
-3.1669829 -0.6707238 6.1240001 4.5194356e-39
-3.155318 -0.6707238 6.1240001 4.5194356e-39
-3.4678478 -0.92040479 6.2350001 4.5194356e-39
-3.432219 -0.92040479 6.2350001 4.5194356e-39
-3.5212903 -0.8966524 6.2350001 4.5194356e-39
-3.4935794 -0.9006111 6.2350001 4.5194356e-39
-3.4678478 -0.8966524 6.2350001 4.5194356e-39
-3.5212903 -0.87290001 6.2350001 4.5194356e-39
-3.5034761 -0.87290001 6.2350001 4.5194356e-39
-3.4619098 -0.87290001 6.2350001 4.5194356e-39
-3.4183636 -0.85706514 6.2350001 4.5194356e-39
-3.4084666 -0.83727145 6.2350001 4.5194356e-39
-3.3799636 -0.81589431 6.2350001 4.5194356e-39
-3.3455231 -0.80876869 6.2350001 4.5194356e-39
-3.3708587 -0.77393174 6.2350001 4.5194356e-39
-3.3510654 -0.77393174 6.2350001 4.5194356e-39
-3.2718906 -0.76601428 6.2350001 4.5194356e-39
-3.2243857 -0.77789044 6.2350001 4.5194356e-39
-3.3906524 -0.74226189 6.2350001 4.5194356e-39
-3.2897048 -0.73038572 6.2350001 4.5194356e-39
-3.2623894 -0.74701238 6.2350001 4.5194356e-39
-3.2243857 -0.73038572 6.2350001 4.5194356e-39
-3.3906524 -0.7185095 6.2350001 4.5194356e-39
-3.3060346 -0.70217979 6.2350001 4.5194356e-39
-3.2481382 -0.6947571 6.2350001 4.5194356e-39
-3.5070667 -0.92514008 6.3490005 4.5194356e-39
-3.579627 -0.90095335 6.3490005 4.5194356e-39
-3.5493937 -0.88886005 6.3490005 4.5194356e-39
-3.5090826 -0.90498447 6.3490005 4.5194356e-39
-3.5766037 -0.87374336 6.3490005 4.5194356e-39
-3.5433469 -0.87676668 6.3490005 4.5194356e-39
-3.5010202 -0.87273562 6.3490005 4.5194356e-39
-3.4405537 -0.85258001 6.3490005 4.5194356e-39
-3.4405537 -0.76792669 6.3490005 4.5194356e-39
-3.4224136 -0.76792669 6.3490005 4.5194356e-39
-3.3014803 -0.78304338 6.3490005 4.5194356e-39
-3.4405537 -0.74978673 6.3490005 4.5194356e-39
-3.3770635 -0.74071676 6.3490005 4.5194356e-39
-3.3498535 -0.75583339 6.3490005 4.5194356e-39
-3.3881493 -0.71552229 6.3490005 4.5194356e-39
-3.6652002 -0.90552008 6.4680004 4.5194356e-39
-3.6183841 -0.89566404 6.4680009 4.5194356e-39
-3.5820401 -0.88396007 6.4680004 4.5194356e-39
-3.5543201 -0.89936006 6.4680004 4.5194356e-39
-3.6528802 -0.86856002 6.4680004 4.5194356e-39
-3.6036003 -0.86856002 6.4680004 4.5194356e-39
-3.5728002 -0.86856002 6.4680004 4.5194356e-39
-3.5543201 -0.86856002 6.4680004 4.5194356e-39
-3.4188001 -0.80696005 6.4680004 4.5194356e-39
-3.4865601 -0.77000004 6.4680004 4.5194356e-39
-3.45576 -0.77616 6.4680004 4.5194356e-39
-3.4163361 -0.78724808 6.4680009 4.5194356e-39
-3.6282403 -0.74536002 6.4680004 4.5194356e-39
-3.4968269 -0.74946666 6.4680004 4.5194356e-39
-3.4434402 -0.75768 6.4680004 4.5194356e-39
-3.6224611 -0.96054858 6.5920005 4.5194356e-39
-3.7438378 -0.93125093 6.5920005 4.5194356e-39
-3.6224613 -0.93857527 6.5920005 4.5194356e-39
-3.735467 -0.90404576 6.5920005 4.5194356e-39
-3.7009375 -0.88835049 6.5920005 4.5194356e-39
-3.6601298 -0.88521147 6.5920005 4.5194356e-39
-3.609905 -0.91032386 6.5920005 4.5194356e-39
-3.5847926 -0.9019531 6.5920005 4.5194356e-39
-3.5421016 -0.89023399 6.5920005 4.5194356e-39
-3.5094554 -0.89148957 6.5920005 4.5194356e-39
-3.7229109 -0.87265533 6.5920005 4.5194356e-39
-3.6915202 -0.86637723 6.5920005 4.5194356e-39
-3.66013 -0.86009908 6.592 4.5194356e-39
-3.6350174 -0.87265533 6.5920005 4.5194356e-39
-3.5282898 -0.87265533 6.5920005 4.5194356e-39
-3.5094554 -0.87265533 6.5920005 4.5194356e-39
-3.4215622 -0.82243055 6.5920005 4.5194356e-39
-3.5314288 -0.77848387 6.5920005 4.5194356e-39
-3.5722365 -0.74081528 6.5920005 4.5194356e-39
-3.5455546 -0.74552387 6.592 4.5194356e-39
-3.6032 -1.056 6.7200003 4.5194356e-39
-3.8144002 -0.96640003 6.7200003 4.5194356e-39
-3.6800003 -0.97920007 6.7200003 4.5194356e-39
-3.6672001 -0.9920001 6.7200003 4.5194356e-39
-3.8336003 -0.9472 6.7200003 4.5194356e-39
-3.6543999 -0.93440002 6.7200003 4.5194356e-39
-3.6160002 -0.92800009 6.7200003 4.5194356e-39
-3.8080001 -0.89600003 6.7200003 4.5194356e-39
-3.7824001 -0.88959998 6.7200003 4.5194356e-39
-3.6074667 -0.91093338 6.7200003 4.5194356e-39
-3.7888002 -0.8768 6.7200003 4.5194356e-39
-3.5776002 -0.85119998 6.7200003 4.5194356e-39
-3.4880002 -0.85759997 6.7200003 4.5194356e-39
-3.7376003 -0.81280005 6.7200003 4.5194356e-39
-3.5794289 -0.82742864 6.7200007 4.5194356e-39
-3.6640708 -1.0664573 6.8530002 4.5194356e-39
-3.6288266 -1.0769 6.8530002 4.5194356e-39
-3.7397799 -0.98879004 6.8530002 4.5194356e-39
-3.7006202 -0.95942008 6.8530002 4.5194356e-39
-3.8507333 -0.84194005 6.8530002 4.5194356e-39
-3.8485579 -0.82018441 6.8530002 4.5194356e-39
-3.8199649 -0.81210387 6.8530002 4.5194356e-39
-3.8311534 -0.78972667 6.8530002 4.5194356e-39
-3.7224076 -1.0854248 6.9920001 4.5194356e-39
-3.7024305 -1.0854248 6.9920001 4.5194356e-39
-3.7290666 -1.0721067 6.9920001 4.5194356e-39
-3.7024305 -1.0721067 6.9920001 4.5194356e-39
-3.8023162 -1.0055162 6.9920001 4.5194356e-39
-3.7783437 -1.0108434 6.9920001 4.5194356e-39
-3.8089752 -0.99219805 6.9920001 4.5194356e-39
-3.7823391 -0.99219805 6.9920001 4.5194356e-39
