# .PCD v0.7 - Point Cloud Data file format
VERSION 0.7
FIELDS x y z rgb
SIZE 4 4 4 4
TYPE F F F F
COUNT 1 1 1 1
WIDTH 1015
HEIGHT 1
VIEWPOINT 0 0 0 1 0 0 0
POINTS 1015
DATA ascii
0.062549613 0.7774027 1.8928781 1.5806216e-38
0.086932018 0.77769911 1.8892866 1.5806216e-38
0.069445282 0.80904073 1.8829997 1.5806216e-38
0.087873347 0.81238019 1.8829998 1.5806216e-38
-0.91416675 -0.13370495 1.7124861 1.5806216e-38
-0.93370897 -0.46208945 1.8633252 1.5806216e-38
-1.0483642 -0.74160451 1.934051 1.5806216e-38
-1.0196263 -0.73982733 1.9482902 1.5806216e-38
-0.9857325 -0.73824108 1.9565753 1.5806216e-38
-1.0463754 -0.70987052 1.926 1.5806216e-38
-1.0184621 -0.70476663 1.9345337 1.5806216e-38
-0.97775841 -0.69959521 1.9506103 1.5806216e-38
-0.94424123 -0.69455248 1.9578356 1.5806216e-38
-0.91360909 -0.68536228 1.9580002 1.5806216e-38
-1.0040549 -0.66067332 1.9316003 1.5806216e-38
-0.9815973 -0.66161627 1.9403218 1.5806216e-38
-0.93848175 -0.65900403 1.9478155 1.5806216e-38
-0.90627438 -0.65974164 1.9579997 1.5806216e-38
-0.9794699 -0.63304538 1.9266499 1.5806216e-38
-0.93504226 -0.62547481 1.9390705 1.5806216e-38
-0.90037137 -0.62150061 1.9496734 1.5806216e-38
-0.86570728 -0.61292332 1.9561355 1.5806216e-38
-0.92006099 -0.59555054 1.9360002 1.5806216e-38
-0.89690399 -0.58133018 1.9301281 1.5806216e-38
-0.86303151 -0.5812127 1.9498298 1.5806216e-38
-0.83078748 -0.57088321 1.95635 1.5806216e-38
-0.88962501 -0.55779171 1.9250001 1.5806216e-38
-0.8577441 -0.54196715 1.9391123 1.5806216e-38
-0.82512707 -0.53739369 1.9533013 1.5806216e-38
-0.79811823 -0.52399814 1.9580001 1.5806216e-38
-0.84862769 -0.51099885 1.9267366 1.5806216e-38
-0.82097393 -0.49958429 1.9443935 1.5806216e-38
-0.79294127 -0.49841318 1.9573125 1.5806216e-38
-0.84630859 -0.45542097 1.9360001 1.5806216e-38
-0.81380469 -0.46407363 1.9382316 1.5806216e-38
-0.78322577 -0.45850262 1.9509517 1.5806216e-38
-0.7589581 -0.44381332 1.9580001 1.5806216e-38
-0.80553126 -0.41372818 1.9266921 1.5806216e-38
-0.78013366 -0.42030707 1.9429151 1.5806216e-38
-0.74736798 -0.41544029 1.9580001 1.5806216e-38
-0.80410004 -0.39563337 1.9250001 1.5806216e-38
-0.77150357 -0.38381445 1.9354506 1.5806216e-38
-0.7390852 -0.37992266 1.950893 1.5806216e-38
-0.71237051 -0.37229022 1.9568621 1.5806216e-38
-0.76610291 -0.35534191 1.9272 1.5806216e-38
-0.73630273 -0.34109071 1.9355104 1.5806216e-38
-0.70618212 -0.3393279 1.9527493 1.5806216e-38
-0.72780108 -0.30668411 1.9287634 1.5806216e-38
-0.69905269 -0.2998988 1.9399941 1.5806216e-38
-0.66757208 -0.29912513 1.9556166 1.5806216e-38
-0.69017106 -0.26661664 1.9334466 1.5806216e-38
-0.66035771 -0.25952452 1.9415469 1.5806216e-38
-0.62406826 -0.25698376 1.9564265 1.5806216e-38
-0.59423751 -0.24179748 1.9580001 1.5806216e-38
-0.65245187 -0.22671746 1.9326444 1.5806216e-38
-0.62177163 -0.21963075 1.949518 1.5806216e-38
-0.5849297 -0.21711163 1.9579989 1.5806216e-38
-0.55756384 -0.20325905 1.9580001 1.5806216e-38
-0.64350003 -0.19983335 1.9250001 1.5806216e-38
-0.61771297 -0.18410569 1.9313037 1.5806216e-38
-0.58122426 -0.17987871 1.9479859 1.5806216e-38
-0.54681051 -0.17714328 1.953837 1.5806216e-38
-0.60500002 -0.15766667 1.9250001 1.5806216e-38
-0.57752037 -0.14704469 1.9336216 1.5806216e-38
-0.53862095 -0.13963941 1.9435014 1.5806216e-38
-0.50846672 -0.13107187 1.9566905 1.5806216e-38
-0.47924381 -0.12120952 1.9580001 1.5806216e-38
-0.56283337 -0.11733334 1.9250001 1.5806216e-38
-0.53389245 -0.10362984 1.9306389 1.5806216e-38
-0.50116116 -0.099709332 1.9480919 1.5806216e-38
-0.4664852 -0.094601169 1.9573801 1.5806216e-38
-0.52983332 -0.078833334 1.9250001 1.5806216e-38
-0.49735069 -0.062630713 1.9378507 1.5806216e-38
-0.46057001 -0.058942348 1.9527462 1.5806216e-38
-0.43573272 -0.052586291 1.9580002 1.5806216e-38
-0.48922434 -0.032268837 1.9299312 1.5806216e-38
-0.45695633 -0.023593925 1.9366126 1.5806216e-38
-0.4228293 -0.017979141 1.955065 1.5806216e-38
-0.44504166 0.0050416663 1.9250001 1.5806216e-38
-0.41726834 0.018360345 1.9371594 1.5806216e-38
-0.38348684 0.023828857 1.9555292 1.5806216e-38
-0.35850048 0.025640476 1.9580001 1.5806216e-38
-0.40731856 0.054377951 1.9306226 1.5806216e-38
-0.38050252 0.061443679 1.9471798 1.5806216e-38
-0.35004726 0.062374096 1.9554217 1.5806216e-38
-0.37378767 0.097980753 1.9353616 1.5806216e-38
-0.34260076 0.10277946 1.949365 1.5806216e-38
-0.30915239 0.11272017 1.9570434 1.5806216e-38
-0.36666667 0.12283334 1.9250001 1.5806216e-38
-0.33188215 0.1355731 1.9359996 1.5806216e-38
-0.30077815 0.14055927 1.9524997 1.5806216e-38
-0.27433941 0.14951004 1.9579999 1.5806216e-38
-0.32369789 0.17216244 1.9256873 1.5806216e-38
-0.29994571 0.17896098 1.9393796 1.5806216e-38
-0.26768234 0.18356939 1.9552852 1.5806216e-38
1.0136313 0.18780819 1.9580002 1.5806216e-38
-0.28879133 0.21291783 1.9285812 1.5806216e-38
-0.2603437 0.22021367 1.9445376 1.5806216e-38
-0.22729102 0.22912 1.9541175 1.5806216e-38
1.0133116 0.21892305 1.9579999 1.5806216e-38
-0.2827 0.24860001 1.9250001 1.5806216e-38
-0.25570062 0.25232947 1.9320713 1.5806216e-38
-0.22142668 0.26159367 1.9482026 1.5806216e-38
-0.18465295 0.26950347 1.9564286 1.5806216e-38
0.99764764 0.25733715 1.9580001 1.5806216e-38
1.0082014 0.25776494 1.9549302 1.5806216e-38
-0.24200001 0.28783333 1.9250001 1.5806216e-38
-0.21567778 0.29540205 1.9353212 1.5806216e-38
-0.1806109 0.30061764 1.949839 1.5806216e-38
-0.15285809 0.30538714 1.957353 1.5806216e-38
-0.20441666 0.3235833 1.9250001 1.5806216e-38
-0.17782915 0.33825254 1.9348736 1.5806216e-38
-0.14289631 0.34379148 1.9538145 1.5806216e-38
-0.1705495 0.36680394 1.931448 1.5806216e-38
-0.13772623 0.37843829 1.9433013 1.5806216e-38
-0.10364471 0.38690093 1.955537 1.5806216e-38
-0.076455235 0.3971943 1.9580001 1.5806216e-38
-0.13237633 0.41216537 1.9299608 1.5806216e-38
-0.10031451 0.42030004 1.9469204 1.5806216e-38
-0.068754867 0.42282099 1.956695 1.5806216e-38
-0.12728572 0.44759527 1.9249998 1.5806216e-38
-0.098082803 0.45361969 1.9316287 1.5806216e-38
-0.065748997 0.46225372 1.9519786 1.5806216e-38
-0.039159998 0.47551429 1.9580001 1.5806216e-38
-0.0831111 0.48888892 1.9250001 1.5806216e-38
-0.059409089 0.4979949 1.9416937 1.5806216e-38
-0.035281301 0.50311267 1.9579999 1.5806216e-38
-0.048752498 0.53849906 1.9340698 1.5806216e-38
-0.022709267 0.54168439 1.9497492 1.5806216e-38
0.008453588 0.54774266 1.9580002 1.5806216e-38
-0.047593337 0.5725134 1.9249995 1.5806216e-38
-0.018096538 0.57894659 1.9302404 1.5806216e-38
0.014539283 0.58304566 1.9520307 1.5806216e-38
-0.010788458 0.61649346 1.9250008 1.5806216e-38
0.0202088 0.62100399 1.9390975 1.5806216e-38
0.053371269 0.62557465 1.9576563 1.5806216e-38
0.029655434 0.65701836 1.9291049 1.5806216e-38
0.058780737 0.65995246 1.9463485 1.5806216e-38
0.089398876 0.66868168 1.9579999 1.5806216e-38
0.038500004 0.68383336 1.9250001 1.5806216e-38
0.062672749 0.69778043 1.9312192 1.5806216e-38
0.09570533 0.69955391 1.9480413 1.5806216e-38
0.073944449 0.72294444 1.9250001 1.5806216e-38
0.093389824 0.72620457 1.9253788 1.5806216e-38
-0.87890285 -0.35953644 1.8514826 1.5806216e-38
-0.89837801 -0.53277689 1.9176114 1.5806216e-38
-0.93443412 -0.7265076 1.9819762 1.5806216e-38
-0.96912539 -0.74530554 1.9722509 1.5806216e-38
-0.94054019 -0.73899621 1.9862232 1.5806216e-38
-0.91473907 -0.73324573 1.9920005 1.5806216e-38
-0.87078863 -0.72281146 1.9920001 1.5806216e-38
-0.93277794 -0.70918393 1.9742774 1.5806216e-38
-0.9016614 -0.69792694 1.9889202 1.5806216e-38
-0.86908114 -0.69074976 1.9920005 1.5806216e-38
-0.89463419 -0.66344219 1.9795693 1.5806216e-38
-0.86061943 -0.6583479 1.9850541 1.5806216e-38
-0.83040655 -0.64855188 1.9920006 1.5806216e-38
-0.88323724 -0.63570577 1.9690002 1.5806216e-38
-0.85505432 -0.6277886 1.9788311 1.5806216e-38
-0.82666755 -0.619914 1.9866892 1.5806216e-38
-0.78785646 -0.60898292 1.9920003 1.5806216e-38
-0.84198195 -0.59632576 1.9690001 1.5806216e-38
-0.81630802 -0.57943004 1.9771837 1.5806216e-38
-0.78964245 -0.57540298 1.9914994 1.5806216e-38
-0.81190467 -0.54761249 1.9719521 1.5806216e-38
-0.78357959 -0.5396679 1.985226 1.5806216e-38
-0.74907964 -0.52492487 1.9920005 1.5806216e-38
-0.80072671 -0.50068861 1.9690001 1.5806216e-38
-0.77562767 -0.50333071 1.9825627 1.5806216e-38
-0.74884111 -0.49870923 1.9910197 1.5806216e-38
-0.76724511 -0.4668878 1.9742817 1.5806216e-38
-0.74196136 -0.46131325 1.9857632 1.5806216e-38
-0.71640849 -0.45626292 1.9920005 1.5806216e-38
-0.73347288 -0.42556566 1.9752511 1.5806216e-38
-0.70587188 -0.41509879 1.9850243 1.5806216e-38
-0.66210288 -0.40029714 1.9920001 1.5806216e-38
-0.72196674 -0.39567527 1.9690002 1.5806216e-38
-0.69768882 -0.38156673 1.9824098 1.5806216e-38
-0.6621837 -0.37107667 1.9914414 1.5806216e-38
-0.63933712 -0.36235431 1.9920001 1.5806216e-38
-0.68908167 -0.34377119 1.9747933 1.5806216e-38
-0.65985703 -0.3394368 1.9823443 1.5806216e-38
-0.62747115 -0.33317345 1.9918083 1.5806216e-38
-0.65128928 -0.30111212 1.9739321 1.5806216e-38
-0.62026548 -0.29975623 1.9849316 1.5806216e-38
-0.58713698 -0.29060778 1.9920006 1.5806216e-38
-0.55965716 -0.28267428 1.9920001 1.5806216e-38
-0.64883244 -0.27941048 1.9690001 1.5806216e-38
-0.60933089 -0.26903799 1.9729416 1.5806216e-38
-0.58062327 -0.26081049 1.9840177 1.5806216e-38
-0.5539003 -0.25284332 1.9920005 1.5806216e-38
-0.56847912 -0.22726925 1.973401 1.5806216e-38
-0.54105842 -0.21790335 1.9877354 1.5806216e-38
-0.51021987 -0.21281479 1.9920003 1.5806216e-38
-0.5310775 -0.18445051 1.9782891 1.5806216e-38
-0.50369143 -0.17718473 1.9845915 1.5806216e-38
-0.47647479 -0.1673864 1.9920005 1.5806216e-38
-0.49676725 -0.14431612 1.9766221 1.5806216e-38
-0.46316183 -0.13627058 1.9841834 1.5806216e-38
-0.4363429 -0.12900572 1.9920003 1.5806216e-38
-0.45194131 -0.10545014 1.9747511 1.5806216e-38
-0.42806277 -0.095276013 1.9897383 1.5806216e-38
-0.39650288 -0.083474293 1.9920001 1.5806216e-38
-0.44318128 -0.074384443 1.9690001 1.5806216e-38
-0.41816339 -0.061113775 1.9846869 1.5806216e-38
-0.38579762 -0.056982033 1.991999 1.5806216e-38
-0.40711939 -0.028910877 1.9729359 1.5806216e-38
-0.38133511 -0.019799532 1.9861605 1.5806216e-38
-0.34994993 -0.0083182426 1.9920005 1.5806216e-38
-0.37140882 0.0086052883 1.9720349 1.5806216e-38
-0.34093243 0.022217529 1.9835994 1.5806216e-38
-0.31530517 0.036804575 1.9920002 1.5806216e-38
-0.33026361 0.058934949 1.9801433 1.5806216e-38
-0.30468112 0.065577894 1.9919989 1.5806216e-38
-0.27888 0.077782862 1.9920001 1.5806216e-38
1.0320457 0.073988572 1.9920001 1.5806216e-38
-0.32721376 0.089670964 1.9711159 1.5806216e-38
-0.29848453 0.096980192 1.9824895 1.5806216e-38
-0.26826039 0.10911039 1.9874483 1.5806216e-38
1.0218452 0.10871127 1.9859512 1.5806216e-38
-0.28541127 0.12414076 1.9690001 1.5806216e-38
-0.25904495 0.13950266 1.9818758 1.5806216e-38
-0.23334858 0.1498743 1.9920006 1.5806216e-38
0.9997943 0.15746287 1.9920001 1.5806216e-38
1.014387 0.14189751 1.9776003 1.5806216e-38
-0.2495447 0.17553872 1.977831 1.5806216e-38
-0.22361998 0.18407737 1.9889876 1.5806216e-38
-0.19329779 0.19456255 1.9920003 1.5806216e-38
0.99979436 0.16505145 1.9920001 1.5806216e-38
1.0112488 0.17894273 1.975667 1.5806216e-38
-0.2449061 0.20215069 1.9690001 1.5806216e-38
-0.21627553 0.21509799 1.9784552 1.5806216e-38
-0.18393187 0.22342931 1.9915497 1.5806216e-38
0.99433357 0.22503418 1.9829735 1.5806216e-38
1.0063785 0.21974292 1.9738178 1.5806216e-38
-0.20411249 0.24825269 1.9690001 1.5806216e-38
-0.1764275 0.25284776 1.9813166 1.5806216e-38
-0.14327314 0.2644119 1.9874586 1.5806216e-38
-0.11952001 0.27698287 1.9920001 1.5806216e-38
0.98990637 0.25866169 1.983326 1.5806216e-38
1.0055374 0.25978628 1.9702222 1.5806216e-38
-0.16502096 0.2906619 1.9690001 1.5806216e-38
-0.13639686 0.29838321 1.9800586 1.5806216e-38
-0.108768 0.30875829 1.9913998 1.5806216e-38
0.9950515 0.28646857 1.9920003 1.5806216e-38
1.0062445 0.2898834 1.9920005 1.5806216e-38
-0.1307164 0.33080521 1.9717507 1.5806216e-38
-0.10160317 0.34040707 1.9819217 1.5806216e-38
-0.070561476 0.34803393 1.9920003 1.5806216e-38
-0.094153941 0.37176567 1.9712358 1.5806216e-38
-0.064534344 0.38230133 1.9836094 1.5806216e-38
-0.036045719 0.3927086 1.9920001 1.5806216e-38
-0.051812958 0.41726264 1.9816005 1.5806216e-38
-0.035694912 0.42448202 1.9909569 1.5806216e-38
-0.047959026 0.45544544 1.970032 1.5806216e-38
-0.023574531 0.46083054 1.9842036 1.5806216e-38
-0.01630751 0.49906883 1.9731556 1.5806216e-38
0.013922952 0.50880921 1.9859346 1.5806216e-38
-0.0065633333 0.52725446 1.9690001 1.5806216e-38
0.02436641 0.53782231 1.9754889 1.5806216e-38
0.04885086 0.55108857 1.9878002 1.5806216e-38
0.032687962 0.57425416 1.9692631 1.5806216e-38
0.058066387 0.58179927 1.9796559 1.5806216e-38
0.08284191 0.59507054 1.9920001 1.5806216e-38
0.039380003 0.6038267 1.9690001 1.5806216e-38
0.067320004 0.61425829 1.9720658 1.5806216e-38
0.098119609 0.62175918 1.9821452 1.5806216e-38
0.12301715 0.62644571 1.9872001 1.5806216e-38
0.076884761 0.64320666 1.9690001 1.5806216e-38
0.10072583 0.6550805 1.9735322 1.5806216e-38
-0.60487401 0.0077187596 1.8454345 1.5806216e-38
-0.57420558 -0.021187184 1.8681204 1.5806216e-38
-0.65717852 -0.056282274 1.8345908 1.5806216e-38
-0.63724595 -0.064939253 1.7943493 1.5806216e-38
-0.69511688 0.49018431 1.555672 1.5806216e-38
-0.50901002 0.020269433 1.7735772 1.5806216e-38
-0.28348202 0.030176232 1.8378499 1.5806216e-38
-0.30539858 0.20523703 1.8101749 1.5806216e-38
-0.89218956 -0.54426622 1.9329671 1.5806216e-38
-0.8511076 -0.53920078 1.9469113 1.5806216e-38
-0.89120197 -0.74810135 2.0166566 1.5806216e-38
-0.86782157 -0.77754933 2.0390007 1.5806216e-38
-0.83437175 -0.76964158 2.039 1.5806216e-38
0.4058581 -0.79812282 2.039 1.5806216e-38
0.47021192 -0.79775125 2.0336666 1.5806216e-38
0.49734974 -0.79654694 2.0340915 1.5806216e-38
0.380595 -0.72131795 1.9891913 1.5806216e-38
0.42834005 -0.7787509 2.0270607 1.5806216e-38
0.36433378 -0.68557066 1.9988672 1.5806216e-38
0.57358557 -0.71790767 2.0061479 1.5806216e-38
0.77895206 -0.77128595 2.0165656 1.5806216e-38
0.81935465 -0.77095681 2.0140774 1.5806216e-38
0.85913754 -0.77321011 2.007858 1.5806216e-38
0.89786363 -0.76702738 2.0073628 1.5806216e-38
0.94229394 -0.76680809 2.010118 1.5806216e-38
0.90037829 -0.67523736 2.0045216 1.5806216e-38
0.80675709 -0.58602655 1.9938492 1.5806216e-38
1.0101994 -0.76002079 2.0211244 1.5806216e-38
-0.92424142 -0.75446332 2.003 1.5806216e-38
-0.90021861 -0.74128634 2.0088024 1.5806216e-38
-0.85778785 -0.73932713 2.023257 1.5806216e-38
-0.83106494 -0.73757535 2.0375462 1.5806216e-38
0.79618096 -0.75928479 2.039 1.5806216e-38
0.82947749 -0.75696713 2.025737 1.5806216e-38
0.86190671 -0.75068086 2.0260766 1.5806216e-38
0.89815593 -0.7484768 2.0239999 1.5806216e-38
0.9423328 -0.75323761 2.0312109 1.5806216e-38
0.98091185 -0.74772263 2.0274553 1.5806216e-38
1.0099787 -0.751638 2.0351603 1.5806216e-38
1.053512 -0.75661606 2.0355716 1.5806216e-38
-0.88870168 -0.71021485 2.0029995 1.5806216e-38
-0.85769445 -0.7033717 2.0057073 1.5806216e-38
-0.82243943 -0.69696039 2.0292215 1.5806216e-38
-0.7953487 -0.69076335 2.0389998 1.5806216e-38
-0.84732985 -0.66437179 2.0029995 1.5806216e-38
-0.81814557 -0.66222727 2.0111816 1.5806216e-38
-0.78325629 -0.65787995 2.0322797 1.5806216e-38
-0.75222337 -0.64524198 2.0389998 1.5806216e-38
-0.81170928 -0.61803406 2.0029988 1.5806216e-38
-0.78041863 -0.62066221 2.0199695 1.5806216e-38
-0.74640429 -0.61466742 2.03791 1.5806216e-38
-0.81073809 -0.5964489 2.0030003 1.5806216e-38
-0.77370071 -0.58271486 2.006223 1.5806216e-38
-0.74025452 -0.57830161 2.0282407 1.5806216e-38
-0.70969152 -0.5665881 2.0389998 1.5806216e-38
-0.76710141 -0.54712898 2.0029993 1.5806216e-38
-0.73541975 -0.54070497 2.014617 1.5806216e-38
-0.70714498 -0.53784037 2.0380011 1.5806216e-38
-0.73330206 -0.50437248 2.0166743 1.5806216e-38
-0.70049751 -0.49899974 2.0334716 1.5806216e-38
-0.66519958 -0.491496 2.0390007 1.5806216e-38
-0.72425938 -0.47054607 2.0030003 1.5806216e-38
-0.69779819 -0.46028984 2.0083585 1.5806216e-38
-0.66525853 -0.45923901 2.0334523 1.5806216e-38
-0.63413984 -0.45030615 2.0389998 1.5806216e-38
-0.69140255 -0.42582333 2.0046146 1.5806216e-38
-0.65944356 -0.42040756 2.0151052 1.5806216e-38
-0.62494695 -0.41780391 2.0361955 1.5806216e-38
-0.68369067 -0.38762817 2.003 1.5806216e-38
-0.65787911 -0.38719919 2.0033922 1.5806216e-38
-0.61989671 -0.37955961 2.0201943 1.5806216e-38
-0.5829249 -0.37871343 2.0383153 1.5806216e-38
-0.61298019 -0.34532204 2.0076866 1.5806216e-38
-0.57951915 -0.33972827 2.0217927 1.5806216e-38
-0.54386479 -0.33249179 2.0363758 1.5806216e-38
-0.51693505 -0.32352135 2.039 1.5806216e-38
-0.57790321 -0.30562279 2.0045195 1.5806216e-38
-0.54153454 -0.2996048 2.0241523 1.5806216e-38
-0.50706452 -0.29388306 2.0380211 1.5806216e-38
-0.53723186 -0.26225114 2.0070822 1.5806216e-38
-0.50084841 -0.26029152 2.0234439 1.5806216e-38
-0.46894887 -0.24952154 2.0378757 1.5806216e-38
-0.53031808 -0.23654477 2.0030003 1.5806216e-38
-0.49495673 -0.22291401 2.0048146 1.5806216e-38
-0.46152273 -0.21868578 2.0276048 1.5806216e-38
-0.43235949 -0.20709842 2.0389998 1.5806216e-38
-0.48934972 -0.18994437 2.0029995 1.5806216e-38
-0.4585405 -0.18085279 2.0107458 1.5806216e-38
-0.42114955 -0.17750062 2.0326467 1.5806216e-38
-0.39291209 -0.16661544 2.0389998 1.5806216e-38
-0.45085189 -0.1513256 2.0048745 1.5806216e-38
-0.41855648 -0.1397588 2.0145726 1.5806216e-38
-0.38556841 -0.13624386 2.0366321 1.5806216e-38
-0.41250524 -0.10459813 2.0036783 1.5806216e-38
-0.38045684 -0.10015068 2.0218267 1.5806216e-38
-0.34750101 -0.096504502 2.038801 1.5806216e-38
1.0548632 -0.095766574 2.039 1.5806216e-38
-0.37080139 -0.064180702 2.0064566 1.5806216e-38
-0.34003043 -0.059481602 2.0248709 1.5806216e-38
-0.31135678 -0.048850313 2.0380006 1.5806216e-38
1.0319562 -0.053197015 2.0265865 1.5806216e-38
1.0480098 -0.064675942 2.0278006 1.5806216e-38
-0.36272013 -0.031339459 2.0030003 1.5806216e-38
-0.33587727 -0.022104571 2.0057278 1.5806216e-38
-0.30256179 -0.017823182 2.0327556 1.5806216e-38
-0.27704507 -0.0084149204 2.039 1.5806216e-38
1.0308899 -0.022130139 2.022867 1.5806216e-38
1.043962 -0.0086357147 2.0150001 1.5806216e-38
-0.32556701 0.0079484135 2.0030003 1.5806216e-38
-0.30017427 0.01836752 2.0193529 1.5806216e-38
-0.26721641 0.024968365 2.0345798 1.5806216e-38
1.0328425 0.019989274 2.0175712 1.5806216e-38
-0.29230341 0.052454233 2.0042403 1.5806216e-38
-0.25932807 0.059536479 2.0174789 1.5806216e-38
-0.22852853 0.071177147 2.0383339 1.5806216e-38
1.0239323 0.06048524 2.0173485 1.5806216e-38
-0.28042001 0.085842863 2.003 1.5806216e-38
-0.25452232 0.095186159 2.0092394 1.5806216e-38
-0.22031909 0.10159215 2.0288455 1.5806216e-38
-0.18257232 0.11023664 2.0384793 1.5806216e-38
0.9961971 0.11651429 2.039 1.5806216e-38
1.0152467 0.097851142 2.0180264 1.5806216e-38
-0.24444775 0.12399525 2.0030003 1.5806216e-38
-0.21811157 0.13791725 2.0100863 1.5806216e-38
-0.18078291 0.1405507 2.0250919 1.5806216e-38
-0.14423057 0.1541166 2.0390003 1.5806216e-38
0.9946515 0.14824982 2.0264785 1.5806216e-38
1.0073066 0.13533914 2.015187 1.5806216e-38
-0.20911954 0.17102738 2.0053327 1.5806216e-38
-0.17839877 0.17808017 2.0134454 1.5806216e-38
-0.1409879 0.18095711 2.0317779 1.5806216e-38
-0.10916279 0.18822612 2.0390005 1.5806216e-38
0.99081028 0.18100248 2.023 1.5806216e-38
1.0053334 0.18444102 2.0038567 1.5806216e-38
-0.17330717 0.21126877 2.0029991 1.5806216e-38
-0.13978297 0.22028881 2.0134265 1.5806216e-38
-0.10410258 0.22224386 2.0330009 1.5806216e-38
-0.078508437 0.23275118 2.039 1.5806216e-38
0.98151225 0.22116999 2.0216007 1.5806216e-38
1.0051086 0.20235762 2.0045002 1.5806216e-38
-0.13210262 0.25266418 2.0029991 1.5806216e-38
-0.099715918 0.26050943 2.0221767 1.5806216e-38
-0.071485735 0.26157963 2.0368187 1.5806216e-38
0.95394635 0.26475018 2.0332072 1.5806216e-38
0.96975154 0.25999606 2.0151303 1.5806216e-38
-0.12094306 0.28881353 2.003 1.5806216e-38
-0.09609323 0.2958217 2.0077689 1.5806216e-38
-0.062670395 0.30167368 2.0301573 1.5806216e-38
-0.036896192 0.30099526 2.039 1.5806216e-38
0.95715761 0.2828061 2.0174003 1.5806216e-38
0.98000485 0.28432599 2.0068395 1.5806216e-38
1.0209517 0.2857908 2.0050001 1.5806216e-38
-0.084571101 0.32747459 2.003 1.5806216e-38
-0.055595502 0.33634382 2.0157197 1.5806216e-38
-0.023103354 0.34378019 2.0322108 1.5806216e-38
-0.046361558 0.37492985 2.0064731 1.5806216e-38
-0.019510126 0.38022166 2.0227768 1.5806216e-38
0.006634335 0.39272666 2.034579 1.5806216e-38
-0.040059999 0.4025076 2.003 1.5806216e-38
-0.017646858 0.41837358 2.006001 1.5806216e-38
0.015853746 0.42335057 2.0228193 1.5806216e-38
0.041690953 0.43628001 2.036 1.5806216e-38
-0.0069437325 0.45393705 2.0029993 1.5806216e-38
0.019087974 0.46046385 2.0103772 1.5806216e-38
0.053622119 0.46175659 2.0275648 1.5806216e-38
0.023773687 0.49508381 2.0061865 1.5806216e-38
0.059594452 0.49929535 2.0165739 1.5806216e-38
0.095210172 0.50739175 2.034673 1.5806216e-38
0.12622382 0.51848859 2.039 1.5806216e-38
0.036244761 0.52841043 2.003 1.5806216e-38
0.063093744 0.53761953 2.0070004 1.5806216e-38
0.099839345 0.53998131 2.0178413 1.5806216e-38
0.13085276 0.54528815 2.0284486 1.5806216e-38
0.0711542 0.5698058 2.0029998 1.5806216e-38
0.099972069 0.57906699 2.006737 1.5806216e-38
0.13554385 0.57769811 2.0167928 1.5806216e-38
0.10404385 0.60415989 2.003571 1.5806216e-38
0.12747315 0.60879987 2.0100338 1.5806216e-38
-0.32141599 0.70774001 1.6901917 1.5806216e-38
-0.64093637 -0.28432626 1.930205 1.5806216e-38
-0.75347394 -0.65314782 2.0493522 1.5806216e-38
-0.22167836 -0.30555996 2.0416782 1.5806216e-38
-0.12614736 0.16746405 1.9469348 1.5806216e-38
-0.10097974 -0.22386388 2.0033693 1.5806216e-38
-0.024112681 -0.08424785 1.9910789 1.5806216e-38
-0.51535243 -0.49438131 1.9326727 1.5806216e-38
-0.22257608 -0.61466187 1.999185 1.5806216e-38
-0.20692913 -0.55166483 1.9880691 1.5806216e-38
-0.13330549 -0.53617442 1.9954772 1.5806216e-38
-0.054052949 -0.52542758 2.0016246 1.5806216e-38
-0.010713466 -0.48229486 1.9969884 1.5806216e-38
0.031922922 -0.43327072 1.9915812 1.5806216e-38
0.019341517 -0.5333584 1.9978132 1.5806216e-38
0.014397542 -0.42706636 1.9515809 1.5806216e-38
0.059970915 -0.43608829 1.9767575 1.5806216e-38
0.42103213 -0.80317527 2.0510006 1.5806216e-38
0.4551267 -0.80282009 2.0510004 1.5806216e-38
-0.88095337 -0.77742666 2.0510001 1.5806216e-38
-0.85790133 -0.78459299 2.0516763 1.5806216e-38
-0.81951159 -0.77828127 2.064904 1.5806216e-38
-0.7897926 -0.7651543 2.0760002 1.5806216e-38
0.013809048 -0.79822344 2.0695004 1.5806216e-38
0.22712246 -0.79689747 2.0701501 1.5806216e-38
0.25972125 -0.79635495 2.0693035 1.5806216e-38
0.29991081 -0.79667467 2.0690002 1.5806216e-38
0.34753722 -0.79467326 2.070893 1.5806216e-38
0.38068625 -0.78982764 2.0641963 1.5806216e-38
0.42031586 -0.78664798 2.0595698 1.5806216e-38
0.45875219 -0.78817385 2.0608652 1.5806216e-38
0.50038689 -0.78454059 2.0622766 1.5806216e-38
0.5392195 -0.78273165 2.0598183 1.5806216e-38
0.58218515 -0.77708715 2.0594585 1.5806216e-38
0.61983293 -0.77361774 2.062501 1.5806216e-38
0.66061133 -0.77151591 2.0599189 1.5806216e-38
0.69897211 -0.77157152 2.0537283 1.5806216e-38
0.73646098 -0.77153867 2.0528593 1.5806216e-38
0.77585858 -0.7641027 2.0551736 1.5806216e-38
0.81540811 -0.7654897 2.0510004 1.5806216e-38
1.0352666 -0.76375335 2.0510001 1.5806216e-38
1.0450335 -0.76375335 2.0510001 1.5806216e-38
-0.84188676 -0.7533356 2.0510001 1.5806216e-38
-0.81733876 -0.73969597 2.0531545 1.5806216e-38
-0.77879459 -0.73738128 2.0623 1.5806216e-38
-0.7560541 -0.73878193 2.0727501 1.5806216e-38
0.67784292 -0.75643337 2.0630002 1.5806216e-38
0.69779754 -0.75515795 2.0626843 1.5806216e-38
0.74014771 -0.75446683 2.0652089 1.5806216e-38
0.78078884 -0.75164115 2.0652623 1.5806216e-38
0.82039183 -0.74892151 2.0619562 1.5806216e-38
0.86024714 -0.74064851 2.0624683 1.5806216e-38
0.89980692 -0.73069519 2.0594254 1.5806216e-38
0.93959463 -0.73470914 2.056823 1.5806216e-38
0.97860426 -0.73176879 2.0594032 1.5806216e-38
1.02384 -0.73502487 2.0594003 1.5806216e-38
1.0573616 -0.7419188 2.0627034 1.5806216e-38
1.0814973 -0.73945153 2.0760002 1.5806216e-38
-0.80802906 -0.71557117 2.0510004 1.5806216e-38
-0.77678061 -0.70150876 2.0545413 1.5806216e-38
-0.7483421 -0.68949115 2.0661924 1.5806216e-38
0.94778997 -0.71517909 2.0698097 1.5806216e-38
0.97725248 -0.71621186 2.0741432 1.5806216e-38
1.0187033 -0.71630955 2.0742669 1.5806216e-38
1.0419544 -0.71770293 2.0760002 1.5806216e-38
-0.76645803 -0.66969281 2.0510006 1.5806216e-38
-0.73943996 -0.6608184 2.0579135 1.5806216e-38
-0.71638483 -0.64850295 2.0760002 1.5806216e-38
-0.7326228 -0.62652522 2.0530519 1.5806216e-38
-0.70056075 -0.61718655 2.0650361 1.5806216e-38
-0.67420578 -0.61143148 2.0760002 1.5806216e-38
-0.72370994 -0.59283674 2.0510004 1.5806216e-38
-0.69786227 -0.58266151 2.0585191 1.5806216e-38
-0.6719932 -0.58339071 2.0743759 1.5806216e-38
-0.6898343 -0.54136705 2.0512362 1.5806216e-38
-0.66270769 -0.53824854 2.0622721 1.5806216e-38
-0.63729918 -0.52987432 2.0760002 1.5806216e-38
-0.68633038 -0.51337159 2.0510006 1.5806216e-38
-0.65510589 -0.5058617 2.0525656 1.5806216e-38
-0.62863809 -0.49647465 2.0681231 1.5806216e-38
-0.59314287 -0.48044574 2.0760002 1.5806216e-38
-0.64882171 -0.46420023 2.0509994 1.5806216e-38
-0.62049794 -0.46160647 2.0619607 1.5806216e-38
-0.59146398 -0.45229909 2.0738335 1.5806216e-38
-0.60996073 -0.42466089 2.0513635 1.5806216e-38
-0.58234721 -0.41878197 2.0590405 1.5806216e-38
-0.54961425 -0.41370997 2.0715525 1.5806216e-38
-0.56968707 -0.38005531 2.0510001 1.5806216e-38
-0.5404014 -0.37854764 2.0591149 1.5806216e-38
-0.51092678 -0.37419689 2.070879 1.5806216e-38
-0.56216931 -0.352772 2.0510004 1.5806216e-38
-0.53344172 -0.34855652 2.0510004 1.5806216e-38
-0.50037616 -0.33848131 2.0610492 1.5806216e-38
-0.46575841 -0.32453394 2.0760002 1.5806216e-38
-0.49378309 -0.30625111 2.0549846 1.5806216e-38
-0.45967332 -0.29873094 2.0642054 1.5806216e-38
-0.43353024 -0.28413594 2.0702224 1.5806216e-38
1.0721507 -0.29639173 2.0760002 1.5806216e-38
-0.48403603 -0.27620134 2.0510004 1.5806216e-38
-0.45744652 -0.2648533 2.0517693 1.5806216e-38
-0.42271334 -0.25621548 2.0632136 1.5806216e-38
-0.3954286 -0.24912004 2.0760002 1.5806216e-38
1.0735888 -0.26583582 2.0760002 1.5806216e-38
-0.44601116 -0.23374891 2.0510004 1.5806216e-38
-0.41737682 -0.22129837 2.053937 1.5806216e-38
-0.38720918 -0.21492302 2.0682256 1.5806216e-38
-0.35193145 -0.20364574 2.0760002 1.5806216e-38
1.065359 -0.21618582 2.0692186 1.5806216e-38
-0.40368888 -0.19110112 2.0510006 1.5806216e-38
-0.37759474 -0.18214147 2.0567131 1.5806216e-38
-0.34574935 -0.17555669 2.070375 1.5806216e-38
-0.31832001 -0.16014859 2.0760002 1.5806216e-38
1.0389061 -0.16604573 2.0673337 1.5806216e-38
1.0577407 -0.1789321 2.0650148 1.5806216e-38
-0.36948049 -0.14609937 2.0510001 1.5806216e-38
-0.33991042 -0.14082514 2.0605986 1.5806216e-38
-0.31041107 -0.13717195 2.0746324 1.5806216e-38
1.0376787 -0.14133397 2.0644445 1.5806216e-38
1.0533605 -0.14014331 2.05826 1.5806216e-38
-0.33166376 -0.10696439 2.0516675 1.5806216e-38
-0.30186173 -0.097647704 2.0616324 1.5806216e-38
-0.27798635 -0.085808009 2.0760002 1.5806216e-38
1.0357429 -0.09156578 2.0682962 1.5806216e-38
1.0494952 -0.10243683 2.058569 1.5806216e-38
-0.32230002 -0.068366669 2.0510001 1.5806216e-38
-0.29628578 -0.061445054 2.0530117 1.5806216e-38
-0.26502782 -0.0542062 2.069802 1.5806216e-38
-0.23923431 -0.041520003 2.0760002 1.5806216e-38
1.024801 -0.058177151 2.0619388 1.5806216e-38
1.0437312 -0.074877784 2.0510001 1.5806216e-38
-0.28825623 -0.028462861 2.0510006 1.5806216e-38
-0.25977626 -0.020269781 2.0599046 1.5806216e-38
-0.23345867 -0.012173736 2.0746317 1.5806216e-38
1.0196773 -0.016687956 2.0636218 1.5806216e-38
-0.25186759 0.014701594 2.0512114 1.5806216e-38
-0.22106846 0.020451358 2.0652544 1.5806216e-38
-0.19311097 0.032102264 2.0743752 1.5806216e-38
0.99428707 0.025465799 2.0709131 1.5806216e-38
1.0177462 0.019620208 2.0598655 1.5806216e-38
-0.24026 0.042973336 2.0510001 1.5806216e-38
-0.21675463 0.055629924 2.052778 1.5806216e-38
-0.18213584 0.060584567 2.0658171 1.5806216e-38
-0.15322858 0.076120004 2.0760002 1.5806216e-38
0.99331748 0.062464051 2.0664916 1.5806216e-38
1.0087683 0.054827955 2.0551462 1.5806216e-38
-0.20553407 0.084427409 2.0510004 1.5806216e-38
-0.17704645 0.092081502 2.0549138 1.5806216e-38
-0.14294074 0.10362579 2.0656283 1.5806216e-38
-0.11452325 0.11413028 2.0734003 1.5806216e-38
0.99190861 0.10296945 2.0626998 1.5806216e-38
1.0040042 0.092983305 2.0541997 1.5806216e-38
-0.16310334 0.13087334 2.0510004 1.5806216e-38
-0.13943404 0.13663222 2.0517693 1.5806216e-38
-0.10401125 0.14259681 2.0645394 1.5806216e-38
0.98239505 0.13962321 2.0591788 1.5806216e-38
1.0051854 0.12462267 2.0510004 1.5806216e-38
-0.12462267 0.16603334 2.0510004 1.5806216e-38
-0.096381515 0.17671137 2.055671 1.5806216e-38
-0.069776244 0.18958142 2.0744801 1.5806216e-38
0.95721972 0.185569 2.0760002 1.5806216e-38
0.97385401 0.17991169 2.0590668 1.5806216e-38
-0.087765299 0.2102191 2.0509996 1.5806216e-38
-0.059097491 0.22041082 2.0630112 1.5806216e-38
-0.037565719 0.23132575 2.0760002 1.5806216e-38
0.95775455 0.2318636 2.0667336 1.5806216e-38
0.96619743 0.21505557 2.058831 1.5806216e-38
-0.051645566 0.25923109 2.0597289 1.5806216e-38
-0.023579104 0.26403862 2.0669875 1.5806216e-38
0.0032952386 0.27745908 2.0760002 1.5806216e-38
0.95277625 0.25248015 2.0594213 1.5806216e-38
0.96370381 0.25588667 2.0510006 1.5806216e-38
-0.048107993 0.29157338 2.0534 1.5806216e-38
-0.020060675 0.29981691 2.062155 1.5806216e-38
0.010889058 0.3027792 2.0737076 1.5806216e-38
-0.011375558 0.33034983 2.053154 1.5806216e-38
0.017866204 0.34204262 2.0631788 1.5806216e-38
0.046226151 0.35021129 2.0740502 1.5806216e-38
-0.0019533334 0.36722666 2.0510001 1.5806216e-38
0.021325622 0.37818947 2.05545 1.5806216e-38
0.05596013 0.38313666 2.0661688 1.5806216e-38
0.088025726 0.39498505 2.071125 1.5806216e-38
0.031442355 0.41253135 2.0509994 1.5806216e-38
0.059374996 0.42018971 2.055685 1.5806216e-38
0.092304282 0.42080376 2.0694079 1.5806216e-38
0.07052207 0.45539612 2.0509996 1.5806216e-38
0.099200659 0.46054119 2.0592053 1.5806216e-38
0.13064317 0.46304175 2.0697966 1.5806216e-38
0.076180004 0.48247334 2.0510001 1.5806216e-38
0.10694833 0.49338034 2.0522869 1.5806216e-38
0.13873346 0.50162524 2.0633693 1.5806216e-38
0.16509144 0.51751715 2.0760002 1.5806216e-38
0.11785112 0.52284229 2.0510001 1.5806216e-38
0.14717337 0.53527695 2.0570164 1.5806216e-38
0.17652757 0.54204792 2.0644524 1.5806216e-38
0.20364574 0.54569149 2.0760002 1.5806216e-38
0.15654573 0.56562948 2.0510004 1.5806216e-38
0.16962415 0.56430829 2.0550003 1.5806216e-38
-0.45145106 -0.25211784 1.8870792 1.5806216e-38
-0.64913291 -0.4717848 1.9957048 1.5806216e-38
-0.65830308 -0.55497038 2.0383263 1.5806216e-38
-0.65277672 -0.61479902 2.0639415 1.5806216e-38
-0.07417006 0.52500564 1.9205421 1.5806216e-38
-0.14609903 0.38785189 1.9316121 1.5806216e-38
-0.5596211 -0.17016503 1.9516395 1.5806216e-38
-0.59780884 -0.1971679 1.9808629 1.5806216e-38
-0.54526061 -0.44886664 1.9610462 1.5806216e-38
-0.54821515 -0.40740269 1.9278498 1.5806216e-38
-0.43470618 -0.70001543 2.0622375 1.5806216e-38
-0.23993252 -0.66478944 2.0535936 1.5806216e-38
-0.28167841 -0.68004155 2.0670621 1.5806216e-38
-0.14806297 -0.6747191 2.0698276 1.5806216e-38
-0.22216256 -0.67379844 2.0727789 1.5806216e-38
-0.27549127 -0.64875203 2.0726418 1.5806216e-38
-0.23031777 -0.70502597 2.086385 1.5806216e-38
-0.13951513 -0.80966014 2.0964379 1.5806216e-38
-0.092143029 -0.70417851 2.0835629 1.5806216e-38
-0.045856092 -0.7420252 2.0953369 1.5806216e-38
0.0014511609 -0.76828063 2.0996356 1.5806216e-38
0.025329255 -0.80281287 2.0917141 1.5806216e-38
0.056793835 -0.80459476 2.0924692 1.5806216e-38
0.10261675 -0.8033241 2.0887647 1.5806216e-38
0.1359234 -0.8026489 2.0907371 1.5806216e-38
0.17838655 -0.80303198 2.0879998 1.5806216e-38
0.20348211 -0.80238724 2.0906 1.5806216e-38
0.3373943 -0.80139434 2.0880001 1.5806216e-38
-0.80338287 -0.79145139 2.0880001 1.5806216e-38
-0.77797782 -0.78276569 2.0892222 1.5806216e-38
-0.74096841 -0.78007191 2.1039016 1.5806216e-38
-0.7124964 -0.76998824 2.1139998 1.5806216e-38
-0.16308001 -0.7992934 2.1140001 1.5806216e-38
-0.14006008 -0.79340011 2.1092968 1.5806216e-38
-0.10019622 -0.79488158 2.1070242 1.5806216e-38
-0.062180478 -0.79400301 2.1106567 1.5806216e-38
-0.019066723 -0.7978186 2.1132352 1.5806216e-38
0.022734197 -0.79279405 2.1046784 1.5806216e-38
0.058933467 -0.79004908 2.1073024 1.5806216e-38
0.100818 -0.79293048 2.1041958 1.5806216e-38
0.14138697 -0.78976834 2.1054511 1.5806216e-38
0.18130104 -0.78909075 2.1049623 1.5806216e-38
0.22118576 -0.78338403 2.1047852 1.5806216e-38
0.26023212 -0.78167069 2.1037927 1.5806216e-38
0.29924953 -0.78155571 2.1036494 1.5806216e-38
0.3392657 -0.77983105 2.1023552 1.5806216e-38
0.37986892 -0.77364224 2.1037614 1.5806216e-38
0.4188371 -0.77055371 2.101742 1.5806216e-38
0.46312851 -0.77263272 2.0991418 1.5806216e-38
0.49810815 -0.76966101 2.0965889 1.5806216e-38
0.53969854 -0.76893693 2.0971475 1.5806216e-38
0.57864565 -0.76561636 2.09515 1.5806216e-38
0.62006986 -0.76248479 2.0921054 1.5806216e-38
0.65905029 -0.76297337 2.0921605 1.5806216e-38
0.68357724 -0.76211619 2.0966668 1.5806216e-38
-0.76219112 -0.7354874 2.0880003 1.5806216e-38
-0.74065393 -0.74141872 2.0973737 1.5806216e-38
-0.70452893 -0.74095809 2.1079323 1.5806216e-38
-0.67849338 -0.74694669 2.1140001 1.5806216e-38
0.38454673 -0.75902671 2.1140001 1.5806216e-38
0.42653993 -0.75605536 2.1121426 1.5806216e-38
0.45743459 -0.75457782 2.1119468 1.5806216e-38
0.4997597 -0.75484592 2.1109762 1.5806216e-38
0.54000914 -0.75497192 2.1094496 1.5806216e-38
0.58099204 -0.75427276 2.1115096 1.5806216e-38
0.62167776 -0.75073093 2.1080563 1.5806216e-38
0.65923464 -0.74863207 2.1073186 1.5806216e-38
0.69989878 -0.74598134 2.1047783 1.5806216e-38
0.74038243 -0.74061388 2.1050613 1.5806216e-38
0.77919364 -0.73586833 2.1041369 1.5806216e-38
0.82010454 -0.73507118 2.1020675 1.5806216e-38
0.86112291 -0.73028553 2.1017992 1.5806216e-38
0.89716506 -0.72427577 2.0983334 1.5806216e-38
0.92951471 -0.72322673 2.092 1.5806216e-38
1.0073423 -0.72209764 2.0945001 1.5806216e-38
1.0681283 -0.72526568 2.0950422 1.5806216e-38
1.0886736 -0.72827584 2.099375 1.5806216e-38
-0.76162291 -0.71588576 2.0880001 1.5806216e-38
-0.7362116 -0.70364404 2.0881872 1.5806216e-38
-0.70164919 -0.70068192 2.0999892 1.5806216e-38
-0.66564852 -0.6890536 2.1082644 1.5806216e-38
0.77865666 -0.71775341 2.1140001 1.5806216e-38
0.86774671 -0.71876013 2.1140003 1.5806216e-38
0.90418291 -0.71704239 2.11075 1.5806216e-38
0.94244647 -0.70547926 2.1088269 1.5806216e-38
0.97777945 -0.70854801 2.1040945 1.5806216e-38
1.019261 -0.70858085 2.1031072 1.5806216e-38
1.0611628 -0.70590955 2.1092715 1.5806216e-38
1.0902408 -0.70806241 2.1119995 1.5806216e-38
-0.72549713 -0.6721372 2.0879998 1.5806216e-38
-0.69912797 -0.66092288 2.0901208 1.5806216e-38
-0.66030562 -0.65973264 2.1031654 1.5806216e-38
-0.63756847 -0.66169953 2.1118336 1.5806216e-38
0.94962227 -0.67849338 2.1140001 1.5806216e-38
-0.6881783 -0.63196808 2.0879998 1.5806216e-38
-0.65940225 -0.62270486 2.0976479 1.5806216e-38
-0.62793541 -0.61444038 2.1076322 1.5806216e-38
-0.65401983 -0.58141142 2.089082 1.5806216e-38
-0.62224042 -0.57884133 2.1053748 1.5806216e-38
-0.59623432 -0.56862295 2.1140003 1.5806216e-38
-0.65102041 -0.55348575 2.0880003 1.5806216e-38
-0.61941797 -0.54096979 2.0936618 1.5806216e-38
-0.5879584 -0.53649318 2.1091845 1.5806216e-38
-0.61229241 -0.50408393 2.0879991 1.5806216e-38
-0.58079171 -0.50169551 2.0970716 1.5806216e-38
-0.54506516 -0.49422511 2.1023676 1.5806216e-38
-0.60253716 -0.47129145 2.0880001 1.5806216e-38
-0.57774442 -0.46412259 2.0883319 1.5806216e-38
-0.54091305 -0.46133229 2.0967488 1.5806216e-38
-0.50846899 -0.45302099 2.1099548 1.5806216e-38
1.0944483 -0.45541593 2.1139998 1.5806216e-38
-0.57549256 -0.43867889 2.0880001 1.5806216e-38
-0.53607672 -0.42533687 2.0889838 1.5806216e-38
-0.49897742 -0.41925222 2.0973737 1.5806216e-38
-0.46788648 -0.41236728 2.1139994 1.5806216e-38
1.0881402 -0.41792196 2.1110451 1.5806216e-38
-0.52867597 -0.39799842 2.0880003 1.5806216e-38
-0.49619287 -0.38424599 2.0901358 1.5806216e-38
-0.46034166 -0.37897903 2.0992007 1.5806216e-38
-0.42816943 -0.36787778 2.11075 1.5806216e-38
1.0746762 -0.37310374 2.1092105 1.5806216e-38
1.0864601 -0.37894893 2.1067774 1.5806216e-38
-0.48628226 -0.35197714 2.0879998 1.5806216e-38
-0.46018174 -0.34275758 2.0897408 1.5806216e-38
-0.4214271 -0.33908367 2.1017637 1.5806216e-38
-0.39043263 -0.33570078 2.1077948 1.5806216e-38
1.0739597 -0.33463243 2.1098943 1.5806216e-38
1.0858488 -0.34150794 2.1064162 1.5806216e-38
-0.4444457 -0.3132 2.0880001 1.5806216e-38
-0.41942081 -0.30096716 2.0918303 1.5806216e-38
-0.38089401 -0.29781988 2.1054633 1.5806216e-38
-0.35405907 -0.29509717 2.1140003 1.5806216e-38
1.0701324 -0.29857665 2.101393 1.5806216e-38
1.0833527 -0.3026816 2.0923336 1.5806216e-38
-0.41113716 -0.27168858 2.0879998 1.5806216e-38
-0.37932205 -0.2603263 2.0926685 1.5806216e-38
-0.3448109 -0.25771177 2.1063323 1.5806216e-38
-0.31609333 -0.24361333 2.1140001 1.5806216e-38
1.0638056 -0.26007956 2.0989537 1.5806216e-38
1.0833528 -0.24775335 2.0923336 1.5806216e-38
-0.37360892 -0.22616367 2.0879996 1.5806216e-38
-0.34011754 -0.22097349 2.0983746 1.5806216e-38
-0.30450496 -0.21752283 2.1088722 1.5806216e-38
1.0350962 -0.21453799 2.1131337 1.5806216e-38
1.0542893 -0.22216839 2.1027591 1.5806216e-38
-0.32939297 -0.1854964 2.0889282 1.5806216e-38
-0.29991892 -0.17944469 2.097019 1.5806216e-38
-0.27619788 -0.17112382 2.1102858 1.5806216e-38
1.0356371 -0.1766986 2.1124706 1.5806216e-38
1.0481476 -0.18372707 2.1026244 1.5806216e-38
-0.29270798 -0.14130124 2.089551 1.5806216e-38
-0.26352352 -0.13692854 2.1061306 1.5806216e-38
-0.23522446 -0.1291889 2.1140003 1.5806216e-38
1.0299476 -0.1391128 2.1102593 1.5806216e-38
1.0428784 -0.14032011 2.0940363 1.5806216e-38
-0.28560859 -0.11086285 2.0879998 1.5806216e-38
-0.25942719 -0.10006073 2.0970592 1.5806216e-38
-0.22529741 -0.09713465 2.1077738 1.5806216e-38
-0.19797778 -0.08523111 2.1140001 1.5806216e-38
1.0268859 -0.099285789 2.1049752 1.5806216e-38
1.0422341 -0.11077014 2.093909 1.5806216e-38
-0.25122288 -0.06742204 2.0879996 1.5806216e-38
-0.21973675 -0.05995376 2.0978787 1.5806216e-38
-0.18876168 -0.050810754 2.1127808 1.5806216e-38
0.99525785 -0.043622222 2.1140001 1.5806216e-38
1.0138572 -0.060696412 2.1009989 1.5806216e-38
-0.21792766 -0.021507608 2.0897129 1.5806216e-38
-0.1810215 -0.019596715 2.1062257 1.5806216e-38
-0.15905334 -0.0040266667 2.1140001 1.5806216e-38
0.99423063 -0.019052286 2.1073408 1.5806216e-38
1.0072213 -0.021740155 2.0942671 1.5806216e-38
-0.20438096 0.0059657143 2.0880001 1.5806216e-38
-0.17827925 0.018252427 2.095221 1.5806216e-38
-0.14162497 0.022658076 2.1065047 1.5806216e-38
-0.10912267 0.033823997 2.1139998 1.5806216e-38
0.98757994 0.020655001 2.1016741 1.5806216e-38
1.0082058 0.0053975522 2.0879998 1.5806216e-38
-0.16483051 0.051481903 2.0880001 1.5806216e-38
-0.13901964 0.059142694 2.0950403 1.5806216e-38
-0.10125089 0.061034549 2.1051478 1.5806216e-38
-0.072567545 0.069591306 2.1139996 1.5806216e-38
0.98382998 0.059767947 2.1025651 1.5806216e-38
-0.12836304 0.089686394 2.0890403 1.5806216e-38
-0.098504372 0.09851563 2.0956292 1.5806216e-38
-0.064275488 0.10361843 2.1086566 1.5806216e-38
-0.038253333 0.10670667 2.1140001 1.5806216e-38
0.95447165 0.10981831 2.1130717 1.5806216e-38
0.97778672 0.10011426 2.1032441 1.5806216e-38
-0.089209922 0.13016891 2.0884819 1.5806216e-38
-0.059977066 0.1400238 2.1007385 1.5806216e-38
-0.030985873 0.14643003 2.112885 1.5806216e-38
0.95471901 0.139625 2.1111107 1.5806216e-38
0.96882629 0.13966264 2.0992656 1.5806216e-38
-0.081531428 0.16505143 2.0880001 1.5806216e-38
-0.057098698 0.17707859 2.0933614 1.5806216e-38
-0.022477364 0.18209349 2.1076498 1.5806216e-38
0.0092613334 0.19529332 2.1140001 1.5806216e-38
0.95052534 0.18603137 2.1074991 1.5806216e-38
0.96665585 0.17094152 2.0981112 1.5806216e-38
-0.048719998 0.20233716 2.0880001 1.5806216e-38
-0.019234143 0.21948235 2.0999155 1.5806216e-38
0.017170887 0.2233194 2.1120727 1.5806216e-38
0.043622222 0.23153333 2.1140001 1.5806216e-38
0.9463551 0.22169352 2.1043212 1.5806216e-38
0.9622466 0.21439175 2.0908887 1.5806216e-38
-0.012645072 0.25075537 2.0922248 1.5806216e-38
0.020055762 0.2603651 2.1031213 1.5806216e-38
0.051203959 0.26853511 2.1139994 1.5806216e-38
0.94783354 0.24532983 2.0985625 1.5806216e-38
0.96036005 0.25569335 2.1140001 1.5806216e-38
-0.0019885714 0.28834286 2.0880001 1.5806216e-38
0.028260145 0.29593956 2.0941315 1.5806216e-38
0.055994727 0.3018117 2.1081057 1.5806216e-38
0.032272119 0.32734397 2.0887222 1.5806216e-38
0.062856756 0.33778113 2.0996156 1.5806216e-38
0.095839657 0.34318265 2.1077459 1.5806216e-38
0.070912786 0.37138373 2.0905006 1.5806216e-38
0.10191885 0.37888414 2.0993905 1.5806216e-38
0.13243721 0.38761437 2.1129451 1.5806216e-38
0.11241955 0.42100766 2.0917144 1.5806216e-38
0.13966922 0.42020428 2.1038196 1.5806216e-38
0.17241216 0.42881015 2.1089437 1.5806216e-38
0.11732572 0.44543999 2.0880001 1.5806216e-38
0.14606585 0.45585221 2.0968828 1.5806216e-38
0.18005833 0.45975113 2.1076958 1.5806216e-38
0.2112509 0.46895766 2.1139994 1.5806216e-38
0.15169996 0.48744896 2.0941176 1.5806216e-38
0.18111214 0.49880645 2.1002414 1.5806216e-38
0.21935195 0.50134134 2.1105847 1.5806216e-38
0.24495554 0.51608443 2.1140001 1.5806216e-38
0.19081457 0.53001416 2.0942597 1.5806216e-38
0.2191515 0.53214753 2.1014185 1.5806216e-38
0.24683468 0.52386934 2.1140001 1.5806216e-38
-0.55297905 0.17081074 1.7970046 1.5806216e-38
0.078314126 0.39740005 1.9094018 1.5806216e-38
0.048660357 0.46336246 1.9174875 1.5806216e-38
-0.01821724 0.7497319 1.8579111 1.5806216e-38
0.068865865 0.78013748 1.8730006 1.5806216e-38
-1.0449951 -0.63111728 1.8865 1.5806216e-38
-0.90179044 -0.53859633 1.9088315 1.5806216e-38
-0.88201714 -0.49992472 1.9025245 1.5806216e-38
-0.76730025 -0.33604965 1.908578 1.5806216e-38
-0.053764582 -0.11820124 2.0395281 1.5806216e-38
-0.63855737 -0.70309019 2.1208222 1.5806216e-38
-0.6694023 -0.77984786 2.1401527 1.5806216e-38
-0.56491339 -0.72925985 2.1379712 1.5806216e-38
-0.60403693 -0.79384077 2.1382616 1.5806216e-38
-0.55207396 -0.76993996 2.1389096 1.5806216e-38
-0.55211717 -0.74691367 2.1337969 1.5806216e-38
-0.50572354 -0.81443584 2.1381714 1.5806216e-38
-0.42552212 -0.79805255 2.1317513 1.5806216e-38
-0.42020491 -0.81327885 2.1417458 1.5806216e-38
-0.38025114 -0.81192881 2.1409507 1.5806216e-38
-0.3399606 -0.80877477 2.1412783 1.5806216e-38
-0.30139548 -0.80660814 2.1387959 1.5806216e-38
-0.26017252 -0.80406946 2.1346662 1.5806216e-38
-0.2208429 -0.80340469 2.1331172 1.5806216e-38
-0.1831502 -0.8056559 2.1333139 1.5806216e-38
-0.020257143 -0.80015719 2.1270001 1.5806216e-38
-0.72561091 -0.7928645 2.1270001 1.5806216e-38
-0.69948727 -0.78434598 2.1392567 1.5806216e-38
-0.66094118 -0.77843261 2.1496146 1.5806216e-38
-0.63580543 -0.7736606 2.1530001 1.5806216e-38
-0.40394384 -0.79763526 2.1530001 1.5806216e-38
-0.37831289 -0.79609734 2.1530001 1.5806216e-38
-0.34000626 -0.7948392 2.1530001 1.5806216e-38
-0.29632029 -0.79483974 2.1519167 1.5806216e-38
-0.25570196 -0.79345012 2.1491001 1.5806216e-38
-0.22091281 -0.78930968 2.148387 1.5806216e-38
-0.17880273 -0.78368008 2.1458569 1.5806216e-38
-0.1391255 -0.77930599 2.1408548 1.5806216e-38
-0.10007265 -0.78066361 2.14136 1.5806216e-38
-0.062549494 -0.7816931 2.1421926 1.5806216e-38
-0.020827385 -0.78901654 2.1426709 1.5806216e-38
0.018083008 -0.78372616 2.1438997 1.5806216e-38
0.063724868 -0.77754021 2.1434529 1.5806216e-38
0.1006804 -0.77653867 2.1450553 1.5806216e-38
0.13774629 -0.77339137 2.1421366 1.5806216e-38
0.17899247 -0.77026057 2.1385186 1.5806216e-38
0.21821098 -0.76508641 2.1374996 1.5806216e-38
0.262611 -0.76353431 2.1344845 1.5806216e-38
0.30193317 -0.76327217 2.1359141 1.5806216e-38
0.33505473 -0.76273471 2.1346817 1.5806216e-38
0.37475714 -0.76369429 2.1270001 1.5806216e-38
0.40882763 -0.76137114 2.1356668 1.5806216e-38
-0.68962777 -0.73938709 2.1304207 1.5806216e-38
-0.66149795 -0.74082649 2.1431513 1.5806216e-38
-0.62770188 -0.73791504 2.1530001 1.5806216e-38
0.10633185 -0.75603992 2.1530001 1.5806216e-38
0.1209781 -0.75662571 2.1530001 1.5806216e-38
0.18443494 -0.75403553 2.1530001 1.5806216e-38
0.22153102 -0.75258464 2.1514707 1.5806216e-38
0.25914848 -0.75389016 2.1476665 1.5806216e-38
0.29857507 -0.75122219 2.1489072 1.5806216e-38
0.34272477 -0.75032002 2.1443968 1.5806216e-38
0.38083935 -0.75007629 2.142086 1.5806216e-38
0.42017928 -0.74642885 2.1448748 1.5806216e-38
0.46028763 -0.7442084 2.1448283 1.5806216e-38
0.49969468 -0.74218297 2.1444998 1.5806216e-38
0.53946561 -0.73977095 2.1426289 1.5806216e-38
0.58020335 -0.74106872 2.1421077 1.5806216e-38
0.61860669 -0.7355566 2.1418812 1.5806216e-38
0.66157347 -0.73288274 2.1420968 1.5806216e-38
0.70091712 -0.73150629 2.1439998 1.5806216e-38
0.74151206 -0.72730142 2.1413331 1.5806216e-38
0.77177417 -0.72448128 2.138375 1.5806216e-38
0.82144243 -0.72558552 2.1327777 1.5806216e-38
0.84914488 -0.72464508 2.1313334 1.5806216e-38
-0.68403643 -0.7124294 2.1291668 1.5806216e-38
-0.65440065 -0.70604855 2.1360996 1.5806216e-38
-0.62116009 -0.69997835 2.1523883 1.5806216e-38
-0.58475858 -0.68728232 2.1530001 1.5806216e-38
0.53927523 -0.7197172 2.1530001 1.5806216e-38
0.71698326 -0.71698326 2.1530004 1.5806216e-38
0.74173051 -0.71942294 2.1400001 1.5806216e-38
0.78007853 -0.71314698 2.1429136 1.5806216e-38
0.8187533 -0.71241987 2.1479824 1.5806216e-38
0.86203575 -0.70931703 2.1468735 1.5806216e-38
0.8998996 -0.70798647 2.1416664 1.5806216e-38
0.93436867 -0.69700527 2.1435795 1.5806216e-38
0.98312157 -0.69231123 2.1395802 1.5806216e-38
1.0194987 -0.69295484 2.1408224 1.5806216e-38
1.0581874 -0.68887973 2.1350162 1.5806216e-38
1.1011989 -0.69145286 2.1417725 1.5806216e-38
1.1216105 -0.68896008 2.1530001 1.5806216e-38
-0.64348513 -0.66016293 2.1284447 1.5806216e-38
-0.62053597 -0.66082746 2.145339 1.5806216e-38
-0.5822044 -0.65471292 2.1529999 1.5806216e-38
-0.55978006 -0.64384955 2.1530001 1.5806216e-38
0.98785651 -0.67649949 2.1530001 1.5806216e-38
1.0078092 -0.6776824 2.1530001 1.5806216e-38
1.0614456 -0.6774708 2.1491001 1.5806216e-38
1.1000805 -0.66435432 2.1530001 1.5806216e-38
1.1216105 -0.65000093 2.1530001 1.5806216e-38
-0.6114428 -0.62122118 2.1339331 1.5806216e-38
-0.58198214 -0.61747545 2.151 1.5806216e-38
-0.55304283 -0.61265308 2.1530001 1.5806216e-38
1.1154591 -0.6110419 2.1530001 1.5806216e-38
1.1216105 -0.61924386 2.1530001 1.5806216e-38
-0.60645902 -0.59308678 2.1283002 1.5806216e-38
-0.57910806 -0.5785405 2.1376088 1.5806216e-38
-0.54032558 -0.57924575 2.1491001 1.5806216e-38
-0.51002896 -0.57521236 2.1530001 1.5806216e-38
1.1143736 -0.58173221 2.1530001 1.5806216e-38
1.1216106 -0.57735556 2.1530001 1.5806216e-38
-0.57111406 -0.54443765 2.1280828 1.5806216e-38
-0.53984559 -0.53913903 2.1352177 1.5806216e-38
-0.50157058 -0.5404889 2.149153 1.5806216e-38
-0.47078928 -0.52984321 2.1530001 1.5806216e-38
1.1057645 -0.53574735 2.1495509 1.5806216e-38
1.1216106 -0.54952765 2.1530001 1.5806216e-38
-0.53179365 -0.50598806 2.1305451 1.5806216e-38
-0.50063807 -0.50109392 2.1407642 1.5806216e-38
-0.46420005 -0.50013924 2.1508629 1.5806216e-38
1.0981932 -0.50135195 2.1441486 1.5806216e-38
-0.49454236 -0.46449497 2.1316266 1.5806216e-38
-0.45938864 -0.46108696 2.1419895 1.5806216e-38
-0.42117417 -0.45395485 2.1502631 1.5806216e-38
-0.39847589 -0.44563684 2.1530001 1.5806216e-38
1.0725697 -0.44654575 2.1482105 1.5806216e-38
1.0887347 -0.4617978 2.1393807 1.5806216e-38
-0.45608526 -0.42469633 2.1309559 1.5806216e-38
-0.42083693 -0.41948077 2.1417241 1.5806216e-38
-0.38503036 -0.41716468 2.1530001 1.5806216e-38
-0.35678285 -0.40599433 2.1530001 1.5806216e-38
1.0727026 -0.42184609 2.1452618 1.5806216e-38
1.0862108 -0.42321727 2.1423945 1.5806216e-38
-0.445252 -0.39501429 2.1270001 1.5806216e-38
-0.41732973 -0.3840529 2.1338608 1.5806216e-38
-0.37986439 -0.3802014 2.1444643 1.5806216e-38
