# .PCD v0.7 - Point Cloud Data file format
VERSION 0.7
FIELDS x y z rgb
SIZE 4 4 4 4
TYPE F F F F
COUNT 1 1 1 1
WIDTH 266
HEIGHT 1
VIEWPOINT 0 0 0 1 0 0 0
POINTS 266
DATA ascii
-0.13183767 -0.082256384 0.59782368 9.3273242e-39
-0.13322085 -0.072549202 0.59627289 7.3872391e-39
-0.13652307 -0.087333031 0.60304523 1.116762e-38
-0.11853347 -0.081445307 0.6004287 1.6606407e-38
-0.069284394 -0.081237428 0.62137938 6.637459e-39
-0.13147214 -0.05824485 0.60971105 8.8562147e-39
-0.1016588 -0.057605617 0.62557536 6.3734417e-39
-0.065555081 -0.064699613 0.62395406 8.3959736e-39
-0.12524536 -0.035757534 0.63575006 1.4195934e-38
-0.096490674 -0.021119848 0.63647294 1.2526372e-38
-0.063413158 0.017405147 0.63900006 9.6492529e-39
-0.095846616 -0.092666 0.65190458 1.0054782e-38
-0.079448439 -0.091956742 0.65685725 1.56769e-38
-0.13650382 -0.041876972 0.64063644 1.8068166e-38
-0.10326353 -0.07018885 0.65028328 8.4935769e-39
-0.054300707 -0.051506009 0.65791285 6.4638437e-39
-0.033209227 -0.054769199 0.65937907 9.3150517e-39
-0.13077441 -0.017239265 0.65706742 1.0872219e-38
-0.10017807 -0.019945661 0.64814293 7.2820394e-39
-0.062024165 -0.021784741 0.66237712 8.6776164e-39
-0.036672741 -0.033573654 0.6741001 9.8786959e-39
-0.12770075 0.020674992 0.65419722 1.1232011e-38
-0.10049512 0.019491358 0.64981741 1.1786986e-38
-0.065180816 0.011461753 0.65813333 1.5561969e-38
-0.12820886 0.057332221 0.65815556 1.3538696e-38
-0.10056655 0.060877986 0.64554107 1.3535459e-38
-0.073205501 0.073706076 0.65545112 2.0999342e-38
-0.12086858 0.081208572 0.66100001 2.2124434e-38
-0.093070365 0.096527711 0.65069956 1.0865026e-38
-0.066300571 0.099268928 0.65812325 1.7589552e-38
-0.08678142 0.13903606 0.66968822 8.9292798e-39
-0.068428889 0.13907129 0.66904467 1.4180834e-38
-0.084207527 0.17127319 0.67706335 8.3768263e-39
-0.070905864 0.17336267 0.67587239 1.0403694e-38
0.19009674 0.26978821 0.67390162 9.3884545e-39
0.21934204 0.26662907 0.67043549 1.2429473e-38
0.25330025 0.27053607 0.67341053 1.7315838e-38
0.184956 0.2902514 0.67186105 8.5601329e-39
0.21926963 0.28897285 0.66320974 1.0219294e-38
0.26004878 0.2901476 0.66987151 1.5656314e-38
0.28299791 0.29559857 0.67818218 1.7315472e-38
-0.019288661 -0.046286095 0.70441383 9.6060775e-39
-0.14124098 -0.0054785581 0.68072736 1.5571335e-38
-0.041083049 -0.021902857 0.68040001 1.3835879e-38
-0.018823747 -0.032884996 0.70949763 9.1389617e-39
0.00068333332 -0.034165241 0.71750003 1.218898e-38
-0.14447197 0.017883318 0.68286765 1.4643964e-38
-0.084120005 0.039389525 0.70100003 1.1850781e-38
-0.06033846 0.030766357 0.69519103 1.3991042e-38
-0.14198001 0.041220002 0.68700004 9.1987187e-39
-0.086285383 0.052481201 0.69397813 1.3622603e-38
-0.061287813 0.059255548 0.69128007 1.7404434e-38
-0.051526278 0.094079658 0.68945801 2.0540896e-38
-0.093283214 0.15526012 0.68137497 8.1935294e-39
-0.051040869 0.14296278 0.6916244 1.8972487e-38
-0.090079196 0.18515064 0.68446493 8.560863e-39
-0.054608464 0.18313134 0.68996119 1.5654882e-38
-0.036377795 0.18766582 0.71330625 1.5746354e-38
-0.091121756 0.22103375 0.69496334 8.1924406e-39
-0.059459254 0.22009203 0.68988079 1.1692994e-38
-0.034140266 0.22192453 0.70847529 1.7589188e-38
0.1937061 0.23762541 0.71450001 1.2060673e-38
0.22046186 0.23555225 0.71040642 1.3719116e-38
0.25246 0.23657672 0.71259898 1.6669016e-38
-0.09102308 0.25992489 0.70428085 7.9162139e-39
-0.05958673 0.25969413 0.69514424 9.2977078e-39
-0.030342378 0.26098734 0.7092427 1.4364144e-38
0.15197435 0.27023783 0.70777643 1.0954693e-38
0.17823119 0.25699991 0.69668341 1.123092e-38
0.22017978 0.24703492 0.69028753 1.3811317e-38
0.26258743 0.25370005 0.69322515 1.8512937e-38
0.29480609 0.26596084 0.70264447 2.0911826e-38
0.32276666 0.27807048 0.71650004 2.0911463e-38
-0.086385213 0.29426441 0.71343791 7.2719263e-39
-0.059443701 0.29955855 0.70689571 7.1786474e-39
-0.029943753 0.29780081 0.71308511 9.8497984e-39
0.14383161 0.29738271 0.70287216 9.2962589e-39
0.16539304 0.29287872 0.68385738 8.9285567e-39
0.27888668 0.28083146 0.68099999 1.9437059e-38
0.30309713 0.29393294 0.69020569 1.8790242e-38
0.33688068 0.30286348 0.70801568 1.7592421e-38
0.36086956 0.3074581 0.71900004 1.7871163e-38
-0.073726043 0.32115334 0.71900004 6.4428859e-39
-0.031563621 0.32043871 0.71740001 7.7307394e-39
0.12718762 0.32070667 0.71800005 8.834915e-39
0.35616797 0.32088923 0.71233338 1.5288259e-38
-0.012131136 -0.014374962 0.72919476 1.3647505e-38
0.0021525305 -0.015690271 0.72584271 1.1263067e-38
-0.010107014 0.0040253336 0.73756462 1.5580365e-38
0.0011603176 0.0023206349 0.73100007 1.3193029e-38
-0.040457144 0.18720001 0.72000003 1.7865046e-38
-0.035531692 0.18347137 0.72127289 1.3998965e-38
0.21690834 0.19967885 0.75800008 1.5191369e-38
-0.023743317 0.22864886 0.7299245 1.5376842e-38
0.15000419 0.22781254 0.75069499 1.1968124e-38
0.18069629 0.22208406 0.74160498 1.2796805e-38
0.21918876 0.21687001 0.73891687 1.4455241e-38
0.25942296 0.22208425 0.73873788 1.7497337e-38
0.29445037 0.23120885 0.74572617 1.9802232e-38
-0.01421107 0.26142514 0.73186344 1.4179382e-38
0.055724166 0.27758959 0.75800014 9.2037017e-39
0.11876267 0.27749714 0.75760001 8.6512496e-39
0.1394383 0.25899124 0.73890835 1.0862497e-38
0.16704597 0.24445374 0.72555244 1.1691893e-38
0.27862859 0.24114287 0.72000003 1.9342693e-38
0.30646959 0.25127733 0.73096007 2.0910742e-38
0.33803722 0.26445544 0.74455613 1.9528532e-38
0.36877516 0.27304119 0.75253898 1.5565199e-38
-0.093024939 0.30233732 0.72353947 7.0886168e-39
-0.01044423 0.30099189 0.72949803 1.0402606e-38
0.021168675 0.30331802 0.7524718 8.466501e-39
0.050957851 0.2977013 0.75669438 8.2821083e-39
0.11289931 0.30482489 0.74456698 8.7427235e-39
0.12562242 0.29581323 0.72905219 9.6639596e-39
0.34824258 0.28925058 0.72912657 1.8330705e-38
0.36609134 0.29108131 0.73768359 1.6026531e-38
-0.089022838 0.32519472 0.73502505 7.1790132e-39
-0.077028573 0.32091427 0.72000003 6.7187525e-39
-0.010237842 0.324251 0.73303384 7.9140489e-39
0.020339739 0.32756594 0.74816728 7.4534281e-39
0.044825595 0.32836673 0.75533324 6.7155029e-39
0.10481531 0.32657301 0.74401635 8.0062403e-39
0.12269118 0.32125324 0.72118187 8.7430851e-39
0.073720016 0.199728 0.79799998 1.4085748e-38
0.10525487 0.19718556 0.79724163 1.2704253e-38
0.14321269 0.1870762 0.7868647 1.3164871e-38
0.17999005 0.18385169 0.77958846 1.4638559e-38
0.21906053 0.1853722 0.77865213 1.6112608e-38
0.2561717 0.19074965 0.78512734 1.813983e-38
0.288865 0.19707783 0.79366678 1.8417494e-38
0.026836958 0.22944324 0.78798276 1.1966328e-38
0.060948014 0.22144662 0.78167033 1.279681e-38
0.099578537 0.2197981 0.78210509 1.215144e-38
0.1349262 0.21633102 0.77302951 1.1414953e-38
0.17257319 0.20301731 0.76159328 1.3716962e-38
0.22845438 0.20160039 0.76046437 1.5929288e-38
0.26495209 0.20538284 0.76747155 1.850969e-38
0.30207747 0.2143303 0.77774149 1.9247975e-38
0.3376762 0.2273301 0.78192925 1.9802233e-38
0.37330082 0.23522906 0.79129744 1.8973192e-38
0.40052003 0.23940001 0.79800004 1.851365e-38
-0.0067870398 0.25897524 0.78524113 9.8461928e-39
0.019624949 0.2600739 0.77220726 1.0215693e-38
0.059887692 0.25887847 0.76375651 1.0585916e-38
0.10052489 0.26011884 0.76932508 8.3750242e-39
0.12384418 0.25233898 0.76524639 8.7441641e-39
0.34844488 0.24812007 0.7655322 1.9159025e-38
0.37699518 0.25295147 0.77375275 1.7499865e-38
0.4000181 0.24061811 0.79700005 1.84211e-38
-0.0023650625 0.28343746 0.7693159 9.2941023e-39
0.01436312 0.28500393 0.76100051 9.0182328e-39
0.068454951 0.3003909 0.76151776 7.1768398e-39
0.097336821 0.29787838 0.7687726 5.8871842e-39
0.064960755 0.33374974 0.77066427 4.5064133e-39
0.088153124 0.33222303 0.77378869 4.8751972e-39
0.38785133 -0.0046295901 0.83344567 6.8160012e-39
0.41069329 -0.012075384 0.83547783 1.114306e-38
0.38362899 0.021416992 0.83041865 9.8512431e-39
0.40738034 0.0216118 0.82500851 9.8552074e-39
0.35401687 0.067676261 0.83331043 1.0218219e-38
0.37836412 0.059154276 0.82110363 1.1417127e-38
0.40636736 0.059234183 0.81968492 1.1048704e-38
0.35168323 0.099367373 0.83093745 7.8250945e-39
0.37947476 0.10061505 0.81730151 7.8276238e-39
0.40524736 0.09834034 0.8166213 1.1232743e-38
0.11119113 0.15516673 0.83456486 1.3994266e-38
0.14230552 0.14990826 0.82749021 1.4731112e-38
0.17821877 0.14914662 0.8221606 1.6205518e-38
0.2168071 0.15475109 0.82798493 1.6389549e-38
0.24303335 0.15829685 0.83666676 1.5837091e-38
0.35458216 0.12955226 0.83314592 6.8113041e-39
0.38028932 0.13752742 0.82180607 6.0766271e-39
0.40486455 0.13770938 0.81673914 8.3836871e-39
0.037951812 0.19835448 0.83380002 1.427086e-38
0.063892059 0.19075352 0.82066572 1.4177941e-38
0.099869035 0.17903516 0.81520528 1.38088e-38
0.13572848 0.1689658 0.80806082 1.3993193e-38
0.1799269 0.16347836 0.80314314 1.5835661e-38
0.22223045 0.16560188 0.80912262 1.6389553e-38
0.26157224 0.17360857 0.81757998 1.6942367e-38
0.29862514 0.18436216 0.81978023 1.749698e-38
0.33195731 0.19286391 0.83140391 1.9894786e-38
0.38947716 0.16150038 0.83700007 1.6225311e-38
-0.0028913331 0.23642817 0.81350005 1.1876299e-38
0.020087464 0.21746725 0.81437898 1.2980483e-38
0.049373489 0.20357087 0.80547732 1.3808444e-38
0.3149797 0.20265168 0.80438465 1.9432725e-38
0.34395835 0.2087353 0.81655866 1.9709318e-38
0.38011801 0.21920747 0.8191604 1.8880996e-38
0.40854749 0.22511432 0.82612669 1.795868e-38
-0.010084128 0.24484178 0.80663639 1.1322406e-38
0.00076190475 0.23999999 0.80000001 1.1137629e-38
0.40707716 -0.080094293 0.86700004 5.2472602e-39
0.38824603 -0.05381966 0.86829102 3.8686151e-39
0.41241723 -0.056861818 0.85684884 3.684591e-39
0.35444799 -0.010269021 0.87259197 4.145209e-39
0.37798533 -0.021475831 0.85810941 6.3542916e-39
0.41050428 -0.031482257 0.84659779 9.6668448e-39
0.34751925 0.022892674 0.8607775 8.9307231e-39
0.36674079 0.011837507 0.84732622 1.0955419e-38
0.33755964 0.059057638 0.8567338 9.9430688e-39
0.36122954 0.045654286 0.84100002 1.1781588e-38
0.15714002 0.11889429 0.87300003 1.4267983e-38
0.16046572 0.11889429 0.87300003 1.4453086e-38
0.31581983 0.10688298 0.87471187 1.1691896e-38
0.33155063 0.099757507 0.85602814 9.0221915e-39
0.079174295 0.15917365 0.86300004 1.4086467e-38
0.10204339 0.14726858 0.85734212 1.4270854e-38
0.13879509 0.13130273 0.85702115 1.4823309e-38
0.18065682 0.13045263 0.85703033 1.5745263e-38
0.21859816 0.14604548 0.85266471 1.5468673e-38
0.2615566 0.15462685 0.86292732 1.3902429e-38
0.30453667 0.14453192 0.86830842 1.2060677e-38
0.33733323 0.14055622 0.85521835 9.5732031e-39
0.36798403 0.15507454 0.84784496 8.0977185e-39
0.036070161 0.19799207 0.8416667 1.4456329e-38
0.063972116 0.17681883 0.85266626 1.399427e-38
0.085441664 0.16403045 0.8464812 1.3901713e-38
0.2709122 0.16296095 0.84557879 1.4915857e-38
0.3026596 0.1663973 0.84981501 1.4732546e-38
0.34184799 0.17612842 0.85200423 1.7129638e-38
0.37560031 0.18187942 0.86047512 1.8512931e-38
0.40497208 0.19768666 0.87583345 1.7866847e-38
0.032839045 0.20103905 0.84100002 1.4456323e-38
0.38791168 0.20344689 0.84828013 1.897319e-38
0.41764855 0.20914066 0.85877353 1.7774651e-38
0.44083336 0.20750001 0.87500006 1.6945251e-38
0.38468522 -0.081443653 0.90363634 4.3306695e-39
0.34919247 -0.046909086 0.90169126 3.0399391e-39
0.37621948 -0.062299598 0.89043564 3.3165273e-39
0.31865501 -0.0040887883 0.90968198 1.0858913e-38
0.34015787 -0.020370206 0.8961612 4.7876903e-39
0.36087549 -0.035904001 0.88080007 3.1317745e-39
0.31454259 0.021645138 0.9064486 1.1322405e-38
0.33065766 0.017165706 0.89259696 1.0585916e-38
0.31431076 0.061276421 0.90196681 1.178446e-38
0.32266971 0.056215916 0.88401914 1.1598627e-38
0.30555663 0.10082094 0.8973223 1.2245071e-38
0.10496138 0.13864103 0.88391656 1.4178308e-38
0.12208255 0.12878732 0.88000005 1.4363412e-38
0.22872926 0.14300539 0.90028822 1.371912e-38
0.26151597 0.14149776 0.897093 1.3442892e-38
0.29231328 0.13128936 0.89159232 1.2521294e-38
0.39622402 0.18887258 0.88499993 1.9617475e-38
0.41565344 0.19372755 0.89658952 1.7774286e-38
0.45273978 0.19848193 0.91080844 1.5102419e-38
0.43155608 0.20267704 0.88943762 1.6576465e-38
0.44585526 0.20345302 0.89361221 1.5931458e-38
0.35914215 -0.081703573 0.94274998 4.5151196e-39
0.3654905 -0.081383817 0.94599998 3.4069671e-39
0.34925911 -0.064402759 0.93046463 3.591315e-39
0.36565766 -0.075761601 0.9464286 3.9593758e-39
0.32861915 -0.029280988 0.93423843 3.8679005e-39
0.30943629 0.029512819 0.93829495 6.1702619e-39
0.30766323 0.060136754 0.93078679 8.4733463e-39
0.27871907 0.11843334 0.93500006 1.3437525e-38
0.29434618 0.10277025 0.92845887 1.1785898e-38
0.22539873 0.13294208 0.92765325 1.4274831e-38
0.26050115 0.12995398 0.92797464 1.3166313e-38
0.2839756 0.1228433 0.92412496 1.2521657e-38
0.42823616 0.1898452 0.92595738 1.7221115e-38
0.45145857 0.19476874 0.92404473 1.5101702e-38
0.1385392 0.23853818 0.76545024 1.1601148e-38
0.06325087 0.2046258 0.7870416 1.3635591e-38
-0.065180816 0.011461753 0.65813333 1.5561969e-38
-0.0543551 0.088157445 0.70507836 1.1154256e-38
