# .PCD v0.7 - Point Cloud Data file format
VERSION 0.7
FIELDS x y z rgb
SIZE 4 4 4 4
TYPE F F F F
COUNT 1 1 1 1
WIDTH 252
HEIGHT 1
VIEWPOINT 0 0 0 1 0 0 0
POINTS 252
DATA ascii
-0.088696487 0.076731697 0.45033115 8.3771878e-39
-0.065070711 0.077366807 0.45784977 1.243091e-38
-0.088889994 0.098844491 0.46715167 7.6403459e-39
-0.066635206 0.096048884 0.46927685 1.2062129e-38
-0.093413554 0.11721587 0.4815554 7.363403e-39
-0.049950641 0.10580191 0.48949519 1.5654875e-38
-0.037365749 0.10433765 0.50573969 1.6852335e-38
-0.092274562 0.13932963 0.49817035 7.8250987e-39
-0.059923675 0.13905214 0.49930811 1.1877742e-38
-0.037722506 0.1282995 0.51651937 1.7313676e-38
-0.27033389 0.19788621 0.51491117 9.0319333e-39
-0.087486736 0.1665979 0.51444209 7.3644792e-39
-0.065373369 0.16803589 0.51431388 8.9300043e-39
-0.3104037 0.23073347 0.51656926 9.1244779e-39
-0.26980439 0.20135076 0.51490009 8.3865625e-39
-0.29962534 0.13994978 0.54082042 1.0781852e-38
-0.10330667 0.15817904 0.52000004 8.0105647e-39
-0.041587073 0.15558754 0.5214572 1.6116215e-38
-0.032302044 0.14681132 0.5337556 1.7589904e-38
-0.32118583 0.18076138 0.5313158 8.4780379e-39
-0.29857528 0.18532521 0.53694749 8.109254e-39
-0.26779449 0.19317332 0.55191624 8.75318e-39
-0.089839116 0.18238971 0.52923614 7.4570406e-39
-0.056364108 0.18445481 0.53102762 1.0035992e-38
-0.030058669 0.17535548 0.54719961 1.6115856e-38
-0.32196125 0.20697373 0.54008001 8.7567674e-39
-0.29427901 0.21767765 0.53240216 8.109254e-39
-0.27073446 0.21298008 0.53576523 7.3727679e-39
-0.08258982 0.20468399 0.54660875 7.2730081e-39
-0.060078118 0.20793104 0.55020404 7.9172943e-39
-0.03787183 0.20360057 0.55678952 1.2247243e-38
-0.28093469 0.24105071 0.53420001 1.3274053e-38
-0.2595523 0.24517851 0.54507762 1.0503818e-38
-0.23672841 0.24983835 0.5544706 1.0687855e-38
-0.024 0.15626666 0.56000006 1.7498783e-38
-0.24898763 0.19510154 0.56346953 1.013504e-38
-0.23527391 0.19827484 0.57128578 9.7651838e-39
-0.021456109 0.18822528 0.56812906 1.6576114e-38
-0.25141522 0.21723841 0.5689187 7.9245054e-39
-0.2236459 0.22186415 0.58323443 7.9237879e-39
-0.051844805 0.22528431 0.57056695 8.0094899e-39
-0.027236277 0.2179793 0.58268249 1.3351792e-38
-0.24041809 0.24208379 0.583 7.3684491e-39
-0.23082146 0.24173383 0.58443344 7.4617279e-39
-0.042957984 0.24319515 0.59324002 6.7198301e-39
-0.035550583 0.24250054 0.59677774 8.0995247e-39
-0.0076611894 0.18777411 0.63048881 1.316487e-38
0.015201474 0.18924719 0.6336202 1.4179023e-38
-0.20186462 0.2369957 0.60064703 6.7234412e-39
-0.19942859 0.23714286 0.60000002 5.7143508e-39
-0.0089647193 0.2206879 0.61184609 1.4364139e-38
0.019406309 0.21904738 0.62712187 1.4087913e-38
0.041451391 0.21808703 0.6387648 1.5470849e-38
-0.21387754 0.24236734 0.60000002 1.0139007e-38
-0.040923048 0.25234669 0.60519999 6.1663032e-39
-0.018200237 0.25332832 0.6164431 7.8243812e-39
0.013846802 0.24974905 0.63140649 9.7586845e-39
0.19501194 0.27297664 0.63575387 9.3891733e-39
0.22110027 0.26243114 0.62670535 9.4810102e-39
0.25870749 0.26066601 0.62743813 1.4551052e-38
0.2861374 0.26839748 0.63502848 1.8793135e-38
0.19143692 0.28261065 0.63501519 8.3761032e-39
0.20432962 0.28073633 0.62673336 8.2842663e-39
0.27593076 0.28069919 0.62614292 1.5658478e-38
0.28976107 0.28301144 0.63441193 1.7132887e-38
-0.010359997 0.15505151 0.66274017 1.3256708e-38
0.019426826 0.15381886 0.66640031 1.4545283e-38
0.054579869 0.15495503 0.67375189 1.6019693e-38
-0.0094243959 0.16689895 0.64626342 1.2519856e-38
0.023557397 0.1723032 0.64746404 1.4915505e-38
0.059536397 0.17963633 0.65887922 1.675942e-38
0.088764004 0.18443535 0.67450625 1.7865048e-38
0.038668193 0.23871696 0.64040011 1.2706061e-38
0.060504001 0.21929136 0.65308595 1.5378652e-38
0.089264877 0.21560431 0.67272502 1.5379008e-38
0.19533725 0.2369055 0.67623818 1.1231633e-38
0.22254293 0.23265812 0.66441864 1.2061036e-38
0.25877282 0.23051202 0.66152239 1.4734348e-38
0.29198283 0.23374972 0.66978419 1.8514732e-38
0.028716775 0.26055709 0.64984781 7.3630429e-39
0.057184692 0.25349176 0.66409355 9.4820949e-39
0.082290344 0.24495676 0.6767779 1.031185e-38
0.15639134 0.27580866 0.67498398 9.2044178e-39
0.18161476 0.26095486 0.66019976 1.0217845e-38
0.21306077 0.24594045 0.64762568 1.1231638e-38
0.2646029 0.24316257 0.64273059 1.602581e-38
0.30164009 0.25653085 0.65359861 2.0176424e-38
0.32793564 0.2678577 0.67027247 2.1006905e-38
0.15099517 0.2909531 0.67218995 8.3750186e-39
0.17099716 0.28558016 0.6525991 8.651967e-39
0.30983025 0.28646937 0.64906484 1.8700216e-38
0.32707167 0.28951037 0.66235775 1.9807285e-38
0.028766412 0.14354712 0.69183958 1.4085747e-38
0.061322387 0.14160827 0.69658417 1.5652348e-38
0.098023705 0.14758065 0.70191336 1.8232385e-38
0.13004464 0.15383874 0.71440536 1.8416055e-38
0.10625459 0.17659007 0.68698871 1.8326027e-38
0.13587599 0.17895748 0.70657521 1.712784e-38
0.17995653 0.18311729 0.71183765 1.2336188e-38
0.21840274 0.18708336 0.71028548 1.5192449e-38
0.25567541 0.19278938 0.7122643 1.6390992e-38
0.28453746 0.19861415 0.71714991 1.8695523e-38
0.1077747 0.22185026 0.68793964 1.298372e-38
0.1433465 0.22028488 0.70866585 8.7441655e-39
0.17946297 0.22004129 0.69578481 1.0862854e-38
0.21935487 0.21345168 0.6909861 1.2797522e-38
0.26028198 0.21082948 0.69335532 1.5378277e-38
0.29962191 0.21853063 0.69971091 1.8973909e-38
0.32900375 0.23169236 0.70829779 2.0634874e-38
0.070346035 0.26839855 0.68583447 6.1655675e-39
0.097858384 0.25208077 0.69380671 6.9938876e-39
0.14339568 0.26179865 0.70103288 7.7307296e-39
0.16838619 0.24879242 0.68603402 9.849783e-39
0.31793258 0.24162994 0.68239999 2.0818539e-38
0.33770317 0.25227907 0.6958555 2.0544845e-38
0.1138434 0.30246571 0.7115739 6.4410726e-39
0.13134913 0.29281068 0.6941067 7.5456195e-39
0.10476857 0.32115334 0.71900004 6.25741e-39
0.078571439 0.11928572 0.75000006 1.4731475e-38
0.10474072 0.11679869 0.75116301 1.5284282e-38
0.13851164 0.1157508 0.75090694 1.5837093e-38
0.17376672 0.11678047 0.7544325 1.7035633e-38
0.038400002 0.13645715 0.72000003 1.4179385e-38
0.068146706 0.12804136 0.73853093 1.5008775e-38
0.10114204 0.12817645 0.73201126 1.6205516e-38
0.14185312 0.13693099 0.73080868 1.6205159e-38
0.17978354 0.14010887 0.73549879 1.6205879e-38
0.21674719 0.14567961 0.7417224 1.8325296e-38
0.25004393 0.15489481 0.75053453 1.8048712e-38
0.15477577 0.18197195 0.72061735 9.387737e-39
0.17952336 0.16316813 0.72113186 1.3994629e-38
0.22272907 0.16762967 0.72492242 1.7034927e-38
0.26152071 0.17432813 0.73427373 1.7864326e-38
0.29681632 0.18709737 0.74123746 1.9155424e-38
0.32643062 0.1953989 0.7526769 1.9619279e-38
0.14161953 0.22224356 0.72124463 4.9677502e-39
0.31017932 0.20493738 0.72680891 1.9710032e-38
0.34104878 0.21697295 0.73785013 2.0356849e-38
0.36692458 0.22809584 0.74836928 2.044905e-38
0.11472622 0.27237183 0.7292679 3.7706517e-39
0.12713405 0.25583872 0.7233699 4.507135e-39
0.3555418 0.24773979 0.72425807 2.0637403e-38
0.36400893 0.24847303 0.73159385 2.0820352e-38
0.1003276 0.29979357 0.73637587 5.7049509e-39
0.091669969 0.32671857 0.74328566 7.0871637e-39
0.39824003 -0.01216 0.79800004 3.6846078e-39
0.38874692 0.026219357 0.79411787 1.0771397e-38
0.37939259 0.061681278 0.7900461 9.4835382e-39
0.10310249 0.11139977 0.76753479 1.4915861e-38
0.14338666 0.10630802 0.77070379 1.5376836e-38
0.18037416 0.10723491 0.77376795 1.6390625e-38
0.21087629 0.11292563 0.77903587 1.7311497e-38
0.37737039 0.098719358 0.78886676 6.0766243e-39
0.073725179 0.12191021 0.76000011 1.4824746e-38
0.081082858 0.12052857 0.76700002 1.4731837e-38
0.19832382 0.12087619 0.76000005 1.8417131e-38
0.22599772 0.12893008 0.76884753 1.8232733e-38
0.26066735 0.14669114 0.77489638 1.712747e-38
0.29481062 0.15509507 0.7892794 1.648318e-38
0.32148001 0.15884002 0.79800004 1.6667935e-38
0.38598767 0.1282502 0.793778 6.3524895e-39
0.27903333 0.16017239 0.76100004 1.777392e-38
0.30495498 0.16982538 0.77187347 1.7958318e-38
0.33750126 0.18243465 0.77923173 1.9711477e-38
0.37241375 0.19598503 0.79330224 1.961964e-38
0.3535282 0.20374137 0.76308501 2.0354332e-38
0.37914181 0.21026011 0.77735424 1.9802599e-38
0.4000181 0.20418383 0.79700005 1.9986989e-38
0.078371055 0.31495529 0.77340007 7.181153e-39
0.084512256 0.31036288 0.7663151 6.9956841e-39
0.078012198 0.33512267 0.78025532 7.3651841e-39
0.08248017 0.33055222 0.76633346 7.6403346e-39
0.39880902 -0.085344285 0.83749998 3.5931142e-39
0.41014832 -0.085540205 0.83526355 4.0544581e-39
0.3897588 -0.051276311 0.83073747 3.2243289e-39
0.40712756 -0.061630499 0.82723671 4.5129055e-39
0.35910907 -0.0035919049 0.83700007 6.9027878e-39
0.38245371 -0.018162306 0.82111037 6.2620988e-39
0.402675 -0.027349347 0.81016213 8.0112892e-39
0.35358599 0.024869883 0.82809776 9.4831739e-39
0.37392959 0.017153578 0.80959308 1.0403332e-38
0.40060002 0.0038129524 0.80120003 9.2969833e-39
0.34880555 0.061312076 0.82113141 9.3913342e-39
0.36552235 0.053089939 0.80323082 9.6664847e-39
0.21638095 0.10438095 0.80000001 1.3442178e-38
0.3177546 0.1179927 0.83900011 1.1968478e-38
0.34383965 0.10093556 0.82339656 9.3902509e-39
0.36337537 0.10639396 0.80324233 7.1804439e-39
0.26702389 0.13516816 0.82226986 1.4087176e-38
0.30249214 0.13852139 0.82327938 1.3166303e-38
0.33952931 0.13926977 0.82056695 1.2153233e-38
0.37632674 0.14227253 0.81624472 1.0587717e-38
0.40298158 0.14778231 0.80552375 1.1699468e-38
0.34875205 0.16775519 0.80722457 1.915758e-38
0.38077721 0.17874277 0.81637222 1.9527087e-38
0.40701544 0.18761715 0.82519841 1.9158305e-38
0.39671296 0.20102641 0.80171436 1.9525655e-38
0.40240595 0.20188668 0.80420011 1.9711844e-38
-0.043414921 0.36889368 0.83900011 3.2232527e-39
-0.022571951 0.37254584 0.83865732 2.8559065e-39
0.38827512 -0.086010516 0.86615062 3.5927541e-39
0.40224609 -0.085416511 0.85347062 3.3168903e-39
0.35584697 -0.047458529 0.86817926 3.2236114e-39
0.3759082 -0.062458724 0.85539567 3.0402978e-39
0.40338171 -0.075979963 0.84344828 3.0406565e-39
0.34654251 -0.016800893 0.86292249 9.0207552e-39
0.36519963 -0.028272439 0.84728378 3.684584e-39
0.339636 0.017798953 0.85720414 1.1230568e-38
0.31828186 0.077571608 0.87118751 1.1785538e-38
0.33028781 0.059731286 0.85711765 1.1600785e-38
0.23639143 0.11255435 0.86615795 1.3349985e-38
0.2575095 0.11407465 0.86668402 1.3075195e-38
0.30635306 0.10520224 0.86102259 1.2245067e-38
0.32514518 0.092142142 0.846726 1.1968122e-38
0.23811543 0.12077371 0.85799998 1.5281402e-38
0.26226899 0.12442184 0.84905022 1.3167024e-38
0.29410842 0.12359959 0.84750026 1.2706047e-38
0.42254081 0.1806411 0.85782194 1.8328182e-38
-0.0068761907 0.35942668 0.85000002 2.8533926e-39
0.024286905 0.35865834 0.8637501 3.2200087e-39
-0.043771531 0.37238228 0.8431378 3.2243317e-39
-0.018067716 0.36858383 0.84700519 2.7629906e-39
0.020008203 0.37098435 0.85811538 1.7495562e-39
0.045571391 0.3848266 0.87471157 2.2098168e-39
0.38123724 -0.091619082 0.88658869 3.5923982e-39
0.40225801 -0.10204059 0.88362503 3.5902654e-39
0.35204405 -0.054492436 0.89607793 3.959736e-39
0.3650884 -0.075224139 0.89813346 4.6054543e-39
0.33853343 -0.024353392 0.89387339 4.6040236e-39
0.31976667 0.018961906 0.90500003 2.3899131e-39
0.32704711 0.021901559 0.89539349 7.2758835e-39
0.31670931 0.073122069 0.89302945 1.0406566e-38
0.32273364 0.053138554 0.88900018 9.7633593e-39
0.27270961 0.10955264 0.885795 1.2890085e-38
0.29908228 0.097104512 0.88916522 1.2153956e-38
0.064049721 0.38487697 0.89824837 3.1324948e-39
0.082789674 0.38689348 0.91642857 3.500906e-39
0.074240007 0.40021333 0.89600003 2.4881988e-39
0.36303493 -0.075060323 0.92000002 1.2796816e-38
0.32681906 0.038552381 0.92000002 4.7787066e-39
0.07798095 0.38070476 0.92000002 3.9629659e-39
0.082069844 0.38231111 0.92000002 3.0424432e-39
0.24291626 0.27868897 0.63279724 1.307772e-38
0.021215566 0.15460847 0.66763085 1.4546004e-38
0.15639134 0.27580866 0.67498398 9.2044178e-39
-0.16034324 0.17152113 0.52311671 1.1237417e-38
-0.1807321 0.18954557 0.53974092 9.3953054e-39
-0.17015556 0.21290211 0.56146747 1.1238865e-38
0.022606146 0.20377497 0.62500131 1.1787347e-38
0.0056238351 0.19730142 0.60275525 8.5608602e-39
0.3781305 -0.0012397319 0.81912994 8.7470522e-39
-0.046029929 0.14362395 0.8351863 1.2988773e-38
