# .PCD v0.7 - Point Cloud Data file format
VERSION 0.7
FIELDS x y z rgb
SIZE 4 4 4 4
TYPE F F F F
COUNT 1 1 1 1
WIDTH 1021
HEIGHT 1
VIEWPOINT 0 0 0 1 0 0 0
POINTS 1021
DATA ascii
0.67177743 -0.71664655 2.0591116 2.3369359e-38
0.70153129 -0.71419954 2.0604193 2.3369359e-38
0.73598629 -0.71457297 2.0629196 2.3369359e-38
0.78786236 -0.71466005 2.0685883 2.3369359e-38
0.81859797 -0.70359242 2.0613172 2.3369359e-38
0.85679251 -0.69493848 2.0589368 2.3369359e-38
0.9012183 -0.68649554 2.0654745 2.3369359e-38
0.93458718 -0.68667424 2.0606449 2.3369359e-38
0.96986407 -0.68402946 2.0643849 2.3369359e-38
1.0663487 -0.69358867 2.0691345 2.3369359e-38
1.0814973 -0.69200003 2.0760002 2.3369359e-38
-0.7668786 -0.66491479 2.0510001 2.3369359e-38
-0.73600006 -0.66361892 2.0549603 2.3369359e-38
-0.70588285 -0.65425992 2.0712609 2.3369359e-38
0.91412026 -0.67461169 2.0697503 2.3369359e-38
0.93773234 -0.67405862 2.0683258 2.3369359e-38
0.98509616 -0.6676203 2.0679247 2.3369359e-38
1.0157474 -0.6622991 2.0653081 2.3369359e-38
1.0613301 -0.67226744 2.073101 2.3369359e-38
1.0814973 -0.67222863 2.0760002 2.3369359e-38
-0.72378522 -0.62371445 2.0510006 2.3369359e-38
-0.69907659 -0.6209386 2.0565658 2.3369359e-38
-0.67502993 -0.61286324 2.0710478 2.3369359e-38
-0.6904285 -0.58197111 2.0525434 2.3369359e-38
-0.66848069 -0.57900566 2.0697305 2.3369359e-38
-0.68508738 -0.54000789 2.0509999 2.3369359e-38
-0.66116321 -0.5406298 2.0596352 2.3369359e-38
-0.63143265 -0.53495479 2.0702374 2.3369359e-38
1.0747185 -0.52733231 2.0760002 2.3369359e-38
-0.68483871 -0.51607066 2.0510004 2.3369359e-38
-0.65402704 -0.50506407 2.0509999 2.3369359e-38
-0.62359077 -0.49788851 2.059478 2.3369359e-38
-0.58647925 -0.4863039 2.0760002 2.3369359e-38
-0.55755436 -0.48044574 2.0760002 2.3369359e-38
1.0714594 -0.49960876 2.0760009 2.3369359e-38
-0.64264673 -0.47075334 2.0510001 2.3369359e-38
-0.61307156 -0.46320292 2.0551579 2.3369359e-38
-0.58134931 -0.45931989 2.0734866 2.3369359e-38
-0.5451135 -0.4534958 2.0760021 2.3369359e-38
1.063373 -0.45818982 2.0705502 2.3369359e-38
-0.60748667 -0.43726766 2.0510004 2.3369359e-38
-0.58000892 -0.4221999 2.0538151 2.3369359e-38
-0.54145831 -0.41899836 2.0673723 2.3369359e-38
-0.5199886 -0.40333718 2.0760002 2.3369359e-38
1.0380001 -0.40729147 2.0760002 2.3369359e-38
1.0570016 -0.4181354 2.0653815 2.3369359e-38
-0.58735228 -0.38961488 2.0510006 2.3369359e-38
-0.53006536 -0.38561499 2.0584791 2.3369359e-38
-0.50254095 -0.37654638 2.0736651 2.3369359e-38
1.0319326 -0.37648979 2.0730009 2.3369359e-38
1.0527858 -0.38376814 2.0640826 2.3369359e-38
-0.49540848 -0.34214807 2.0625741 2.3369359e-38
-0.47122505 -0.33395326 2.0748534 2.3369359e-38
1.0340139 -0.34173128 2.0699229 2.3369359e-38
1.0481426 -0.33904159 2.0578148 2.3369359e-38
-0.49068496 -0.30970332 2.0537996 2.3369359e-38
-0.46074376 -0.30193904 2.0631986 2.3369359e-38
-0.43950003 -0.28714001 2.0510001 2.3369359e-38
1.0319351 -0.29884547 2.0699575 2.3369359e-38
1.0435804 -0.31036597 2.0600004 2.3369359e-38
-0.44968536 -0.26914141 2.0509996 2.3369359e-38
-0.43477088 -0.26287755 2.0510001 2.3369359e-38
1.0231403 -0.25991142 2.066365 2.3369359e-38
1.0223807 -0.23666401 2.0760002 2.3369359e-38
-0.010816135 0.271799 2.0760002 2.3369359e-38
-0.041801337 0.30823603 2.0510004 2.3369359e-38
-0.018221192 0.30280262 2.0645881 2.3369359e-38
0.0037071428 0.30472717 2.0760002 2.3369359e-38
-0.045708001 0.336364 2.0510004 2.3369359e-38
-0.012951563 0.33343542 2.0518897 2.3369359e-38
0.017868657 0.34275377 2.062088 2.3369359e-38
0.042649798 0.35164902 2.0760002 2.3369359e-38
-0.0019533334 0.36332002 2.0510001 2.3369359e-38
0.022723982 0.37853613 2.056793 2.3369359e-38
0.050761431 0.38395759 2.0738351 2.3369359e-38
0.029559297 0.40792635 2.0562172 2.3369359e-38
0.045866124 0.40593284 2.0640833 2.3369359e-38
-0.60775888 0.24594781 1.7558696 2.3369359e-38
-0.72663385 -0.44525442 1.9765589 2.3369359e-38
-0.76049209 -0.72309071 2.0469313 2.3369359e-38
-0.69338822 -0.73231894 2.0767078 2.3369359e-38
-0.63706791 -0.68018425 2.0652368 2.3369359e-38
-0.59716952 -0.68831098 2.0693572 2.3369359e-38
-0.5746507 -0.7880128 2.0921574 2.3369359e-38
-0.54059732 -0.80622089 2.0992155 2.3369359e-38
-0.50061858 -0.81058198 2.0994699 2.3369359e-38
-0.46135044 -0.80875635 2.0973759 2.3369359e-38
-0.45721063 -0.8006689 2.0858097 2.3369359e-38
-0.38184634 -0.80237752 2.0962732 2.3369359e-38
-0.32934067 -0.80237383 2.0975332 2.3369359e-38
-0.31716716 -0.80188811 2.0945001 2.3369359e-38
-0.26838714 -0.80164129 2.0912502 2.3369359e-38
-0.80139434 -0.78150862 2.0880001 2.3369359e-38
-0.78061056 -0.78548568 2.0880003 2.3369359e-38
-0.73947346 -0.78043997 2.094949 2.3369359e-38
-0.71190774 -0.78164387 2.1086028 2.3369359e-38
-0.60601336 -0.7992934 2.1140001 2.3369359e-38
-0.57976568 -0.79590046 2.1108479 2.3369359e-38
-0.54200453 -0.79599017 2.1133807 2.3369359e-38
-0.49528003 -0.7992934 2.1140001 2.3369359e-38
-0.45083222 -0.79911071 2.1114001 2.3369359e-38
-0.4124606 -0.79040122 2.1094778 2.3369359e-38
-0.38179797 -0.79402596 2.1100428 2.3369359e-38
-0.34065062 -0.7935524 2.1087534 2.3369359e-38
-0.29927441 -0.79267198 2.1052613 2.3369359e-38
-0.2582157 -0.78745806 2.1045296 2.3369359e-38
-0.22197375 -0.77954394 2.1024435 2.3369359e-38
-0.17937908 -0.77974921 2.1027875 2.3369359e-38
-0.14037165 -0.77410758 2.1002765 2.3369359e-38
-0.099589042 -0.77649736 2.1014628 2.3369359e-38
-0.06158869 -0.76878822 2.0951958 2.3369359e-38
-0.019759158 -0.76902294 2.092406 2.3369359e-38
0.018282147 -0.76708466 2.0948815 2.3369359e-38
0.061699402 -0.76644742 2.093318 2.3369359e-38
0.092934377 -0.76757938 2.0950911 2.3369359e-38
0.25141227 -0.76275927 2.0880003 2.3369359e-38
-0.76162291 -0.75366861 2.0880001 2.3369359e-38
-0.73478448 -0.74155498 2.0895381 2.3369359e-38
-0.70315784 -0.73884815 2.1031654 2.3369359e-38
-0.24562666 -0.75902671 2.1140001 2.3369359e-38
-0.23287556 -0.75902671 2.1140001 2.3369359e-38
-0.17228383 -0.7564382 2.1140003 2.3369359e-38
-0.1479208 -0.75618434 2.1140001 2.3369359e-38
-0.082546666 -0.75902671 2.1140001 2.3369359e-38
-0.05618456 -0.75380373 2.1086662 2.3369359e-38
-0.021645471 -0.75419778 2.1089768 2.3369359e-38
0.0162655 -0.7575348 2.1098638 2.3369359e-38
0.061627615 -0.75351179 2.1071901 2.3369359e-38
0.10371051 -0.75099099 2.1040716 2.3369359e-38
0.13933846 -0.74999434 2.1005986 2.3369359e-38
0.18071356 -0.74310946 2.0982623 2.3369359e-38
0.21963392 -0.74700999 2.0978942 2.3369359e-38
0.26051879 -0.7455523 2.0960464 2.3369359e-38
0.29958957 -0.73742926 2.1035316 2.3369359e-38
0.33919281 -0.7378692 2.1035719 2.3369359e-38
0.37939569 -0.73841465 2.1053805 2.3369359e-38
0.4185501 -0.7309224 2.1019278 2.3369359e-38
0.4589203 -0.7304455 2.1009994 2.3369359e-38
0.5002923 -0.72804564 2.0990493 2.3369359e-38
0.53978753 -0.7282418 2.0988331 2.3369359e-38
0.57900149 -0.72757626 2.0976901 2.3369359e-38
0.61036605 -0.7258693 2.0953124 2.3369359e-38
0.65963781 -0.72287405 2.0902941 2.3369359e-38
0.71588576 -0.72185147 2.0880001 2.3369359e-38
0.7397486 -0.72185147 2.0880001 2.3369359e-38
0.77809966 -0.72241962 2.0880003 2.3369359e-38
-0.72538662 -0.70815247 2.0880001 2.3369359e-38
-0.70077085 -0.70089233 2.0986903 2.3369359e-38
-0.66724074 -0.69329315 2.1094778 2.3369359e-38
0.34266934 -0.71795475 2.1140001 2.3369359e-38
0.41794431 -0.71710199 2.1140001 2.3369359e-38
0.46638724 -0.71492314 2.1114004 2.3369359e-38
0.50130588 -0.71414316 2.1122661 2.3369359e-38
0.5401026 -0.71313894 2.1116881 2.3369359e-38
0.58556014 -0.71384007 2.1097834 2.3369359e-38
0.61941129 -0.71151346 2.102762 2.3369359e-38
0.6622166 -0.71043831 2.1053934 2.3369359e-38
0.69920361 -0.70342404 2.0987856 2.3369359e-38
0.74035138 -0.70457125 2.0979989 2.3369359e-38
0.7794199 -0.702739 2.0953207 2.3369359e-38
0.81798238 -0.69670141 2.0959184 2.3369359e-38
0.85861832 -0.69047713 2.0909994 2.3369359e-38
0.89464617 -0.68313563 2.0912502 2.3369359e-38
0.9207086 -0.68208003 2.0880001 2.3369359e-38
-0.72781718 -0.67810285 2.0880001 2.3369359e-38
-0.69290566 -0.66523468 2.0888474 2.3369359e-38
-0.66094917 -0.65936309 2.1007464 2.3369359e-38
-0.63554221 -0.64762223 2.1140001 2.3369359e-38
0.83433545 -0.67510158 2.0972857 2.3369359e-38
0.86109143 -0.67124641 2.1004796 2.3369359e-38
0.9027884 -0.66995692 2.1018803 2.3369359e-38
0.9408946 -0.66179949 2.0978322 2.3369359e-38
0.97906691 -0.65733933 2.0962267 2.3369359e-38
1.0193319 -0.64746761 2.1033635 2.3369359e-38
1.0597564 -0.65809685 2.1023571 2.3369359e-38
1.0904523 -0.65476376 2.1098633 2.3369359e-38
-0.68208003 -0.63833147 2.0880001 2.3369359e-38
-0.65863979 -0.6226939 2.0956292 2.3369359e-38
-0.63000107 -0.61798102 2.1073771 2.3369359e-38
0.98854667 -0.63822669 2.1140001 2.3369359e-38
1.0308267 -0.63822669 2.1140001 2.3369359e-38
1.0731066 -0.60702002 2.1140001 2.3369359e-38
1.0877236 -0.61754638 2.1065361 2.3369359e-38
-0.65089917 -0.58462864 2.0885193 2.3369359e-38
-0.62179011 -0.57899767 2.0992565 2.3369359e-38
-0.58625937 -0.57156712 2.1076665 2.3369359e-38
1.0755842 -0.56928068 2.1096668 2.3369359e-38
1.0887681 -0.58081746 2.108428 2.3369359e-38
-0.64628571 -0.5587886 2.0880001 2.3369359e-38
-0.61474419 -0.5408029 2.0924418 2.3369359e-38
-0.58031929 -0.54054427 2.099699 2.3369359e-38
-0.54077601 -0.52451897 2.1109045 2.3369359e-38
1.0696136 -0.53322858 2.1035361 2.3369359e-38
1.08539 -0.54894233 2.0966668 2.3369359e-38
-0.60958755 -0.51033974 2.0880003 2.3369359e-38
-0.57805723 -0.50473183 2.0887015 2.3369359e-38
-0.54134107 -0.50031316 2.092854 2.3369359e-38
1.0330415 -0.50353473 2.1139998 2.3369359e-38
1.0569464 -0.50099277 2.103574 2.3369359e-38
1.0837715 -0.49515426 2.0880001 2.3369359e-38
-0.59458286 -0.4673143 2.0880001 2.3369359e-38
-0.54199624 -0.47276458 2.0880005 2.3369359e-38
1.028551 -0.45144024 2.111999 2.3369359e-38
1.0507416 -0.46087915 2.099534 2.3369359e-38
-0.52418751 -0.42515659 2.0880001 2.3369359e-38
-0.50976336 -0.41141695 2.0888128 2.3369359e-38
1.0312732 -0.42079756 2.1026537 2.3369359e-38
1.0457394 -0.42423168 2.0901668 2.3369359e-38
-0.49375057 -0.3926844 2.0879998 2.3369359e-38
1.02437 -0.37969643 2.1026466 2.3369359e-38
1.0400229 -0.39771432 2.0880001 2.3369359e-38
-0.46532571 -0.33606857 2.0880001 2.3369359e-38
1.0220517 -0.33886784 2.1036263 2.3369359e-38
1.0179774 -0.30263445 2.0980153 2.3369359e-38
0.99647433 -0.26012382 2.1010001 2.3369359e-38
1.0080137 -0.26256177 2.1014807 2.3369359e-38
1.0114247 -0.23131563 2.1096668 2.3369359e-38
-0.0019885714 0.23663999 2.0880001 2.3369359e-38
0.010916259 0.23512688 2.1075001 2.3369359e-38
-0.0039771427 0.25917715 2.0879998 2.3369359e-38
0.01777385 0.26214048 2.1023593 2.3369359e-38
0.048096299 0.2726948 2.1139998 2.3369359e-38
-0.023294697 0.28692245 2.0879998 2.3369359e-38
0.022478607 0.29847661 2.094723 2.3369359e-38
0.04860425 0.30074152 2.1111455 2.3369359e-38
0.028237717 0.3260462 2.0880003 2.3369359e-38
0.059235573 0.34089056 2.0989988 2.3369359e-38
0.093894549 0.35233334 2.1140003 2.3369359e-38
0.12684 0.35233337 2.1140003 2.3369359e-38
0.067409039 0.37113932 2.0935249 2.3369359e-38
0.088490523 0.37037933 2.1060557 2.3369359e-38
-0.69222128 -0.80963862 2.1362853 2.3369359e-38
-0.66135341 -0.81058514 2.138555 2.3369359e-38
-0.62537444 -0.80629158 2.1365118 2.3369359e-38
-0.56922573 -0.80015719 2.1270001 2.3369359e-38
-0.52408135 -0.80305111 2.1270001 2.3369359e-38
-0.49779266 -0.80292934 2.1270001 2.3369359e-38
-0.46157351 -0.80160415 2.1270006 2.3369359e-38
-0.43471828 -0.80177778 2.1270001 2.3369359e-38
-0.69538945 -0.78204429 2.1369045 2.3369359e-38
-0.66007996 -0.77852058 2.1471016 2.3369359e-38
-0.6200366 -0.78345102 2.1483698 2.3369359e-38
-0.57937342 -0.78205591 2.1380737 2.3369359e-38
-0.54015559 -0.7849074 2.137013 2.3369359e-38
-0.49921197 -0.78780746 2.1407025 2.3369359e-38
-0.4601891 -0.78719538 2.1419997 2.3369359e-38
-0.42056343 -0.77604592 2.1403511 2.3369359e-38
-0.37985045 -0.77694917 2.1379774 2.3369359e-38
-0.34107861 -0.77499312 2.1380346 2.3369359e-38
-0.3005352 -0.77657378 2.138555 2.3369359e-38
-0.26429656 -0.77331638 2.1368909 2.3369359e-38
-0.21713926 -0.7635569 2.1390927 2.3369359e-38
-0.19485484 -0.76286417 2.1344287 2.3369359e-38
-0.1279889 -0.76138866 2.1443334 2.3369359e-38
-0.10320706 -0.7640298 2.1393654 2.3369359e-38
-0.078287944 -0.76038194 2.1443336 2.3369359e-38
-0.68575245 -0.74392265 2.1287928 2.3369359e-38
-0.66081154 -0.74081713 2.1451998 2.3369359e-38
-0.62660134 -0.73238164 2.1530001 2.3369359e-38
-0.35268193 -0.75662571 2.1530001 2.3369359e-38
-0.24710891 -0.75524753 2.1443334 2.3369359e-38
-0.2197154 -0.75436324 2.1498799 2.3369359e-38
-0.18011607 -0.75251073 2.1441598 2.3369359e-38
-0.14013863 -0.75243521 2.1462171 2.3369359e-38
-0.10126 -0.75091892 2.1504633 2.3369359e-38
-0.059576776 -0.74106145 2.1432076 2.3369359e-38
-0.019611932 -0.73824644 2.1430104 2.3369359e-38
0.020835698 -0.74133629 2.1414952 2.3369359e-38
0.060976438 -0.73891145 2.1436944 2.3369359e-38
0.099571578 -0.73793495 2.1387701 2.3369359e-38
0.13928635 -0.73246711 2.1357789 2.3369359e-38
0.17834105 -0.73185515 2.1336026 2.3369359e-38
0.22084153 -0.73203123 2.1351709 2.3369359e-38
0.25794935 -0.73117107 2.1348846 2.3369359e-38
0.29867309 -0.7261588 2.1281819 2.3369359e-38
0.33694384 -0.72453046 2.1270001 2.3369359e-38
0.37880862 -0.72531229 2.1270001 2.3369359e-38
0.45353493 -0.72498059 2.1270001 2.3369359e-38
-0.68266571 -0.71912861 2.1270001 2.3369359e-38
-0.65361828 -0.70474905 2.1295993 2.3369359e-38
-0.62096876 -0.70062989 2.1468897 2.3369359e-38
-0.58985364 -0.69254845 2.1530001 2.3369359e-38
-0.0041009528 -0.7197172 2.1530001 2.3369359e-38
0.022928052 -0.71897155 2.1530001 2.3369359e-38
0.056729846 -0.7197172 2.1530004 2.3369359e-38
0.14204425 -0.71748829 2.152 2.3369359e-38
0.17993896 -0.71672952 2.1484118 2.3369359e-38
0.2158571 -0.71895891 2.1493888 2.3369359e-38
0.26124558 -0.71401513 2.1476095 2.3369359e-38
0.30121937 -0.71296239 2.1399999 2.3369359e-38
0.33923367 -0.7108404 2.135524 2.3369359e-38
0.38133931 -0.71284008 2.1426404 2.3369359e-38
0.42169872 -0.71095067 2.1384032 2.3369359e-38
0.45832133 -0.70655322 2.1367495 2.3369359e-38
0.50023955 -0.70452058 2.1456873 2.3369359e-38
0.54015917 -0.70042092 2.1411996 2.3369359e-38
0.57821047 -0.69956142 2.1417975 2.3369359e-38
0.61791629 -0.69953334 2.1425159 2.3369359e-38
0.65799659 -0.69410974 2.1351845 2.3369359e-38
0.69937706 -0.68838108 2.1381423 2.3369359e-38
0.73965883 -0.69077057 2.1349316 2.3369359e-38
0.7803027 -0.68992823 2.1426895 2.3369359e-38
0.81539261 -0.6865831 2.1378329 2.3369359e-38
-0.643309 -0.67166907 2.1270001 2.3369359e-38
-0.61926955 -0.6614396 2.1369483 2.3369359e-38
-0.58179575 -0.65847617 2.1456587 2.3369359e-38
-0.55978006 -0.65328181 2.1530001 2.3369359e-38
0.5577296 -0.67870766 2.1530001 2.3369359e-38
0.57823431 -0.67870766 2.1530001 2.3369359e-38
0.66826153 -0.67380965 2.1496451 2.3369359e-38
0.70101166 -0.67566675 2.1510739 2.3369359e-38
0.73342431 -0.67323881 2.1486666 2.3369359e-38
0.78054792 -0.67688489 2.1530001 2.3369359e-38
0.82427782 -0.67065036 2.1426823 2.3369359e-38
0.85772508 -0.66151279 2.1357307 2.3369359e-38
0.89970863 -0.66055912 2.1393602 2.3369359e-38
0.93879336 -0.65196162 2.1340904 2.3369359e-38
0.97581935 -0.64625973 2.1329088 2.3369359e-38
1.0152963 -0.64383566 2.1343126 2.3369359e-38
1.0652995 -0.6456033 2.1288569 2.3369359e-38
1.0857829 -0.6441772 2.1270001 2.3369359e-38
-0.61356962 -0.62290686 2.1332586 2.3369359e-38
-0.57931519 -0.61959821 2.1362293 2.3369359e-38
-0.5514459 -0.61163729 2.1530001 2.3369359e-38
0.98350579 -0.63322628 2.1436737 2.3369359e-38
1.0182022 -0.63184106 2.1413538 2.3369359e-38
1.0632607 -0.62060201 2.1352034 2.3369359e-38
1.0851078 -0.62425762 2.1270003 2.3369359e-38
-0.60811943 -0.59677547 2.1270001 2.3369359e-38
-0.57331508 -0.58416349 2.1288276 2.3369359e-38
-0.54112548 -0.57768756 2.1438234 2.3369359e-38
-0.51635736 -0.56855369 2.1486666 2.3369359e-38
1.037472 -0.56730473 2.1465001 2.3369359e-38
1.0621295 -0.5795902 2.1357448 2.3369359e-38
1.0844147 -0.57524073 2.1283004 2.3369359e-38
-0.56517434 -0.54554051 2.1270003 2.3369359e-38
-0.53865725 -0.54423934 2.129935 2.3369359e-38
-0.50250602 -0.53819984 2.1418331 2.3369359e-38
-0.47776097 -0.52697241 2.1530004 2.3369359e-38
1.0344765 -0.53616923 2.1362367 2.3369359e-38
1.0569143 -0.54432642 2.1287563 2.3369359e-38
1.0837572 -0.55707145 2.1270001 2.3369359e-38
-0.49229681 -0.5173192 2.1448753 2.3369359e-38
-0.45725623 -0.49006388 2.1530001 2.3369359e-38
1.0294995 -0.49561226 2.1353393 2.3369359e-38
1.0486448 -0.48279524 2.1270001 2.3369359e-38
-0.4490543 -0.47776097 2.1530001 2.3369359e-38
1.0205976 -0.46240398 2.1360333 2.3369359e-38
1.0432429 -0.46388859 2.1270001 2.3369359e-38
1.0177128 -0.42008907 2.1312203 2.3369359e-38
1.0142529 -0.38125685 2.1305449 2.3369359e-38
0.99550623 -0.32653835 2.1530001 2.3369359e-38
1.0088534 -0.34088495 2.1402318 2.3369359e-38
0.98932886 -0.29987043 2.1474998 2.3369359e-38
1.0110183 -0.29879892 2.1334054 2.3369359e-38
0.98943216 -0.26043791 2.1440923 2.3369359e-38
1.0066123 -0.25746286 2.1399999 2.3369359e-38
0.99448103 -0.23990574 2.1530004 2.3369359e-38
1.0149539 -0.23653696 2.1374002 2.3369359e-38
0.016008822 0.14635377 2.1514525 2.3369359e-38
-0.004755557 0.18022586 2.1399999 2.3369359e-38
0.019857809 0.18006746 2.1434841 2.3369359e-38
0.051702391 0.1895259 2.1488063 2.3369359e-38
-0.0020504764 0.20504764 2.1530001 2.3369359e-38
0.022110173 0.2181123 2.1364541 2.3369359e-38
0.058599446 0.2222553 2.1451998 2.3369359e-38
0.03407434 0.24997333 2.1320558 2.3369359e-38
0.063058458 0.25867233 2.1415291 2.3369359e-38
0.097003318 0.26482689 2.1530001 2.3369359e-38
0.1209781 0.2706629 2.1530001 2.3369359e-38
0.069719784 0.30088896 2.1364741 2.3369359e-38
0.09944129 0.30179992 2.1493888 2.3369359e-38
0.13251798 0.30742839 2.1530001 2.3369359e-38
0.072636336 0.32642943 2.1270006 2.3369359e-38
0.10130277 0.33978558 2.1365118 2.3369359e-38
0.13362353 0.33586505 2.1479824 2.3369359e-38
0.10055613 0.36853704 2.1279998 2.3369359e-38
-0.61925542 -0.76841187 2.1728334 2.3369359e-38
-0.57776052 -0.76900518 2.176959 2.3369359e-38
-0.53927803 -0.77180344 2.1821921 2.3369359e-38
-0.5007264 -0.77076817 2.1773136 2.3369359e-38
-0.46079648 -0.77064067 2.1786985 2.3369359e-38
-0.42197138 -0.76509255 2.1677001 2.3369359e-38
-0.3828128 -0.76480931 2.1676087 2.3369359e-38
-0.33421573 -0.76494509 2.1670001 2.3369359e-38
-0.29994038 -0.76594841 2.1670003 2.3369359e-38
-0.26949009 -0.76654243 2.1670001 2.3369359e-38
-0.61513478 -0.74505824 2.1716666 2.3369359e-38
-0.57914031 -0.73991424 2.1832476 2.3369359e-38
-0.54579121 -0.74314547 2.1937869 2.3369359e-38
-0.49860024 -0.75551218 2.194 2.3369359e-38
-0.46462688 -0.75513214 2.1918335 2.3369359e-38
-0.42011535 -0.75459522 2.1837916 2.3369359e-38
-0.37823337 -0.75183886 2.1809609 2.3369359e-38
-0.3422147 -0.74821055 2.1823921 2.3369359e-38
-0.29862773 -0.74924988 2.182446 2.3369359e-38
-0.25800475 -0.74715889 2.1796157 2.3369359e-38
-0.21857455 -0.73734921 2.1759338 2.3369359e-38
-0.18078448 -0.73662239 2.1787322 2.3369359e-38
-0.14052902 -0.73979038 2.1765401 2.3369359e-38
-0.097422265 -0.73656261 2.1792359 2.3369359e-38
-0.063654892 -0.72746438 2.1773555 2.3369359e-38
-0.022905556 -0.72209334 2.1699166 2.3369359e-38
0.01920585 -0.72129673 2.171 2.3369359e-38
0.060652543 -0.72347766 2.1822352 2.3369359e-38
0.097933173 -0.72509319 2.1776135 2.3369359e-38
0.13714471 -0.72098142 2.1691539 2.3369359e-38
0.22701906 -0.72026962 2.1670001 2.3369359e-38
0.24146572 -0.72026956 2.1670001 2.3369359e-38
-0.62533426 -0.71614194 2.1670001 2.3369359e-38
-0.57644188 -0.70248818 2.1737745 2.3369359e-38
-0.54336172 -0.69725859 2.1865067 2.3369359e-38
-0.51611239 -0.68536377 2.194 2.3369359e-38
-0.20268381 -0.71670663 2.194 2.3369359e-38
-0.054055523 -0.71418065 2.1914003 2.3369359e-38
-0.019627521 -0.71323299 2.1884792 2.3369359e-38
0.019930068 -0.71411318 2.1864285 2.3369359e-38
0.060048573 -0.71171588 2.1935806 2.3369359e-38
0.10454985 -0.70542246 2.1889355 2.3369359e-38
0.14032309 -0.70214295 2.1828654 2.3369359e-38
0.17951407 -0.70091683 2.1830335 2.3369359e-38
0.2192691 -0.70367831 2.1814895 2.3369359e-38
0.25895047 -0.70030218 2.1832411 2.3369359e-38
0.30108237 -0.69680953 2.1790011 2.3369359e-38
0.34124112 -0.69363278 2.1777287 2.3369359e-38
0.38034672 -0.69513196 2.1787605 2.3369359e-38
0.41984919 -0.69406331 2.1737819 2.3369359e-38
0.46099091 -0.69139749 2.1769266 2.3369359e-38
0.4984493 -0.6884895 2.1677568 2.3369359e-38
0.53754187 -0.6884042 2.1713095 2.3369359e-38
0.5814783 -0.6841529 2.1670001 2.3369359e-38
0.62165993 -0.68756908 2.173275 2.3369359e-38
0.64803147 -0.68779057 2.172389 2.3369359e-38
-0.56892347 -0.67394847 2.1670001 2.3369359e-38
-0.53973514 -0.66024667 2.1807401 2.3369359e-38
-0.50897318 -0.65071267 2.1940002 2.3369359e-38
0.30750829 -0.67735398 2.1940002 2.3369359e-38
0.34384274 -0.67723787 2.194 2.3369359e-38
0.3817859 -0.67730421 2.1940002 2.3369359e-38
0.42216304 -0.67689401 2.1895001 2.3369359e-38
0.46605149 -0.67702407 2.1887002 2.3369359e-38
0.49630687 -0.67268842 2.1789792 2.3369359e-38
0.54444027 -0.67577726 2.1823077 2.3369359e-38
0.58117199 -0.67453516 2.1803024 2.3369359e-38
0.62046313 -0.67409474 2.1862142 2.3369359e-38
0.65947205 -0.67259657 2.1875641 2.3369359e-38
0.70365804 -0.66740382 2.1842501 2.3369359e-38
0.74026555 -0.66567528 2.1893675 2.3369359e-38
0.78034312 -0.66690791 2.185977 2.3369359e-38
0.81933516 -0.65828013 2.182888 2.3369359e-38
0.85750699 -0.64993036 2.1796033 2.3369359e-38
0.8987841 -0.64803618 2.1807115 2.3369359e-38
0.93702275 -0.64703411 2.1769998 2.3369359e-38
0.96497703 -0.64420122 2.171 2.3369359e-38
1.0463514 -0.64184475 2.1670003 2.3369359e-38
-0.53649056 -0.62306112 2.1732309 2.3369359e-38
-0.50169283 -0.61905611 2.1909652 2.3369359e-38
-0.47790393 -0.61282748 2.1940002 2.3369359e-38
0.83372009 -0.63521522 2.1940002 2.3369359e-38
0.8622961 -0.62501407 2.1899846 2.3369359e-38
0.90148461 -0.62758857 2.1928182 2.3369359e-38
0.94517565 -0.62651145 2.1886516 2.3369359e-38
0.97989666 -0.62466162 2.1841795 2.3369359e-38
1.021569 -0.61507452 2.1815321 2.3369359e-38
1.0500089 -0.61809164 2.1706207 2.3369359e-38
-0.52420771 -0.59231341 2.1670001 2.3369359e-38
-0.49931708 -0.58207327 2.1772273 2.3369359e-38
-0.46545261 -0.5762682 2.1893432 2.3369359e-38
-0.43462095 -0.57043999 2.194 2.3369359e-38
1.0346884 -0.58488774 2.1849999 2.3369359e-38
1.0446718 -0.58306718 2.1718276 2.3369359e-38
-0.48783395 -0.54789531 2.1681666 2.3369359e-38
-0.46074438 -0.54000241 2.1816607 2.3369359e-38
-0.42859811 -0.54076952 2.1846843 2.3369359e-38
0.99670279 -0.53491807 2.194 2.3369359e-38
1.0248077 -0.53655261 2.1878181 2.3369359e-38
1.0415938 -0.54829091 2.1726 2.3369359e-38
-0.4846549 -0.51636666 2.1716666 2.3369359e-38
-0.45716992 -0.50478166 2.1746361 2.3369359e-38
-0.43133619 -0.51801616 2.1670001 2.3369359e-38
1.023578 -0.50015152 2.1836476 2.3369359e-38
-0.44811648 -0.47122237 2.1716666 2.3369359e-38
0.99653864 -0.44691283 2.1884286 2.3369359e-38
1.011701 -0.45997092 2.1809719 2.3369359e-38
0.99026638 -0.42517635 2.1875 2.3369359e-38
1.0121297 -0.41810581 2.1830432 2.3369359e-38
0.99479449 -0.37233132 2.1922667 2.3369359e-38
1.011907 -0.38054025 2.182411 2.3369359e-38
0.986772 -0.33614096 2.1831226 2.3369359e-38
1.0060275 -0.35008818 2.1784348 2.3369359e-38
0.97824264 -0.29913759 2.1796813 2.3369359e-38
0.94953364 -0.24622318 2.1850002 2.3369359e-38
0.97623938 -0.26394957 2.1748116 2.3369359e-38
1.017629 -0.24483213 2.174 2.3369359e-38
1.019522 -0.2373381 2.1670001 2.3369359e-38
0.025807347 0.11369865 2.1906431 2.3369359e-38
0.051138349 0.11206447 2.194 2.3369359e-38
0.028970027 0.13508108 2.1752551 2.3369359e-38
0.057660259 0.14334217 2.1892569 2.3369359e-38
0.085148096 0.15201287 2.194 2.3369359e-38
0.039212383 0.16716859 2.1670003 2.3369359e-38
0.064244621 0.17605215 2.1775594 2.3369359e-38
0.094233088 0.18301292 2.19205 2.3369359e-38
0.1232819 0.18596762 2.194 2.3369359e-38
0.0747099 0.20885752 2.1670001 2.3369359e-38
0.099886678 0.22031556 2.1834898 2.3369359e-38
0.13178383 0.22605342 2.1902859 2.3369359e-38
0.10638851 0.2516678 2.1748204 2.3369359e-38
0.14009848 0.2596378 2.1861835 2.3369359e-38
0.16865444 0.26835454 2.194 2.3369359e-38
0.10989786 0.29048121 2.1670001 2.3369359e-38
0.14626153 0.29434684 2.1755805 2.3369359e-38
0.17626901 0.30371273 2.1915345 2.3369359e-38
0.20268381 0.31969714 2.194 2.3369359e-38
0.15440416 0.33370021 2.1706843 2.3369359e-38
0.17851861 0.33101735 2.1873415 2.3369359e-38
0.20268381 0.3238762 2.194 2.3369359e-38
-0.44790861 -0.76333719 2.2080002 2.3369359e-38
-0.53181189 -0.73771405 2.2128112 2.3369359e-38
-0.50228345 -0.74059403 2.225795 2.3369359e-38
-0.46040604 -0.74419022 2.225347 2.3369359e-38
-0.42008716 -0.73708576 2.2232354 2.3369359e-38
-0.38101855 -0.73494041 2.2230875 2.3369359e-38
-0.3381781 -0.7323271 2.2234671 2.3369359e-38
-0.301085 -0.73225892 2.2248125 2.3369359e-38
-0.26309213 -0.7324214 2.220046 2.3369359e-38
-0.22687493 -0.72478485 2.2080002 2.3369359e-38
-0.17763153 -0.72449172 2.2122188 2.3369359e-38
-0.14163853 -0.72728348 2.2101431 2.3369359e-38
-0.10398968 -0.72643548 2.2080002 2.3369359e-38
-0.076403819 -0.722682 2.2080002 2.3369359e-38
-0.52861327 -0.71038771 2.2090003 2.3369359e-38
-0.50100106 -0.69899392 2.2230489 2.3369359e-38
-0.45707846 -0.69508308 2.2369998 2.3369359e-38
-0.43035617 -0.69325686 2.2369998 2.3369359e-38
-0.37453774 -0.71626621 2.237 2.3369359e-38
-0.33887488 -0.71203089 2.2369998 2.3369359e-38
-0.30515936 -0.71521348 2.2369998 2.3369359e-38
-0.25417563 -0.71120197 2.2314 2.3369359e-38
-0.22041692 -0.70763654 2.2246373 2.3369359e-38
-0.18293101 -0.7125203 2.2313957 2.3369359e-38
-0.13683167 -0.71208787 2.2264998 2.3369359e-38
-0.10048093 -0.71135318 2.2237582 2.3369359e-38
-0.060993705 -0.70710433 2.2221816 2.3369359e-38
-0.020116229 -0.70110595 2.2194443 2.3369359e-38
0.020382546 -0.69978172 2.2187312 2.3369359e-38
0.060759313 -0.69685239 2.2208652 2.3369359e-38
0.096343011 -0.6920073 2.2163572 2.3369359e-38
0.14213681 -0.68562013 2.2217999 2.3369359e-38
0.17896678 -0.68555105 2.2201469 2.3369359e-38
0.2241959 -0.68723106 2.2142069 2.3369359e-38
0.26430953 -0.68671185 2.21156 2.3369359e-38
0.28799731 -0.68783379 2.2159333 2.3369359e-38
0.34592003 -0.68342859 2.2080002 2.3369359e-38
0.37921524 -0.68483055 2.2080002 2.3369359e-38
0.46803269 -0.68354541 2.2122858 2.3369359e-38
-0.49694338 -0.66518801 2.2180877 2.3369359e-38
-0.46130481 -0.66063142 2.2346098 2.3369359e-38
-0.42796725 -0.65684903 2.2345436 2.3369359e-38
0.11544218 -0.67566741 2.2282999 2.3369359e-38
0.13773966 -0.67534792 2.235656 2.3369359e-38
0.1853397 -0.67533427 2.2337739 2.3369359e-38
0.21998256 -0.67533249 2.2302389 2.3369359e-38
0.25982618 -0.67311925 2.2271268 2.3369359e-38
0.30109334 -0.66955364 2.2284124 2.3369359e-38
0.34012103 -0.66706645 2.2229478 2.3369359e-38
0.38031414 -0.66477907 2.2236607 2.3369359e-38
0.41899183 -0.66527832 2.2228925 2.3369359e-38
0.46137008 -0.66326249 2.2272179 2.3369359e-38
0.50051033 -0.6564523 2.219228 2.3369359e-38
0.5400973 -0.65994996 2.2202818 2.3369359e-38
0.57910305 -0.65960681 2.2192383 2.3369359e-38
0.62029696 -0.65860653 2.2199476 2.3369359e-38
0.65988201 -0.65777457 2.222692 2.3369359e-38
0.69912231 -0.65164697 2.2171197 2.3369359e-38
0.74083698 -0.6468628 2.2097442 2.3369359e-38
0.77821106 -0.64668959 2.2156599 2.3369359e-38
0.81298256 -0.64578044 2.2130001 2.3369359e-38
0.90633154 -0.64137149 2.2080002 2.3369359e-38
0.92736006 -0.64137149 2.2080002 2.3369359e-38
-0.48407775 -0.63211894 2.2080002 2.3369359e-38
-0.46117312 -0.62154508 2.2225962 2.3369359e-38
-0.42052394 -0.62018085 2.231025 2.3369359e-38
-0.38952208 -0.60754085 2.2369998 2.3369359e-38
0.63302571 -0.63725996 2.223 2.3369359e-38
0.64553428 -0.63701236 2.237 2.3369359e-38
0.7035507 -0.63678974 2.2309284 2.3369359e-38
0.73504364 -0.63568425 2.2259128 2.3369359e-38
0.78185666 -0.63522035 2.2326953 2.3369359e-38
0.81928009 -0.63450813 2.2230291 2.3369359e-38
0.85933524 -0.61897916 2.2226665 2.3369359e-38
0.90196764 -0.61981052 2.2191634 2.3369359e-38
0.93916816 -0.61663979 2.2248833 2.3369359e-38
0.97910762 -0.60748684 2.2211177 2.3369359e-38
1.0116479 -0.60714287 2.2172105 2.3369359e-38
-0.45206654 -0.58870953 2.2086 2.3369359e-38
-0.41969463 -0.58027941 2.2167447 2.3369359e-38
-0.38135758 -0.57745975 2.2337563 2.3369359e-38
-0.35578954 -0.56031525 2.237 2.3369359e-38
0.88627803 -0.59866381 2.237 2.3369359e-38
0.9565838 -0.59866381 2.237 2.3369359e-38
0.97945517 -0.59331572 2.2354734 2.3369359e-38
1.0180612 -0.58182335 2.2212932 2.3369359e-38
1.0426792 -0.57795346 2.2203157 2.3369359e-38
-0.41082469 -0.55402058 2.2155001 2.3369359e-38
-0.3773706 -0.55414259 2.2304666 2.3369359e-38
-0.35578954 -0.55392385 2.237 2.3369359e-38
0.99895322 -0.54849422 2.2162857 2.3369359e-38
1.0123584 -0.54200876 2.2179267 2.3369359e-38
1.0409143 -0.55725718 2.2080002 2.3369359e-38
0.99183339 -0.49872512 2.2369998 2.3369359e-38
1.0110723 -0.50357598 2.2221966 2.3369359e-38
0.9919138 -0.46066093 2.2339046 2.3369359e-38
1.0052357 -0.46763256 2.2270434 2.3369359e-38
0.98278338 -0.41694257 2.2243524 2.3369359e-38
1.0044649 -0.40444955 2.2080002 2.3369359e-38
0.9565838 -0.36005047 2.237 2.3369359e-38
0.98514849 -0.38126022 2.2266562 2.3369359e-38
1.0047454 -0.39407548 2.2080002 2.3369359e-38
0.9532795 -0.33337992 2.2357824 2.3369359e-38
0.97472548 -0.34159118 2.2245369 2.3369359e-38
0.95215845 -0.2998535 2.2323873 2.3369359e-38
0.9676944 -0.30182543 2.2181175 2.3369359e-38
0.94706434 -0.26410058 2.2288532 2.3369359e-38
0.96624994 -0.263071 2.2126155 2.3369359e-38
0.076697141 0.066044763 2.237 2.3369359e-38
0.083088569 0.070305713 2.237 2.3369359e-38
0.025234288 0.10934858 2.2080002 2.3369359e-38
0.065119006 0.10580654 2.2130527 2.3369359e-38
0.098351263 0.10481308 2.233526 2.3369359e-38
0.12659514 0.10865428 2.2369998 2.3369359e-38
0.073900416 0.13187921 2.2080002 2.3369359e-38
0.10095999 0.13838576 2.2170513 2.3369359e-38
0.13481723 0.14419502 2.2359061 2.3369359e-38
0.1101098 0.17578825 2.2106252 2.3369359e-38
0.14141501 0.18064235 2.2203112 2.3369359e-38
0.16993083 0.18920657 2.2369998 2.3369359e-38
0.10864764 0.20818287 2.2080002 2.3369359e-38
0.14738062 0.21523181 2.2166345 2.3369359e-38
0.17696875 0.22251454 2.2302258 2.3369359e-38
0.20239523 0.2322219 2.237 2.3369359e-38
0.15771429 0.24182858 2.2080002 2.3369359e-38
0.18347991 0.25733396 2.2209704 2.3369359e-38
0.20673242 0.26326323 2.2344997 2.3369359e-38
0.19144502 0.29669613 2.2106788 2.3369359e-38
0.2169039 0.30209628 2.2280288 2.3369359e-38
0.24409169 0.30831033 2.2369998 2.3369359e-38
0.20818287 0.32173717 2.2080002 2.3369359e-38
-0.48725089 -0.72863418 2.2520003 2.3369359e-38
-0.46620896 -0.73006713 2.2578704 2.3369359e-38
-0.42466286 -0.72278476 2.2520001 2.3369359e-38
-0.48514515 -0.71506369 2.2520001 2.3369359e-38
-0.46341163 -0.70391124 2.2519994 2.3369359e-38
-0.421058 -0.70485675 2.256454 2.3369359e-38
-0.37733504 -0.70914584 2.2609994 2.3369359e-38
-0.34139082 -0.70225894 2.2597363 2.3369359e-38
-0.29787281 -0.7105462 2.2610216 2.3369359e-38
-0.26029891 -0.70285904 2.2620428 2.3369359e-38
-0.21963957 -0.69434738 2.2603996 2.3369359e-38
-0.17747977 -0.69813895 2.2600675 2.3369359e-38
-0.1411466 -0.69778186 2.2605309 2.3369359e-38
-0.10211044 -0.69651026 2.2622495 2.3369359e-38
-0.059939887 -0.69350135 2.2571571 2.3369359e-38
-0.018854486 -0.69004428 2.2531047 2.3369359e-38
0.019055363 -0.68679202 2.2556124 2.3369359e-38
0.056493342 -0.68662739 2.2526667 2.3369359e-38
0.098258466 -0.6854893 2.2541542 2.3369359e-38
-0.41156077 -0.665497 2.2584872 2.3369359e-38
-0.39060447 -0.65957659 2.2628496 2.3369359e-38
-0.11437905 -0.67980003 2.266 2.3369359e-38
-0.055756386 -0.67707866 2.2652633 2.3369359e-38
-0.021001428 -0.67820382 2.2624998 2.3369359e-38
0.022739667 -0.66859597 2.2657301 2.3369359e-38
0.060398158 -0.67220742 2.2636266 2.3369359e-38
0.10168824 -0.66703463 2.2625568 2.3369359e-38
0.14016229 -0.65710354 2.255352 2.3369359e-38
0.17718382 -0.65963113 2.2561412 2.3369359e-38
0.21957241 -0.66272175 2.2588439 2.3369359e-38
0.26030171 -0.66156816 2.2578328 2.3369359e-38
0.30003366 -0.65446293 2.2582996 2.3369359e-38
0.33870214 -0.65279609 2.2578704 2.3369359e-38
0.38041091 -0.64771134 2.2581761 2.3369359e-38
0.42073411 -0.64922547 2.2585111 2.3369359e-38
0.45872119 -0.64607531 2.2582219 2.3369359e-38
0.49758837 -0.64315379 2.2560833 2.3369359e-38
0.54141587 -0.64287966 2.257133 2.3369359e-38
0.58290684 -0.64576423 2.2549694 2.3369359e-38
0.61888474 -0.64541608 2.2589996 2.3369359e-38
0.66541421 -0.64493316 2.2575998 2.3369359e-38
0.68605244 -0.64632463 2.2613335 2.3369359e-38
0.76353526 -0.64128381 2.2520001 2.3369359e-38
0.84289145 -0.64128381 2.2520001 2.3369359e-38
-0.40192842 -0.62584156 2.2520001 2.3369359e-38
-0.38255575 -0.62058985 2.2597439 2.3369359e-38
0.47478095 -0.6366381 2.266 2.3369359e-38
0.50471312 -0.63196194 2.2647271 2.3369359e-38
0.53710413 -0.63088328 2.2659996 2.3369359e-38
0.57956403 -0.63265651 2.2645514 2.3369359e-38
0.62106228 -0.63269722 2.2659998 2.3369359e-38
0.65543687 -0.63297969 2.2635858 2.3369359e-38
0.70415217 -0.6260199 2.2597771 2.3369359e-38
0.73977566 -0.62667531 2.2600763 2.3369359e-38
0.7786178 -0.62227535 2.2586219 2.3369359e-38
0.82048798 -0.62221235 2.2597537 2.3369359e-38
0.85659003 -0.61723721 2.2570901 2.3369359e-38
0.90410626 -0.60705632 2.2544348 2.3369359e-38
0.93782043 -0.60584873 2.2519999 2.3369359e-38
-0.36495864 -0.58831137 2.2580004 2.3369359e-38
-0.34762737 -0.57571381 2.2615995 2.3369359e-38
0.87720764 -0.59838861 2.2520001 2.3369359e-38
0.90299034 -0.59576637 2.2574446 2.3369359e-38
0.93891162 -0.59069729 2.2540412 2.3369359e-38
0.9821766 -0.58034432 2.2564299 2.3369359e-38
1.0052501 -0.58337516 2.2520001 2.3369359e-38
-0.34600443 -0.5580743 2.2566669 2.3369359e-38
0.99339777 -0.54362857 2.2608416 2.3369359e-38
1.0054551 -0.54103017 2.2536151 2.3369359e-38
0.98490763 -0.49927583 2.2547996 2.3369359e-38
1.0083445 -0.49881041 2.2520006 2.3369359e-38
0.98242003 -0.4612467 2.256355 2.3369359e-38
0.95710135 -0.42042693 2.2540002 2.3369359e-38
0.97017431 -0.42154297 2.2553153 2.3369359e-38
0.95088172 -0.36928254 2.2586668 2.3369359e-38
0.96963608 -0.37828794 2.2554996 2.3369359e-38
0.94932705 -0.34308794 2.2547092 2.3369359e-38
0.96836007 -0.35281336 2.2520001 2.3369359e-38
0.9380734 -0.3003583 2.2557685 2.3369359e-38
0.91650188 -0.26677716 2.2590001 2.3369359e-38
0.93011361 -0.26144877 2.2543328 2.3369359e-38
0.077556401 0.070410162 2.2551112 2.3369359e-38
0.10302615 0.064146966 2.2556515 2.3369359e-38
0.12899095 0.064163588 2.2594113 2.3369359e-38
0.076905034 0.08977361 2.2520001 2.3369359e-38
0.10327854 0.091729827 2.2519999 2.3369359e-38
0.14304505 0.098876186 2.2573662 2.3369359e-38
0.16479729 0.10842231 2.2640004 2.3369359e-38
0.14921415 0.13435404 2.2519999 2.3369359e-38
0.17333123 0.14426644 2.2609355 2.3369359e-38
0.18498757 0.17771234 2.2532916 2.3369359e-38
0.20747785 0.1831684 2.2628181 2.3369359e-38
0.195678 0.21384537 2.2520003 2.3369359e-38
0.21852905 0.22485225 2.2605958 2.3369359e-38
0.22631192 0.25863773 2.2527235 2.3369359e-38
0.25075525 0.26404557 2.2635996 2.3369359e-38
0.23163427 0.28739813 2.2520003 2.3369359e-38
0.25971407 0.29768494 2.2548959 2.3369359e-38
0.28271049 0.30644953 2.266 2.3369359e-38
-0.40699089 -0.70205683 2.2809997 2.3369359e-38
-0.38139951 -0.69535363 2.2821841 2.3369359e-38
-0.33837476 -0.68982381 2.2901418 2.3369359e-38
-0.29981455 -0.69195801 2.2893653 2.3369359e-38
-0.26689878 -0.69043994 2.2909503 2.3369359e-38
-0.21889427 -0.68780738 2.2857406 2.3369359e-38
-0.18242741 -0.68434274 2.2882254 2.3369359e-38
-0.14395787 -0.68322515 2.2915184 2.3369359e-38
-0.091453925 -0.68432307 2.2905359 2.3369359e-38
-0.076346673 -0.68533456 2.2904003 2.3369359e-38
-0.030626668 -0.68034959 2.2970002 2.3369359e-38
-0.37228942 -0.66045743 2.2837579 2.3369359e-38
-0.33916378 -0.65817428 2.2940357 2.3369359e-38
-0.30864516 -0.66094726 2.3056986 2.3369359e-38
-0.25283197 -0.6743716 2.2951334 2.3369359e-38
-0.21984933 -0.67322481 2.2953606 2.3369359e-38
-0.18053594 -0.67574644 2.3008852 2.3369359e-38
-0.13706592 -0.67640954 2.2973044 2.3369359e-38
-0.10652622 -0.67560571 2.292793 2.3369359e-38
-0.057209074 -0.66528052 2.3012819 2.3369359e-38
-0.019794354 -0.66148156 2.3017712 2.3369359e-38
0.01740774 -0.65178001 2.2973216 2.3369359e-38
0.059631862 -0.65383673 2.3025739 2.3369359e-38
0.098086037 -0.65300757 2.2994189 2.3369359e-38
0.14054988 -0.64309919 2.2970808 2.3369359e-38
0.18304968 -0.64561182 2.2934048 2.3369359e-38
0.22074057 -0.64837098 2.2956994 2.3369359e-38
0.25933605 -0.65011263 2.2911625 2.3369359e-38
0.29812929 -0.64618069 2.2885785 2.3369359e-38
0.34153274 -0.64535886 2.2831326 2.3369359e-38
0.37561586 -0.64344966 2.2846363 2.3369359e-38
0.42261165 -0.64218926 2.2810001 2.3369359e-38
0.45502719 -0.64318424 2.284765 2.3369359e-38
0.49530292 -0.64085239 2.2810001 2.3369359e-38
0.68864477 -0.64085239 2.2810001 2.3369359e-38
-0.36690372 -0.62530273 2.2809999 2.3369359e-38
-0.34017465 -0.61933804 2.2855179 2.3369359e-38
-0.30356589 -0.6168682 2.302768 2.3369359e-38
-0.26778549 -0.60721749 2.3120003 2.3369359e-38
0.058350477 -0.63635051 2.312 2.3369359e-38
0.14354323 -0.63089824 2.312 2.3369359e-38
0.17796241 -0.63385737 2.3091156 2.3369359e-38
0.2213833 -0.63381392 2.3112106 2.3369359e-38
0.26085529 -0.63280976 2.3088412 2.3369359e-38
0.30315682 -0.6285975 2.3032846 2.3369359e-38
0.33953181 -0.62324321 2.2992613 2.3369359e-38
0.37939656 -0.62441015 2.2984314 2.3369359e-38
0.4187144 -0.62778759 2.2966912 2.3369359e-38
0.46178231 -0.62581712 2.2977047 2.3369359e-38
0.49918824 -0.62210947 2.2940905 2.3369359e-38
0.5393073 -0.61638069 2.2942777 2.3369359e-38
0.57879221 -0.61642742 2.295898 2.3369359e-38
0.61792201 -0.6159274 2.2896831 2.3369359e-38
0.66083467 -0.61684585 2.2945843 2.3369359e-38
0.69583064 -0.61304402 2.2895679 2.3369359e-38
0.74243337 -0.60949171 2.2950866 2.3369359e-38
0.77860826 -0.60624564 2.294487 2.3369359e-38
0.81987011 -0.60565352 2.2891018 2.3369359e-38
0.85843772 -0.60583228 2.2973711 2.3369359e-38
0.89038122 -0.60423446 2.3011432 2.3369359e-38
-0.33237433 -0.5832842 2.2809989 2.3369359e-38
-0.30067429 -0.579355 2.2886529 2.3369359e-38
-0.26258287 -0.57725811 2.3006349 2.3369359e-38
-0.2309943 -0.56774873 2.3100002 2.3369359e-38
0.66426289 -0.5970521 2.302 2.3369359e-38
0.69899154 -0.59321046 2.2973104 2.3369359e-38
0.74528682 -0.59370315 2.312 2.3369359e-38
0.7832095 -0.59453547 2.3070004 2.3369359e-38
0.8122822 -0.59473169 2.3043752 2.3369359e-38
0.85977042 -0.594661 2.312 2.3369359e-38
0.90339786 -0.58241588 2.3015561 2.3369359e-38
0.93640524 -0.57658195 2.2998085 2.3369359e-38
0.97171485 -0.57369184 2.2962701 2.3369359e-38
-0.25346684 -0.54654878 2.291105 2.3369359e-38
-0.22815873 -0.54068029 2.2956579 2.3369359e-38
0.90498292 -0.55708194 2.312 2.3369359e-38
0.94840735 -0.54618299 2.3068082 2.3369359e-38
0.9790014 -0.54036272 2.2994745 2.3369359e-38
-0.23549926 -0.51686233 2.2938001 2.3369359e-38
0.95273298 -0.49898612 2.3048003 2.3369359e-38
0.97462231 -0.50078011 2.2973175 2.3369359e-38
-0.16073905 -0.4557943 2.312 2.3369359e-38
0.9473139 -0.45715341 2.3097162 2.3369359e-38
0.97095728 -0.46168479 2.2968142 2.3369359e-38
0.91286337 -0.4184778 2.312 2.3369359e-38
0.94162709 -0.41985989 2.302633 2.3369359e-38
0.96498001 -0.41852865 2.2879336 2.3369359e-38
0.91361481 -0.36843482 2.3103335 2.3369359e-38
0.94014996 -0.38049617 2.2990766 2.3369359e-38
0.96580321 -0.39545709 2.2832859 2.3369359e-38
0.91193861 -0.34016213 2.3111422 2.3369359e-38
0.93798614 -0.34062305 2.2997131 2.3369359e-38
0.90894413 -0.30078575 2.3053319 2.3369359e-38
0.92874473 -0.30019379 2.2923326 2.3369359e-38
0.90659231 -0.26394227 2.300144 2.3369359e-38
0.92301822 -0.26567665 2.2882731 2.3369359e-38
0.80589724 -0.18716191 2.3120003 2.3369359e-38
0.10569143 -0.11670095 2.312 2.3369359e-38
0.12404063 -0.10495746 2.312 2.3369359e-38
0.12734351 -0.048808888 2.3120003 2.3369359e-38
0.11229716 -0.0082071004 2.3120003 2.3369359e-38
0.13713279 -0.018167393 2.3064501 2.3369359e-38
0.1132789 0.020535214 2.2953234 2.3369359e-38
0.14037938 0.019671796 2.2904935 2.3369359e-38
0.16928394 0.02298394 2.3104482 2.3369359e-38
0.10451567 0.045137245 2.2810001 2.3369359e-38
0.14782958 0.056319416 2.283195 2.3369359e-38
0.17192991 0.060208987 2.2995746 2.3369359e-38
0.15175635 0.081619471 2.2810001 2.3369359e-38
0.18106449 0.10087238 2.2869349 2.3369359e-38
0.21364091 0.11108567 2.3036823 2.3369359e-38
0.18860216 0.13449012 2.2809992 2.3369359e-38
0.21848887 0.14050736 2.2979724 2.3369359e-38
0.24785788 0.14695324 2.312 2.3369359e-38
0.22553384 0.1790354 2.2907398 2.3369359e-38
0.25733691 0.18215731 2.3070552 2.3369359e-38
0.2284476 0.21176368 2.2809994 2.3369359e-38
0.26125357 0.2194166 2.2948139 2.3369359e-38
0.29919609 0.22915114 2.3115449 2.3369359e-38
0.32368001 0.23120001 2.312 2.3369359e-38
0.26775914 0.25589797 2.290904 2.3369359e-38
0.30089036 0.25953731 2.3076046 2.3369359e-38
0.33378702 0.26320601 2.3039219 2.3369359e-38
0.27341884 0.28537074 2.283 2.3369359e-38
0.30084759 0.29505304 2.2994153 2.3369359e-38
0.33820355 0.29234314 2.2988358 2.3369359e-38
0.36546445 0.29587561 2.3070002 2.3369359e-38
-0.28810477 -0.68037051 2.3270001 2.3369359e-38
-0.27480763 -0.68037051 2.3270001 2.3369359e-38
-0.1418362 -0.68037051 2.3270001 2.3369359e-38
-0.093080007 -0.68037051 2.3270001 2.3369359e-38
-0.29222864 -0.65771097 2.3360994 2.3369359e-38
-0.26036003 -0.65717977 2.3338571 2.3369359e-38
-0.2202052 -0.65553004 2.3394222 2.3369359e-38
-0.1790825 -0.65894121 2.3390477 2.3369359e-38
-0.14065537 -0.65613532 2.3372738 2.3369359e-38
-0.1000267 -0.65638644 2.3381829 2.3369359e-38
-0.063201383 -0.64945769 2.3290522 2.3369359e-38
-0.018468253 -0.64294159 2.3269999 2.3369359e-38
0.018172761 -0.64092231 2.3269999 2.3369359e-38
0.060723629 -0.64047909 2.3270001 2.3369359e-38
0.10257625 -0.64384842 2.3393435 2.3369359e-38
0.12189049 -0.64047909 2.3270001 2.3369359e-38
-0.29058251 -0.63056165 2.3319232 2.3369359e-38
-0.25712529 -0.62130529 2.3315346 2.3369359e-38
-0.22080623 -0.61840129 2.3432117 2.3369359e-38
-0.19049656 -0.61825424 2.3582737 2.3369359e-38
-0.14403908 -0.63453364 2.3578577 2.3369359e-38
-0.09200529 -0.63460857 2.3560917 2.3369359e-38
-0.058761504 -0.63286227 2.344264 2.3369359e-38
-0.018743882 -0.62857521 2.3415201 2.3369359e-38
0.017963456 -0.63043219 2.3436677 2.3369359e-38
0.060805179 -0.63409889 2.3455954 2.3369359e-38
0.096828841 -0.63360238 2.3539097 2.3369359e-38
0.13808519 -0.61836481 2.339572 2.3369359e-38
0.18235365 -0.62062484 2.3467648 2.3369359e-38
0.21901096 -0.61795318 2.3379474 2.3369359e-38
0.2600483 -0.61660612 2.339308 2.3369359e-38
0.29933125 -0.61277473 2.3440499 2.3369359e-38
0.34004527 -0.60613245 2.3378112 2.3369359e-38
0.38045216 -0.60627532 2.3348057 2.3369359e-38
0.4218843 -0.60930723 2.3348503 2.3369359e-38
0.45917487 -0.60987127 2.3382006 2.3369359e-38
0.49873269 -0.60823739 2.3366752 2.3369359e-38
0.54038119 -0.60483545 2.3269999 2.3369359e-38
0.57964623 -0.60249895 2.3310001 2.3369359e-38
0.61395514 -0.60334146 2.3339565 2.3369359e-38
0.65434003 -0.60276228 2.3289998 2.3369359e-38
0.68037051 -0.60058767 2.3270001 2.3369359e-38
0.72469431 -0.60058767 2.3270001 2.3369359e-38
0.78484201 -0.6004765 2.3323333 2.3369359e-38
0.8369813 -0.60206515 2.3270001 2.3369359e-38
0.84436858 -0.60058767 2.3270001 2.3369359e-38
0.89090866 -0.60206509 2.3270001 2.3369359e-38
-0.24760894 -0.59212583 2.3269999 2.3369359e-38
-0.21649995 -0.58046591 2.3330698 2.3369359e-38
-0.18361208 -0.57807416 2.3489428 2.3369359e-38
-0.15801558 -0.56541121 2.3590002 2.3369359e-38
0.12806001 -0.59986001 2.3590002 2.3369359e-38
0.27634001 -0.59986001 2.3590002 2.3369359e-38
0.29656005 -0.59911108 2.3590002 2.3369359e-38
0.33959365 -0.59286237 2.3572712 2.3369359e-38
0.38215417 -0.59020323 2.3530474 2.3369359e-38
0.42028701 -0.59069705 2.3574398 2.3369359e-38
0.46198568 -0.59193736 2.3590009 2.3369359e-38
0.50414073 -0.59164709 2.3537917 2.3369359e-38
0.53902334 -0.58721781 2.343287 2.3369359e-38
0.57796282 -0.58773822 2.3476167 2.3369359e-38
0.61825699 -0.58769244 2.3436286 2.3369359e-38
0.65922159 -0.58825189 2.3464293 2.3369359e-38
0.69635993 -0.58730352 2.3438902 2.3369359e-38
0.73962039 -0.58430731 2.338078 2.3369359e-38
0.78203022 -0.58224636 2.344672 2.3369359e-38
0.82047421 -0.58048588 2.3368948 2.3369359e-38
0.8605662 -0.57662684 2.3356287 2.3369359e-38
0.89821702 -0.57504845 2.3364828 2.3369359e-38
0.92877012 -0.56106895 2.3338573 2.3369359e-38
-0.20979938 -0.55478644 2.3270001 2.3369359e-38
-0.17423683 -0.55625814 2.3456669 2.3369359e-38
0.82752228 -0.54893565 2.3590002 2.3369359e-38
0.91381294 -0.55388689 2.3483338 2.3369359e-38
0.94454569 -0.54160476 2.3522716 2.3369359e-38
0.96207398 -0.53660351 2.3407147 2.3369359e-38
0.91697657 -0.49477601 2.3475718 2.3369359e-38
0.94066489 -0.49992806 2.3448606 2.3369359e-38
-0.16178192 -0.47204861 2.3270001 2.3369359e-38
-0.15605238 -0.46446353 2.3296669 2.3369359e-38
0.91799766 -0.46233496 2.3554449 2.3369359e-38
0.9345172 -0.46407267 2.3460479 2.3369359e-38
0.91537738 -0.41912174 2.3376667 2.3369359e-38
0.92822528 -0.40912288 2.3292859 2.3369359e-38
0.91403794 -0.37873882 2.3420005 2.3369359e-38
0.92730689 -0.38536102 2.335 2.3369359e-38
0.90674967 -0.34148219 2.3458726 2.3369359e-38
0.93301624 -0.3568067 2.3270001 2.3369359e-38
0.87844676 -0.28532669 2.3590002 2.3369359e-38
0.89397973 -0.29823241 2.3385096 2.3369359e-38
0.87168187 -0.25856626 2.3502262 2.3369359e-38
0.89026016 -0.26616982 2.3384295 2.3369359e-38
0.8085109 -0.19115905 2.3430004 2.3369359e-38
0.1127474 -0.099391729 2.3321197 2.3369359e-38
0.1395511 -0.093179367 2.3483343 2.3369359e-38
0.11574697 -0.059546955 2.3345292 2.3369359e-38
0.14217782 -0.06195819 2.3360445 2.3369359e-38
0.16429572 -0.045816667 2.3470001 2.3369359e-38
0.11450319 -0.026963649 2.3269999 2.3369359e-38
0.15125501 -0.034904998 2.3269999 2.3369359e-38
0.1666563 -0.017621668 2.3356664 2.3369359e-38
0.22242001 -0.0022466669 2.3590002 2.3369359e-38
0.17422782 0.009112698 2.3287778 2.3369359e-38
0.26765293 0.063056454 2.3590007 2.3369359e-38
0.23435862 0.11015038 2.3287778 2.3369359e-38
0.26075172 0.10525952 2.3482323 2.3369359e-38
0.28332964 0.11158445 2.3590004 2.3369359e-38
0.23713239 0.12410668 2.3270001 2.3369359e-38
0.26335353 0.13708191 2.3327157 2.3369359e-38
0.29241708 0.1438653 2.3557186 2.3369359e-38
0.32486805 0.15771602 2.3590002 2.3369359e-38
0.2685 0.1655324 2.3269999 2.3369359e-38
0.30000898 0.18056281 2.3448031 2.3369359e-38
0.33662704 0.18514152 2.3534923 2.3369359e-38
0.36538973 0.18892425 2.3590004 2.3369359e-38
0.30409124 0.21349676 2.337147 2.3369359e-38
0.34072056 0.21980774 2.3398004 2.3369359e-38
0.37361667 0.22430749 2.3554008 2.3369359e-38
0.34930673 0.25277987 2.3305552 2.3369359e-38
0.38031232 0.26112509 2.3479071 2.3369359e-38
0.40870613 0.26435784 2.3590009 2.3369359e-38
0.3568067 0.2814562 2.3270001 2.3369359e-38
0.3838281 0.29581046 2.3415785 2.3369359e-38
0.41796646 0.29690567 2.3590012 2.3369359e-38
0.44259337 0.30330002 2.3590002 2.3369359e-38
-0.20252573 -0.64491433 2.3760002 2.3369359e-38
-0.1884637 -0.64459103 2.3760002 2.3369359e-38
-0.11540572 -0.64038861 2.3760002 2.3369359e-38
0.11993144 -0.64038861 2.3760002 2.3369359e-38
-0.17558201 -0.62319064 2.3857136 2.3369359e-38
-0.14245814 -0.62738371 2.3882098 2.3369359e-38
-0.10188723 -0.62848401 2.3879993 2.3369359e-38
-0.059641149 -0.61748129 2.3808 2.3369359e-38
-0.021751257 -0.61272687 2.3819253 2.3369359e-38
0.022048105 -0.61508477 2.3838642 2.3369359e-38
0.061181184 -0.6170699 2.3821712 2.3369359e-38
0.10177341 -0.61705017 2.3807335 2.3369359e-38
0.14516574 -0.60589558 2.3791997 2.3369359e-38
0.17502826 -0.60720474 2.3796921 2.3369359e-38
0.22524194 -0.60499048 2.3792002 2.3369359e-38
0.25690973 -0.60629487 2.3760002 2.3369359e-38
0.30548573 -0.6041829 2.3760002 2.3369359e-38
-0.16452447 -0.58867687 2.3773334 2.3369359e-38
-0.14181605 -0.58050919 2.3899624 2.3369359e-38
-0.11618286 -0.58774865 2.3920002 2.3369359e-38
-0.061094377 -0.59375459 2.3920002 2.3369359e-38
-0.021414097 -0.59913915 2.3920002 2.3369359e-38
