# .PCD v0.7 - Point Cloud Data file format
VERSION 0.7
FIELDS x y z rgb
SIZE 4 4 4 4
TYPE F F F F
COUNT 1 1 1 1
WIDTH 273
HEIGHT 1
VIEWPOINT 0 0 0 1 0 0 0
POINTS 273
DATA ascii
-0.16064288 -0.020760003 0.51900005 5.6344305e-39
-0.14472176 -0.021237873 0.51409549 7.1931004e-39
-0.3151466 0.23144791 0.51884621 9.8613269e-39
-0.20127429 -0.080408573 0.53100002 1.3922301e-38
-0.18307719 -0.086419843 0.52677459 9.3251494e-39
-0.20172252 -0.056906454 0.53377348 9.774927e-39
-0.182926 -0.06008305 0.53051156 7.2961267e-39
-0.14486553 -0.044239048 0.55766857 1.1067478e-38
-0.21380314 -0.017656012 0.54790473 9.5937433e-39
-0.17955559 -0.019272378 0.53151858 5.5422349e-39
-0.1456047 -0.019792479 0.54584652 9.9643839e-39
-0.24869627 0.020497466 0.55408013 1.0217513e-38
-0.21063381 0.021702226 0.53483558 8.752115e-39
-0.17982595 0.019604379 0.53217381 6.3644118e-39
-0.14188847 0.021502577 0.53375787 7.103074e-39
-0.11991715 0.028271813 0.53580004 1.180252e-38
-0.2170866 0.056357868 0.54574096 8.9318049e-39
-0.1790567 0.058876105 0.53558165 9.4842613e-39
-0.14109501 0.059755899 0.54660839 8.3858619e-39
-0.11782339 0.069388017 0.55815607 9.1450966e-39
-0.20454027 0.088404484 0.55088377 9.2069513e-39
-0.17754844 0.097913191 0.55123276 1.0495887e-38
-0.13016421 0.098290101 0.55748093 6.4609416e-39
-0.11838959 0.089950643 0.55799991 8.4943126e-39
-0.30203867 0.13946989 0.54554701 1.1980396e-38
-0.3233197 0.18651754 0.53768724 8.846819e-39
-0.29852831 0.18619396 0.54140073 9.9528092e-39
-0.27157769 0.19446571 0.55372101 1.0136839e-38
-0.32681069 0.2168871 0.5469625 7.6497135e-39
-0.29992065 0.21967189 0.53744346 9.2156029e-39
-0.27358475 0.20332465 0.5412547 8.4780449e-39
-0.29154727 0.24101125 0.53391123 9.8602521e-39
-0.13729772 -0.046427656 0.56090158 5.8094765e-39
-0.23137502 -0.0042796335 0.56246156 1.0144364e-38
-0.13827831 -0.018576678 0.56843281 1.1237472e-38
-0.24399194 0.031283047 0.56397992 8.4704667e-39
-0.23596303 0.015274392 0.56560546 1.0321219e-38
-0.12795821 0.013868122 0.57332253 1.207947e-38
-0.11829872 0.01844993 0.57453781 5.6218413e-39
-0.24512234 0.041744661 0.56817859 9.9452198e-39
-0.22417615 0.072541483 0.56048286 1.1511457e-38
-0.16083492 0.078433655 0.59533334 7.3615982e-39
-0.13706389 0.061324276 0.56754386 1.0504217e-38
-0.1149599 0.070602439 0.56104505 1.043692e-38
-0.2062069 0.10183211 0.56283838 1.0034181e-38
-0.16507296 0.092461675 0.57996738 1.0863946e-38
-0.14770225 0.10222765 0.56970865 1.0408022e-38
-0.11529423 0.096473619 0.56253105 1.2731336e-38
-0.16682984 0.12609127 0.56425011 9.667914e-39
-0.14364159 0.13575569 0.58140534 1.1419289e-38
-0.25478908 0.19494316 0.56423002 1.1794921e-38
-0.23565736 0.19863029 0.57614303 1.1886775e-38
-0.28148657 0.21333756 0.56574994 9.492194e-39
-0.25305516 0.21860924 0.57317412 9.1234115e-39
-0.22561343 0.22152396 0.58483797 9.6762293e-39
-0.24458458 0.2419031 0.58446157 8.7557038e-39
-0.22704086 0.24179915 0.58555996 7.0007596e-39
-0.12223126 0.11639192 0.62447828 1.9618568e-38
-0.11942763 0.11823525 0.62700003 1.915795e-38
-0.12757578 0.14307265 0.60882235 1.6946338e-38
-0.11678658 0.14465199 0.6296587 1.8604415e-38
-0.13407782 0.17865518 0.61489731 9.6675693e-39
-0.11187508 0.18062645 0.62977165 1.5839992e-38
-0.21450002 0.2362143 0.60000002 1.1702735e-38
-0.13152313 0.20981918 0.63253313 7.4563175e-39
-0.11283702 0.20910932 0.63544118 1.0772478e-38
0.22785729 0.27683511 0.639 1.1694067e-38
0.22683442 0.28355837 0.63888299 1.0496606e-38
-0.1091973 0.14849792 0.6491431 1.8234192e-38
-0.095700227 0.18174218 0.65673959 1.768174e-38
-0.07881429 0.1937581 0.67500013 1.620769e-38
-0.13437542 0.22855984 0.64512634 7.179732e-39
-0.095985584 0.221322 0.65097743 1.362838e-38
-0.076313183 0.22577091 0.67186219 1.712929e-38
0.19742753 0.23858869 0.67662501 1.2153233e-38
0.22205235 0.23741925 0.67588896 1.3443609e-38
0.25126287 0.23771366 0.67583513 1.639279e-38
-0.12806514 0.2566998 0.65921801 7.1797334e-39
-0.098923668 0.2590175 0.658804 8.9296455e-39
-0.073497251 0.2593388 0.67296326 1.3075206e-38
0.1564617 0.27512479 0.67549241 1.0403322e-38
0.18234821 0.26226661 0.66144252 1.0402961e-38
0.21914531 0.25740981 0.65146875 1.2061047e-38
0.25894895 0.25960049 0.65753186 1.740875e-38
0.29140472 0.26655212 0.66981876 2.0729236e-38
-0.12331464 0.28446814 0.67528564 7.2729955e-39
-0.098486662 0.28829131 0.67380363 6.9035025e-39
-0.075956874 0.28458542 0.67765135 8.9289225e-39
0.15208311 0.29098666 0.67329001 9.0207538e-39
0.17730156 0.28629854 0.65348041 8.5604945e-39
0.21056925 0.28397855 0.64043438 8.7452487e-39
0.26178759 0.28519741 0.64716595 1.5565197e-38
0.30094203 0.29019165 0.66682702 1.8514736e-38
0.321881 0.29915288 0.67873687 1.6576827e-38
-0.078093976 0.19896415 0.6910001 1.5837834e-38
-0.080067143 0.20244524 0.68350005 1.7220043e-38
-0.067352206 0.22372329 0.69438422 1.6391717e-38
0.15584029 0.23625855 0.71693313 1.160042e-38
0.18328866 0.2287062 0.70552444 1.2060676e-38
0.21967034 0.22314791 0.70037341 1.344289e-38
0.25881904 0.22537905 0.6997624 1.6761213e-38
0.2922914 0.23219666 0.70898885 1.9803673e-38
-0.054838065 0.26017275 0.6971963 1.3904241e-38
-0.038656194 0.2747893 0.71687496 1.2337636e-38
0.14576043 0.26291561 0.70188826 1.1047967e-38
0.17020656 0.2473361 0.69105166 1.1507862e-38
0.27621314 0.2424003 0.68265373 1.9067545e-38
0.30450261 0.25416809 0.69381368 2.0727794e-38
0.33156869 0.26722708 0.70870179 2.0268616e-38
-0.09866786 0.30298916 0.68492091 6.9960583e-39
-0.05703789 0.29771006 0.69814157 9.112955e-39
-0.037287932 0.29902521 0.71735197 9.7575985e-39
0.11511701 0.3053506 0.71368515 8.9278351e-39
0.13187493 0.29398882 0.69603682 9.4810074e-39
0.31776983 0.28337714 0.68200004 2.0819276e-38
0.33806449 0.29238108 0.69398397 1.8146313e-38
-0.041730478 0.32085556 0.71833342 7.4537938e-39
0.10750762 0.32115334 0.71900004 8.2828118e-39
0.14727533 0.18948996 0.75130057 1.2704972e-38
0.18084519 0.18595809 0.74578315 1.3993909e-38
0.21912295 0.18689762 0.7436282 1.5192092e-38
0.25723717 0.19192939 0.74778712 1.7772846e-38
0.28466004 0.19764277 0.75483882 1.8878472e-38
-0.055227924 0.23469153 0.73000008 1.3718046e-38
-0.0084958551 0.23657362 0.75584936 1.1137285e-38
0.023175525 0.22796011 0.75168508 1.1598986e-38
0.060200717 0.22275835 0.75017685 1.2152521e-38
0.095554441 0.22450779 0.7528944 1.1047614e-38
0.14052592 0.22077912 0.7378723 1.1232e-38
0.17624669 0.21005495 0.72684044 1.2797524e-38
0.21913141 0.20475936 0.72452384 1.4179016e-38
0.26213282 0.20707989 0.72909242 1.7405143e-38
0.3013528 0.21648273 0.73808897 1.9434167e-38
0.33696637 0.22829308 0.74772799 1.9988425e-38
0.36800689 0.2356616 0.7556439 1.8698768e-38
-0.043773476 0.25272986 0.73231101 1.3073753e-38
-0.019834492 0.2606613 0.74383175 1.0216772e-38
0.019408148 0.25994512 0.74088115 9.9412653e-39
0.059283871 0.25981084 0.74194449 9.2047807e-39
0.10169652 0.2600618 0.74977404 7.5463398e-39
0.12914585 0.25513595 0.73017019 9.7583118e-39
0.31828919 0.2427341 0.72120011 2.1003298e-38
0.34573075 0.25493139 0.73000401 1.88846e-38
0.36694536 0.2540673 0.74201739 1.7040686e-38
-0.018197244 0.2991063 0.72816312 8.4672213e-39
0.019204712 0.29929912 0.7352218 7.8225707e-39
0.057845227 0.29752037 0.74717611 6.1637696e-39
0.101858 0.29915804 0.74042201 7.5466999e-39
0.12111039 0.28204185 0.72090018 9.9423443e-39
0.35999998 0.28045714 0.72000003 1.6766975e-38
-0.016725162 0.32258201 0.72657818 6.993173e-39
0.022361919 0.32750493 0.74397534 4.783003e-39
0.045528512 0.32574788 0.75510865 3.8621299e-39
0.09244258 0.3259671 0.74280626 6.6254667e-39
0.38584572 -0.0081821708 0.78964031 5.619623e-39
0.38412529 0.026711464 0.79504651 1.11409e-38
0.35559157 0.068998881 0.79651183 9.2991427e-39
0.37634131 0.059586629 0.78989339 1.0405134e-38
0.35505509 0.095494069 0.79642045 6.260654e-39
0.37580103 0.099857941 0.78740549 6.8152711e-39
0.10851825 0.15414082 0.79290807 1.3717323e-38
0.14123172 0.14796731 0.78641832 1.4362691e-38
0.17906794 0.14806472 0.78352678 1.5837456e-38
0.21702446 0.15271422 0.78630054 1.6389912e-38
0.24693926 0.15685387 0.79397559 1.6298074e-38
0.38112566 0.12796579 0.79386783 5.3415816e-39
0.027082162 0.19374698 0.78500795 1.3717325e-38
0.061628319 0.18567811 0.77870238 1.3994269e-38
0.099903524 0.18016739 0.77657902 1.316487e-38
0.13606623 0.17460433 0.76753438 1.2796809e-38
0.17880039 0.16582717 0.76452351 1.4731115e-38
0.22199319 0.1670057 0.76743942 1.6205163e-38
0.26096702 0.17355371 0.77715909 1.731187e-38
0.29891315 0.18507856 0.78051156 1.8050874e-38
0.33221975 0.19401884 0.79054236 2.0079178e-38
-0.043237101 0.23802441 0.77952385 1.1969928e-38
-0.016846195 0.22754249 0.77147728 1.1967048e-38
0.016547404 0.20998046 0.76883459 1.2612059e-38
0.057050314 0.20322752 0.76079738 1.3257788e-38
0.10754798 0.21054916 0.76206595 1.0770664e-38
0.12341504 0.20941149 0.76335776 8.1924294e-39
0.31142524 0.20288593 0.76234466 1.8880274e-38
0.34399059 0.21033494 0.77410668 1.9617483e-38
0.37651941 0.21947007 0.78069407 1.9066109e-38
0.4000181 0.21632859 0.79700005 1.8235271e-38
-0.045883518 0.24656209 0.77156532 1.0033465e-38
-0.035872377 0.24374703 0.76307696 1.104617e-38
0.10606672 0.2735557 0.76020849 3.9543185e-39
0.071438298 0.31467873 0.76215792 3.2178395e-39
0.092483506 0.30028418 0.76258272 3.6791736e-39
0.068712391 0.33543155 0.77556485 2.8515765e-39
0.082033098 0.32810071 0.76415247 4.5078538e-39
0.39024797 -0.083610848 0.83433342 4.1466495e-39
0.40654126 -0.082836658 0.82783866 4.0541022e-39
0.35777536 -0.043346863 0.83766669 2.947026e-39
0.38282236 -0.057689417 0.82844371 4.6965751e-39
0.40412459 -0.063332729 0.8189944 4.1444873e-39
0.35184136 -0.013922448 0.83111435 5.9862307e-39
0.377747 -0.02254555 0.81421781 8.2878747e-39
0.40169188 -0.032520991 0.80560005 1.1324928e-38
0.34471416 0.021603104 0.82141417 1.0127464e-38
0.37218794 0.013993856 0.80479813 1.0035269e-38
0.31924179 0.068912491 0.83774996 8.6555698e-39
0.33787686 0.059268679 0.81699032 9.5753681e-39
0.36038095 0.045170072 0.80000007 1.022001e-38
0.14442827 0.11526886 0.82738775 1.4916222e-38
0.17463657 0.11467618 0.82912076 1.5285725e-38
0.3191992 0.097744681 0.83809102 9.5742821e-39
0.33621627 0.10060887 0.81831229 7.6410591e-39
0.071332224 0.15440707 0.824067 1.4086823e-38
0.099912949 0.14163639 0.81581998 1.4179017e-38
0.13760652 0.12785874 0.80936038 1.491658e-38
0.18048954 0.12831667 0.80974007 1.6482819e-38
0.21910694 0.13898325 0.81603158 1.5745256e-38
0.26010352 0.14994887 0.81916952 1.463999e-38
0.30337366 0.14907739 0.83056784 1.3074108e-38
0.34010008 0.13843903 0.82779181 1.021893e-38
0.37181926 0.14130616 0.81220382 8.3775494e-39
0.029045783 0.18450104 0.8086915 1.3996428e-38
0.057911448 0.16825201 0.81176525 1.4179019e-38
0.082166351 0.16102816 0.80133337 1.3993546e-38
0.27171731 0.16157627 0.80216664 1.6114041e-38
0.30213821 0.16609746 0.80895239 1.6484626e-38
0.34241992 0.17704336 0.81853002 1.8789879e-38
0.37609139 0.18655714 0.82469159 1.9066465e-38
0.40840825 0.19608739 0.83081275 1.8328901e-38
0.35885715 0.20038097 0.80000001 1.8789155e-38
0.38590172 0.2049969 0.80495334 1.906575e-38
0.40615302 0.20649388 0.81522745 1.8327469e-38
0.065206893 0.35544661 0.80261546 2.4838814e-39
0.063712381 0.36001337 0.80600005 2.207656e-39
0.35698393 -0.081998311 0.87555557 3.5931044e-39
0.37532714 -0.08558277 0.85713685 3.7778628e-39
0.34657058 -0.054431282 0.86003834 3.0399377e-39
0.36773625 -0.069534816 0.85250902 3.0406551e-39
0.31841722 -0.011905064 0.87641466 1.1322761e-38
0.33631206 -0.021313379 0.85861307 5.6163678e-39
0.31025133 0.022863163 0.8663429 1.1046178e-38
0.32681763 0.016450025 0.85553235 1.0402967e-38
0.31376389 0.062612817 0.86155379 1.1232363e-38
0.32148004 0.048589513 0.84610891 9.7601139e-39
0.11875699 0.11875635 0.85216677 1.6300269e-38
0.12897405 0.11632961 0.84825003 1.473184e-38
0.3065567 0.1018839 0.85755634 1.160042e-38
0.32118189 0.10358985 0.84100002 9.7583076e-39
0.075442858 0.14644113 0.84190917 1.3993196e-38
0.10579889 0.12798896 0.84549278 1.4270859e-38
0.23175405 0.13420238 0.86597294 1.3535806e-38
0.26268348 0.13470998 0.86086494 1.3074829e-38
0.29663622 0.13176015 0.8512488 1.1969198e-38
0.38055432 0.15741518 0.84595114 1.8331415e-38
0.3844322 0.17041925 0.84786689 2.0171375e-38
0.41624907 0.18726225 0.8615641 1.7775726e-38
0.44150859 0.19148763 0.87800002 1.6761934e-38
0.35870478 -0.085485719 0.88000005 3.4097992e-39
0.37153706 -0.09541861 0.88517177 3.7764363e-39
0.31801555 -0.040932383 0.90166676 3.7702958e-39
0.33270353 -0.058746953 0.88643223 3.4998354e-39
0.31328788 -0.013713838 0.88583648 9.8490767e-39
0.32278815 -0.034476668 0.8878001 3.5920296e-39
0.30836931 0.018976722 0.89545727 8.7470536e-39
0.32126984 0.0081015872 0.88000005 9.7568825e-39
0.30494392 0.05952131 0.89179707 1.1143051e-38
0.22375259 0.11809281 0.90276945 1.3814217e-38
0.26731247 0.11566106 0.90176868 1.2706054e-38
0.29091913 0.099185921 0.89500773 1.2338706e-38
0.22304121 0.12553236 0.89067465 1.3442894e-38
0.25644243 0.12385349 0.88688976 1.3351416e-38
0.43257779 0.18268138 0.89716119 1.7036719e-38
0.44523531 0.1848219 0.89781415 1.5839979e-38
0.30462223 0.020152381 0.92000002 4.6926193e-39
0.28563809 0.098133333 0.92000002 1.7606814e-38
-0.12198355 0.090013459 0.61788917 1.087514e-38
