# .PCD v0.7 - Point Cloud Data file format
VERSION 0.7
FIELDS x y z rgb
SIZE 4 4 4 4
TYPE F F F F
COUNT 1 1 1 1
WIDTH 318
HEIGHT 1
VIEWPOINT 0 0 0 1 0 0 0
POINTS 318
DATA ascii
0.019435316 -0.16095918 0.51900005 9.4173423e-39
-0.041905817 -0.12083991 0.50230008 4.698132e-39
-0.03540381 -0.1217742 0.50316286 1.088599e-38
0.01936456 -0.14981408 0.5181371 7.941129e-39
-0.04582116 -0.1036108 0.50616401 4.9749865e-39
-0.026117548 -0.10181452 0.50532073 7.3782064e-39
0.010416436 -0.090091087 0.504251 7.0079903e-39
-0.081330106 -0.050379757 0.51693338 1.0478983e-38
-0.060327422 -0.061114468 0.51290518 5.5260037e-39
-0.016460022 -0.05024603 0.51192319 6.5455646e-39
0.0083167301 -0.0754923 0.50864756 8.8472072e-39
-0.020485837 -0.032133449 0.51373029 4.8853216e-39
-0.3112967 0.23247077 0.51854914 9.8616856e-39
0.020368662 -0.16344485 0.5207926 1.2457262e-38
-0.0073816194 -0.1302309 0.53217685 7.2935932e-39
0.014865881 -0.13580231 0.52615625 9.0453087e-39
-0.0855873 -0.082680084 0.54826921 1.3350721e-38
-0.055336259 -0.090723574 0.54299468 9.1227066e-39
-0.017512856 -0.10208655 0.52773738 6.0061067e-39
0.0073482064 -0.11551771 0.53752851 1.0521889e-38
-0.092365667 -0.054716289 0.54630196 1.2154328e-38
-0.06268061 -0.060020022 0.53584296 7.835572e-39
-0.019377269 -0.062115263 0.54049349 1.1242133e-38
0.00096428569 -0.053704601 0.55200005 2.0274401e-38
-0.089166924 -0.027067101 0.53962725 1.0224713e-38
-0.06618195 -0.018573206 0.53167653 7.2903393e-39
-0.031376667 -0.025599528 0.52016675 6.1782156e-39
-0.08840359 0.013554358 0.54367304 8.1190084e-39
-0.072080456 0.0074670473 0.53433567 8.5836005e-39
-0.30013168 0.1399589 0.54202843 1.2533209e-38
-0.32191527 0.18172453 0.53324997 9.2170392e-39
-0.29828534 0.18560177 0.53843957 1.0044646e-38
-0.26845795 0.19353528 0.55235821 1.0504901e-38
-0.32788181 0.22194146 0.55069417 8.1110504e-39
-0.29845729 0.21830219 0.5364207 9.2159616e-39
-0.27142248 0.21156302 0.53737599 8.3862052e-39
-0.28415355 0.24098291 0.53413647 1.2716173e-38
-0.26449975 0.24441418 0.54403502 1.1703442e-38
-0.081200011 -0.09721905 0.58000004 1.9452203e-38
-0.072778955 -0.095619425 0.57088012 1.1970665e-38
-0.10670152 -0.054850146 0.56171882 1.5659928e-38
-0.0016431528 -0.045821149 0.56296551 1.9433825e-38
0.0020356097 -0.045543619 0.56504875 2.054414e-38
-0.10199247 -0.020605503 0.5759356 1.2154328e-38
-0.048164159 -0.01034377 0.58441985 7.641792e-39
-0.018823404 -0.0151205 0.58170527 1.3630545e-38
0.0022246307 -0.029937059 0.57990807 2.0732132e-38
-0.092555411 0.026151044 0.58620417 9.9427129e-39
-0.05911272 0.020348696 0.58529717 1.2614588e-38
-0.028111514 0.011384265 0.58658826 1.4922e-38
-0.088240236 0.046667207 0.59684873 1.0127822e-38
-0.071359009 0.043941416 0.59659708 1.1601874e-38
-0.25017327 0.19528551 0.56477445 1.2440289e-38
-0.23535983 0.19827215 0.57288873 1.2440656e-38
-0.3424736 0.2186693 0.56274998 8.7636211e-39
-0.25163516 0.21813762 0.5707348 9.3992795e-39
-0.22500859 0.22221263 0.58342791 9.8602605e-39
-0.24047954 0.24326383 0.58450007 6.6334092e-39
-0.23194295 0.2417523 0.58389479 7.738319e-39
-0.10266667 0.039047621 0.60000002 1.6673693e-38
-0.045755401 0.03667482 0.60222745 1.4919113e-38
-0.036990631 0.034227435 0.60732019 1.8147046e-38
-0.094770864 0.064761497 0.60747617 1.0220016e-38
-0.059061073 0.061580651 0.6133346 1.4181188e-38
-0.038297195 0.04806624 0.61624992 1.6118389e-38
-0.096881412 0.10077608 0.62139744 9.0214754e-39
-0.065586954 0.097784355 0.62649816 1.5009864e-38
-0.095658496 0.13863091 0.63231307 9.020758e-39
-0.071875252 0.13648064 0.63449162 1.3534741e-38
-0.091381647 0.16188318 0.63881999 8.8370856e-39
-0.079317153 0.16046003 0.63900006 1.0679922e-38
-0.21542859 0.23645715 0.60000002 1.1336486e-38
0.22480518 0.27292457 0.63837016 1.012746e-38
0.24425228 0.27554032 0.63882148 1.2800053e-38
0.22331524 0.28314847 0.63743687 8.9299973e-39
0.24565884 0.28342167 0.63874513 1.1786981e-38
-0.12015124 0.10697906 0.64040011 1.6120902e-38
-0.11699404 0.1157736 0.64028579 9.2076618e-39
-0.050039802 0.10623126 0.64562243 1.6575391e-38
-0.12406079 0.14613129 0.65317971 9.7594034e-39
-0.11470592 0.14598316 0.6434257 9.2065856e-39
-0.054607421 0.14259432 0.65313524 1.6851617e-38
-0.038571425 0.15364285 0.67500001 1.2977611e-38
-0.12482636 0.17801884 0.66206521 9.6679266e-39
-0.099635072 0.18052448 0.64830881 8.5608616e-39
-0.061521202 0.17947648 0.65848273 1.4732564e-38
-0.12346214 0.20897327 0.67503697 9.1147585e-39
-0.097232051 0.21771573 0.66681433 7.824377e-39
-0.065882057 0.21632889 0.67018074 1.1508601e-38
0.19789636 0.23854502 0.67845458 1.1416023e-38
0.22291341 0.23589419 0.67270076 1.2798241e-38
0.25405112 0.23591185 0.67389721 1.5839614e-38
-0.08621183 0.24150038 0.67891663 7.2715633e-39
-0.078677781 0.2416378 0.67900008 7.5485118e-39
0.15834814 0.27716175 0.67753333 1.0033108e-38
0.18393318 0.26341286 0.66369808 1.0310404e-38
0.21753936 0.25447312 0.65025836 1.0862506e-38
0.26013613 0.2580696 0.65338469 1.6855214e-38
0.2943109 0.26410341 0.66693091 2.0359734e-38
0.32105392 0.27597514 0.67862499 2.1281329e-38
0.15562753 0.29153499 0.6754179 8.9285539e-39
0.17744532 0.28736952 0.65840822 8.6523286e-39
0.20367019 0.28403899 0.64138168 8.0998793e-39
0.26628613 0.28496036 0.64478683 1.5012024e-38
0.30172208 0.28913963 0.6628772 1.8330346e-38
0.32285526 0.29334158 0.67785108 1.8883158e-38
-0.042516857 0.15280436 0.68361545 1.5835668e-38
-0.03867612 0.15617357 0.68653852 1.2983381e-38
-0.041891664 0.18174049 0.68498874 1.712784e-38
-0.037415083 0.18294792 0.69181347 1.53754e-38
-0.12491795 0.22319967 0.68641943 9.2991483e-39
-0.11282313 0.2337236 0.68398511 8.0094885e-39
-0.048950072 0.22490652 0.68880373 1.3534738e-38
-0.020649759 0.22631335 0.71348375 1.1046177e-38
0.0099953106 0.23081432 0.71801817 1.1600791e-38
0.15679516 0.23600796 0.71702766 1.1047606e-38
0.183244 0.228396 0.70665854 1.1691892e-38
0.21932533 0.22052445 0.70060891 1.279788e-38
0.25995612 0.22080919 0.70025063 1.611584e-38
0.29481539 0.23031071 0.70476538 1.9526724e-38
0.32204175 0.23803811 0.71654552 2.0819625e-38
-0.12206382 0.24213889 0.69580001 8.6559425e-39
-0.097137593 0.25764742 0.69600463 7.1804495e-39
-0.059095927 0.25977084 0.69891852 8.7445326e-39
-0.021192249 0.2579883 0.71082968 9.3891776e-39
0.0073716319 0.25118518 0.71725577 1.0218937e-38
0.1482811 0.2639955 0.70349395 1.0402595e-38
0.17113796 0.24995071 0.69081873 1.104724e-38
0.27912381 0.24026667 0.68000001 1.860584e-38
0.30771744 0.25038275 0.69069099 2.0820348e-38
0.3333753 0.26461199 0.70515257 2.0728873e-38
-0.086517163 0.28313535 0.7162174 6.8138292e-39
-0.058085702 0.28754053 0.71502018 6.9946177e-39
-0.030701295 0.28399101 0.71742445 6.3492483e-39
0.1166276 0.30998239 0.71608102 8.3750172e-39
0.13542844 0.2951133 0.69815552 9.1122235e-39
0.33944497 0.29264918 0.69245583 1.8790964e-38
0.11277492 0.3205578 0.71766675 8.0977115e-39
0.034892067 0.15938051 0.75799996 1.417758e-38
0.050904978 0.15912656 0.7575556 1.5191011e-38
0.15482453 0.15886717 0.75800008 1.3348541e-38
0.17858121 0.15785655 0.75734514 1.4547084e-38
-0.040370479 0.18627207 0.74366677 1.5928565e-38
-0.018026648 0.18523866 0.74050218 1.1873411e-38
0.020638326 0.18101148 0.74024588 1.2887926e-38
0.059584409 0.180079 0.74325961 1.4454891e-38
0.096684091 0.18507771 0.75024545 1.482439e-38
0.1486285 0.18296526 0.74987656 1.1691538e-38
0.1799107 0.18028481 0.74237001 1.3441455e-38
0.21928756 0.18273611 0.74120104 1.5099893e-38
0.25734347 0.18829685 0.74271166 1.7404062e-38
0.29018006 0.19555502 0.75226027 1.9063222e-38
-0.018165899 0.20819578 0.72408634 1.0952899e-38
0.022841098 0.21601152 0.72428548 1.196849e-38
0.059772957 0.21959358 0.73146439 1.1877015e-38
0.099101909 0.21908489 0.74522561 1.0310408e-38
0.14118998 0.22102478 0.73949575 9.665756e-39
0.17621358 0.20949733 0.72489762 1.2152514e-38
0.21723913 0.20340629 0.72206199 1.3625841e-38
0.26284009 0.2039438 0.72523808 1.6851609e-38
0.30266881 0.21272913 0.73569018 1.9525641e-38
0.33660844 0.22568716 0.74402857 2.0448685e-38
0.36810854 0.23432244 0.75541103 1.9159029e-38
-0.10582858 0.2784 0.72000003 6.4439691e-39
-0.0046795467 0.27704686 0.72200018 7.0850085e-39
0.024121828 0.26153487 0.72700363 8.2831901e-39
0.060001314 0.25906658 0.74021214 6.9931688e-39
0.10175573 0.26017112 0.75002629 6.7169406e-39
0.13062437 0.2566812 0.73313594 8.8363583e-39
0.34848809 0.25417033 0.7288816 2.0082783e-38
0.36735564 0.25456929 0.741889 1.7962284e-38
-0.097291179 0.28686029 0.72413647 1.1789497e-38
-0.057594065 0.2958751 0.72023082 1.4285983e-38
-0.015322844 0.2896305 0.72765672 4.32455e-39
0.018566152 0.28854701 0.74077445 3.6795365e-39
0.055597782 0.28500572 0.75467837 4.2305495e-39
0.10586726 0.29987955 0.73863524 7.7303695e-39
0.12233148 0.28429726 0.72262162 9.1122235e-39
0.096086971 0.32637978 0.74387717 6.9942422e-39
0.39344311 0.035180639 0.79752034 1.2244372e-38
0.38402605 0.062093332 0.79540324 1.0405855e-38
0.14740703 0.11822987 0.79645681 1.5376839e-38
0.16961555 0.11760428 0.79692894 1.6390627e-38
0.38216844 0.098307058 0.7939322 6.078069e-39
0.027128622 0.1538115 0.77231556 1.4086104e-38
0.061501857 0.14858973 0.77675527 1.5099533e-38
0.10086448 0.14298703 0.78053528 1.4270133e-38
0.14001344 0.13986415 0.77697313 1.4086106e-38
0.17959006 0.13846351 0.77519441 1.6021487e-38
0.21727562 0.14676625 0.77826858 1.7402983e-38
0.25522125 0.15460308 0.78884733 1.703528e-38
0.28098285 0.15907937 0.79666674 1.666829e-38
0.39065304 0.12375312 0.79766697 4.6965695e-39
-0.040368255 0.17541716 0.77066672 1.1602243e-38
-0.019068789 0.16987354 0.76577502 1.279538e-38
0.0084069418 0.16311346 0.76378256 1.3163795e-38
0.07433036 0.16097203 0.76050007 1.5560872e-38
0.10582878 0.16817105 0.76236606 1.4178299e-38
0.13080609 0.17684565 0.76232052 1.0585917e-38
0.22949369 0.1636159 0.76199979 1.6942011e-38
0.26280299 0.16916704 0.77153647 1.7771769e-38
0.3001242 0.18133926 0.77888143 1.8234185e-38
0.33347467 0.19097674 0.7874223 2.0079538e-38
0.36379734 0.1990699 0.7978 1.9250493e-38
0.11782011 0.23845506 0.76000011 4.6929654e-39
0.1266824 0.20851618 0.76043373 6.7180252e-39
0.31710821 0.2009256 0.76242858 1.9156501e-38
0.34547779 0.20855092 0.77119249 1.9985546e-38
0.37655315 0.21720032 0.78013808 1.9342336e-38
0.40052003 0.21508001 0.79800004 1.8882074e-38
0.10531057 0.26292327 0.76195794 4.3238199e-39
0.12087619 0.2417524 0.76000005 5.9826154e-39
0.071987487 0.30316734 0.78261656 4.0486764e-39
0.088891685 0.29924449 0.77186561 5.0606619e-39
0.077697687 0.32826588 0.78891683 5.0628255e-39
0.083603561 0.33098197 0.76838732 6.3499616e-39
0.39853391 -0.082261913 0.8386001 3.9629772e-39
0.40824786 -0.081755631 0.83687872 4.0548183e-39
0.38953775 -0.049376335 0.83535141 4.9735221e-39
0.40824768 -0.06105331 0.83205485 5.156833e-39
0.38253182 -0.017859899 0.82489657 7.4588357e-39
0.40431488 -0.023796367 0.81610966 9.0247208e-39
0.35327116 0.024739886 0.83132637 9.6668476e-39
0.37766486 0.019011149 0.81237638 1.086323e-38
0.40245193 0.01100097 0.80835307 8.9332581e-39
0.34755206 0.061163146 0.8243221 9.2991385e-39
0.36707345 0.055635501 0.8053177 9.7590419e-39
0.10697739 0.11573459 0.81911683 1.4823311e-38
0.14038178 0.11072996 0.81309551 1.5100614e-38
0.17963941 0.10955303 0.81280947 1.6298794e-38
0.20453818 0.1137969 0.81852847 1.6206235e-38
0.34679368 0.099808589 0.8249051 7.8250888e-39
0.36504719 0.1035663 0.80436492 5.9840657e-39
0.065885581 0.13402553 0.8081274 1.4455603e-38
0.094433606 0.12440421 0.80837446 1.44556e-38
0.12266667 0.12114286 0.80000001 1.4638922e-38
0.19636212 0.12154688 0.80155563 1.7863597e-38
0.22124426 0.13011052 0.80779499 1.6849798e-38
0.26059046 0.14499845 0.81423545 1.5468666e-38
0.30099964 0.15132162 0.8253479 1.4179731e-38
0.34119102 0.14005999 0.83271885 1.1508224e-38
0.37678868 0.13732366 0.81637764 8.1931553e-39
0.40338561 0.14132039 0.80941463 9.5814988e-39
0.30636194 0.16492964 0.80635953 1.6667935e-38
0.34334874 0.17457606 0.81642163 1.934233e-38
0.37679887 0.18457782 0.82353091 1.9250497e-38
0.40888715 0.19468637 0.82982522 1.9065746e-38
0.38997597 0.20493507 0.80388921 1.9341974e-38
0.40567747 0.20593946 0.81316996 1.9065749e-38
0.075665459 0.30399203 0.80254549 3.8632061e-39
0.080400005 0.30245715 0.80400002 3.218564e-39
0.075698182 0.33482417 0.80102861 4.4196169e-39
0.079999998 0.33066666 0.80000001 5.2468608e-39
-0.027966667 0.37395436 0.83900017 2.2101742e-39
0.38124585 -0.08143571 0.86468196 3.3176063e-39
0.42072532 -0.085134156 0.8432858 4.3321198e-39
0.35406935 -0.050593071 0.87172806 2.8559079e-39
0.37751329 -0.062209629 0.8554846 3.1321333e-39
0.40272328 -0.066478245 0.84195238 3.3147267e-39
0.34875458 -0.018551691 0.86362493 5.9844273e-39
0.36636436 -0.027507953 0.84870118 3.8689753e-39
0.31845081 0.021307075 0.87500018 1.2151449e-38
0.33751282 0.020355869 0.8586325 1.0494803e-38
0.31706589 0.072425984 0.87293434 1.1968848e-38
0.32885894 0.059018593 0.85704911 1.0587715e-38
0.12388445 0.10967048 0.84466666 1.4822641e-38
0.30983028 0.10416205 0.86464763 1.1968841e-38
0.32698226 0.09894143 0.84785169 1.077102e-38
0.2376048 0.13094158 0.87372738 1.3442534e-38
0.26362163 0.13321197 0.86169225 1.325886e-38
0.29949746 0.13123077 0.85234016 1.2245427e-38
0.3241635 0.1276152 0.84223306 1.1323468e-38
0.38223711 0.15646371 0.84350705 1.6486063e-38
0.38879457 0.16865611 0.84675241 2.0171731e-38
0.41666993 0.18494202 0.85916364 1.8235984e-38
-0.041870002 0.35743049 0.8662501 2.8569771e-39
-0.018420747 0.35447109 0.86114496 1.933946e-39
0.010283412 0.35585272 0.86801159 1.1971013e-39
-0.045572437 0.36929113 0.86362046 3.1324906e-39
-0.020103598 0.36820248 0.85002857 1.9339474e-39
0.019629143 0.37121952 0.86050385 1.104907e-39
0.04769551 0.38542241 0.87418032 1.4729735e-39
0.34433866 -0.051055618 0.89186037 3.4079999e-39
0.36540535 -0.07227467 0.88040012 3.1325046e-39
0.31929928 -0.0053068483 0.89428574 1.012674e-38
0.33183631 -0.019059474 0.88721615 8.6526957e-39
0.3174068 0.019823683 0.90223408 8.0120094e-39
0.32569239 0.015000992 0.88850391 1.0218938e-38
0.31418392 0.062303152 0.89673674 1.0958658e-38
0.32159081 0.046441514 0.88288224 1.1785175e-38
0.23337218 0.11658973 0.89982241 1.3997519e-38
0.26546255 0.11645526 0.90186977 1.3074476e-38
0.29700568 0.10026845 0.89493269 1.2337986e-38
0.23314604 0.12420364 0.88708591 1.3349976e-38
0.25884771 0.12308811 0.88585955 1.3351056e-38
0.28230733 0.12058794 0.88133335 1.3166303e-38
0.42833155 0.17927128 0.88606685 1.7867555e-38
0.44928893 0.18558306 0.89925015 1.620768e-38
0.025167447 0.35593933 0.88628334 1.6573591e-39
0.045309659 0.35748219 0.90885717 3.0388629e-39
-0.053470477 0.36457142 0.88000011 4.5139901e-39
0.035661958 0.36509961 0.88570917 1.6580808e-39
0.059785776 0.37998107 0.89973432 2.3952871e-39
0.081991039 0.38640124 0.91585714 3.5005473e-39
0.3147352 0.020259878 0.92173344 4.6908172e-39
0.31699571 0.042985555 0.92116678 4.8820398e-39
0.28388572 0.10777143 0.92000002 1.5386938e-38
0.43809524 0.17611428 0.92000002 1.7589554e-38
0.44991192 0.18126084 0.9257648 1.6483192e-38
0.060118861 0.35907945 0.92820007 3.9604464e-39
0.066824041 0.36916566 0.92707229 3.5005599e-39
0.18455365 0.19074452 0.73128843 1.1417476e-38
0.047933813 0.14134187 0.75915313 1.3358283e-38
-0.10819091 0.26215944 0.8864423 1.068677e-38
-0.015206191 -0.039652064 0.5360834 1.3180391e-38
0.031898491 0.057637256 0.61415786 1.2527811e-38
-0.025141846 -0.020611271 0.57960373 1.050564e-38
0.30551106 0.16945602 0.7664206 1.2431633e-38
