# .PCD v0.7 - Point Cloud Data file format
VERSION 0.7
FIELDS x y z rgb
SIZE 4 4 4 4
TYPE F F F F
COUNT 1 1 1 1
WIDTH 1019
HEIGHT 1
VIEWPOINT 0 0 0 1 0 0 0
POINTS 1019
DATA ascii
-0.63694477 -0.50101143 2.039 1.5841433e-38
-0.70065004 -0.46364459 2.0042002 1.5841433e-38
-0.65941501 -0.45949551 2.0193152 1.5841433e-38
-0.63013595 -0.45330265 2.0378845 1.5841433e-38
-0.65377104 -0.42358699 2.0047138 1.5841433e-38
-0.62169486 -0.41890693 2.0265965 1.5841433e-38
-0.5935756 -0.40974194 2.039 1.5841433e-38
-0.64777297 -0.38979015 2.0029995 1.5841433e-38
-0.6186105 -0.3800672 2.0145552 1.5841433e-38
-0.58648515 -0.3748143 2.0368955 1.5841433e-38
-0.5417915 -0.37719193 2.0390007 1.5841433e-38
-0.61190134 -0.34665343 2.0069993 1.5841433e-38
-0.57892597 -0.33965373 2.0193741 1.5841433e-38
-0.53893894 -0.33883044 2.0317738 1.5841433e-38
-0.51325029 -0.33231044 2.0375004 1.5841433e-38
1.0539688 -0.34226066 2.0389998 1.5841433e-38
-0.57613468 -0.30523223 2.0054934 1.5841433e-38
-0.54020196 -0.29896292 2.0148947 1.5841433e-38
-0.50513721 -0.29795662 2.03285 1.5841433e-38
-0.47091195 -0.28740191 2.0390005 1.5841433e-38
1.0374936 -0.29165217 2.0314999 1.5841433e-38
1.0438796 -0.2991665 2.0244739 1.5841433e-38
-0.53504288 -0.27073127 2.0053995 1.5841433e-38
-0.49747843 -0.26192158 2.0177691 1.5841433e-38
-0.46391574 -0.25788462 2.035445 1.5841433e-38
-0.43498668 -0.2427381 2.039 1.5841433e-38
1.035648 -0.25681871 2.0376666 1.5841433e-38
1.0462519 -0.26126602 2.0297699 1.5841433e-38
-0.48991337 -0.22396816 2.0065286 1.5841433e-38
-0.46013543 -0.21983801 2.0214248 1.5841433e-38
-0.42995736 -0.21722268 2.0385394 1.5841433e-38
1.0332339 -0.21945637 2.0274711 1.5841433e-38
1.0469849 -0.22494669 2.0278003 1.5841433e-38
-0.45278049 -0.18303193 2.0121267 1.5841433e-38
-0.42077529 -0.178267 2.0312607 1.5841433e-38
-0.38487494 -0.17007948 2.0377243 1.5841433e-38
1.0279958 -0.1882426 2.0212071 1.5841433e-38
-0.44193172 -0.15706065 2.003 1.5841433e-38
-0.41605943 -0.14251079 2.0156596 1.5841433e-38
-0.3813619 -0.13876562 2.0321083 1.5841433e-38
-0.35925236 -0.12428191 2.039 1.5841433e-38
-0.40747958 -0.10555951 2.0065289 1.5841433e-38
-0.37985072 -0.099911824 2.0174413 1.5841433e-38
-0.34611249 -0.096062824 2.0334482 1.5841433e-38
-0.37803537 -0.068913877 2.0077991 1.5841433e-38
-0.33934546 -0.060530979 2.0248082 1.5841433e-38
-0.31416214 -0.052370638 2.036273 1.5841433e-38
-0.27510318 -0.043369204 2.039 1.5841433e-38
-0.33322394 -0.020975552 2.0104804 1.5841433e-38
-0.30495387 -0.017447373 2.0277696 1.5841433e-38
-0.27646667 -0.0029042857 2.0300002 1.5841433e-38
-0.32461333 0.0031812699 2.0050001 1.5841433e-38
-0.29861704 0.01742373 2.0149994 1.5841433e-38
-0.27546003 0.018145716 2.0205717 1.5841433e-38
-0.29317763 0.05048193 2.0060849 1.5841433e-38
-0.27606669 0.04409048 2.0130002 1.5841433e-38
-0.011651428 0.35731047 2.039 1.5841433e-38
-0.0087505002 0.38054097 2.0261629 1.5841433e-38
0.0050489521 0.3843677 2.0389998 1.5841433e-38
-0.53924531 0.22498803 1.7692215 1.5841433e-38
-0.74898523 -0.53748721 1.9487011 1.5841433e-38
-0.80412602 -0.79200739 2.0597224 1.5841433e-38
-0.60649729 -0.17284834 1.9121344 1.5841433e-38
-0.61634743 -0.14043875 1.896293 1.5841433e-38
-0.5522542 -0.64095235 2.0374002 1.5841433e-38
-0.50864708 -0.58770204 2.0324476 1.5841433e-38
-0.23025423 -0.17812663 1.9650285 1.5841433e-38
-0.27216712 -0.42324534 1.9121729 1.5841433e-38
-0.22613098 -0.61087441 1.8556682 1.5841433e-38
-0.29484522 -0.79593235 2.0463948 1.5841433e-38
-0.35787639 -0.78563541 2.0438943 1.5841433e-38
-0.39621747 -0.76896304 2.0493438 1.5841433e-38
-0.35289904 -0.74748915 2.0460067 1.5841433e-38
-0.35403404 -0.68474609 2.0259228 1.5841433e-38
-0.25827962 -0.69619161 2.0331275 1.5841433e-38
-0.21252008 -0.69579804 2.0336995 1.5841433e-38
-0.18882234 -0.61890197 2.0283134 1.5841433e-38
-0.073575556 -0.80412221 2.0510001 1.5841433e-38
-0.031253334 -0.80282003 2.0510001 1.5841433e-38
-0.84449112 -0.79630899 2.0510004 1.5841433e-38
-0.81926382 -0.78034139 2.0604429 1.5841433e-38
-0.7895785 -0.7795952 2.0716686 1.5841433e-38
-0.36181718 -0.79678869 2.0760002 1.5841433e-38
-0.34002814 -0.79774523 2.0716667 1.5841433e-38
-0.29719192 -0.79609698 2.0750003 1.5841433e-38
-0.25212505 -0.79801852 2.0704286 1.5841433e-38
-0.21632983 -0.79273176 2.0641677 1.5841433e-38
-0.1830364 -0.79546958 2.0647054 1.5841433e-38
-0.13900301 -0.7900998 2.066632 1.5841433e-38
-0.09974888 -0.79286498 2.069308 1.5841433e-38
-0.058361452 -0.78464627 2.059603 1.5841433e-38
-0.020844221 -0.78820264 2.0616167 1.5841433e-38
0.022758754 -0.78112769 2.063015 1.5841433e-38
0.056657657 -0.78168356 2.0604093 1.5841433e-38
0.098208286 -0.77204311 2.0628219 1.5841433e-38
0.14116514 -0.76933193 2.0650163 1.5841433e-38
0.18108036 -0.77139258 2.0665324 1.5841433e-38
0.21878874 -0.76873904 2.0632966 1.5841433e-38
0.25927258 -0.76542753 2.0595963 1.5841433e-38
0.29951024 -0.76516056 2.0567281 1.5841433e-38
0.3363848 -0.76534897 2.0575721 1.5841433e-38
0.38445938 -0.76340306 2.0564001 1.5841433e-38
0.41034114 -0.76337433 2.0580587 1.5841433e-38
0.46880004 -0.76375335 2.0510004 1.5841433e-38
0.50200671 -0.7649554 2.0510006 1.5841433e-38
0.53630924 -0.76313698 2.0531821 1.5841433e-38
0.56451333 -0.76375335 2.0510001 1.5841433e-38
-0.81510562 -0.7487604 2.0522003 1.5841433e-38
-0.77868795 -0.73799807 2.0627885 1.5841433e-38
-0.74312335 -0.72504658 2.0760002 1.5841433e-38
0.1146743 -0.75724578 2.0760002 1.5841433e-38
0.13929872 -0.75688642 2.0760002 1.5841433e-38
0.18387429 -0.75592768 2.0760002 1.5841433e-38
0.22078098 -0.75592786 2.0760002 1.5841433e-38
0.26726583 -0.74815404 2.0720665 1.5841433e-38
0.29799059 -0.75058854 2.0690207 1.5841433e-38
0.34139687 -0.75413334 2.069736 1.5841433e-38
0.38000298 -0.75108206 2.0657284 1.5841433e-38
0.42254028 -0.74557561 2.063915 1.5841433e-38
0.46052033 -0.74407214 2.0604596 1.5841433e-38
0.50048482 -0.74600232 2.0626538 1.5841433e-38
0.54120415 -0.74542546 2.0632 1.5841433e-38
0.57909459 -0.7386564 2.0583158 1.5841433e-38
0.62110746 -0.73308915 2.0574622 1.5841433e-38
0.6567719 -0.73063207 2.0597241 1.5841433e-38
0.70079666 -0.72317165 2.0539997 1.5841433e-38
0.7408542 -0.72368449 2.0560002 1.5841433e-38
0.76857388 -0.72182459 2.0580003 1.5841433e-38
0.83798003 -0.72078001 2.0510001 1.5841433e-38
0.84188676 -0.72078001 2.0510001 1.5841433e-38
-0.77670324 -0.70296836 2.0539269 1.5841433e-38
-0.74001735 -0.69658774 2.06726 1.5841433e-38
-0.71720862 -0.69496572 2.0760002 1.5841433e-38
0.59907436 -0.70188582 2.0760002 1.5841433e-38
0.62595379 -0.71450764 2.0740001 1.5841433e-38
0.67391205 -0.71696162 2.0550003 1.5841433e-38
0.69677866 -0.71681345 2.0620911 1.5841433e-38
0.74129349 -0.70971298 2.0653081 1.5841433e-38
0.77981919 -0.70952022 2.066263 1.5841433e-38
0.81966579 -0.70214361 2.0644951 1.5841433e-38
0.86112458 -0.69326442 2.0597506 1.5841433e-38
0.89588135 -0.68532336 2.0619395 1.5841433e-38
0.94222659 -0.68396312 2.0607498 1.5841433e-38
0.97501558 -0.68284088 2.0576367 1.5841433e-38
1.0230552 -0.68967098 2.0593336 1.5841433e-38
1.061218 -0.69789231 2.0634446 1.5841433e-38
1.0814973 -0.69200009 2.0760002 1.5841433e-38
-0.76592368 -0.66413343 2.0510001 1.5841433e-38
-0.74122822 -0.66113776 2.0569444 1.5841433e-38
-0.70071691 -0.65506285 2.0659883 1.5841433e-38
-0.67816007 -0.64850295 2.0760002 1.5841433e-38
0.91124779 -0.67618871 2.0684004 1.5841433e-38
0.94254315 -0.67257267 2.0692921 1.5841433e-38
0.9817282 -0.67004144 2.0711756 1.5841433e-38
1.0180531 -0.66881692 2.0669637 1.5841433e-38
1.0547502 -0.67151999 2.0711381 1.5841433e-38
1.0814973 -0.67816007 2.0760002 1.5841433e-38
-0.73499221 -0.6241914 2.0510008 1.5841433e-38
-0.69564623 -0.62043476 2.0589669 1.5841433e-38
-0.67527485 -0.61680496 2.07444 1.5841433e-38
-0.72468674 -0.59706897 2.0510004 1.5841433e-38
-0.69231868 -0.58124357 2.0513432 1.5841433e-38
-0.66681218 -0.57839733 2.0656221 1.5841433e-38
-0.63861722 -0.56348574 2.0760002 1.5841433e-38
-0.68479753 -0.54210138 2.0510001 1.5841433e-38
-0.66027445 -0.54012567 2.054471 1.5841433e-38
-0.63118941 -0.53764689 2.0681067 1.5841433e-38
1.0735887 -0.53156912 2.0760002 1.5841433e-38
-0.68483871 -0.51607066 2.0510004 1.5841433e-38
-0.65369314 -0.50389272 2.0509996 1.5841433e-38
-0.62279797 -0.49879569 2.0607717 1.5841433e-38
-0.59468067 -0.48352131 2.0760002 1.5841433e-38
-0.55755436 -0.48044574 2.0760002 1.5841433e-38
1.0722705 -0.50944382 2.0760002 1.5841433e-38
-0.61524642 -0.46427342 2.0526443 1.5841433e-38
-0.58855468 -0.4548136 2.0720327 1.5841433e-38
-0.55263674 -0.45489487 2.0760009 1.5841433e-38
1.0659733 -0.45755854 2.0727518 1.5841433e-38
-0.60406834 -0.42533836 2.0510004 1.5841433e-38
-0.58115691 -0.4195019 2.0582025 1.5841433e-38
-0.54142308 -0.41727507 2.0666757 1.5841433e-38
-0.51471627 -0.40729147 2.0760002 1.5841433e-38
1.0350343 -0.4063029 2.0760002 1.5841433e-38
1.0599657 -0.41751942 2.0707061 1.5841433e-38
-0.57144219 -0.38362741 2.0510008 1.5841433e-38
-0.53336316 -0.38101134 2.0575676 1.5841433e-38
-0.5035522 -0.37753916 2.0760026 1.5841433e-38
-0.47517335 -0.36313528 2.0760002 1.5841433e-38
1.0334685 -0.37691 2.0754802 1.5841433e-38
1.0563332 -0.38109615 2.0692849 1.5841433e-38
-0.56158334 -0.35453004 2.0510001 1.5841433e-38
-0.55670011 -0.35355338 2.0510001 1.5841433e-38
-0.49621516 -0.34200579 2.0634363 1.5841433e-38
-0.46962145 -0.33311594 2.0749466 1.5841433e-38
1.0352401 -0.33881685 2.069526 1.5841433e-38
1.0500239 -0.34032288 2.0562651 1.5841433e-38
-0.49080917 -0.31042805 2.0526547 1.5841433e-38
-0.45729801 -0.30210683 2.0655193 1.5841433e-38
-0.4319047 -0.28822684 2.073524 1.5841433e-38
1.033069 -0.30279097 2.0702055 1.5841433e-38
1.0430764 -0.30341688 2.0614812 1.5841433e-38
-0.44860861 -0.26738816 2.0558746 1.5841433e-38
-0.42181981 -0.25909135 2.0688212 1.5841433e-38
-0.38718 -0.25330693 2.0738926 1.5841433e-38
1.0268117 -0.25924778 2.0676982 1.5841433e-38
1.0429094 -0.26144606 2.0536668 1.5841433e-38
-0.41212776 -0.2216624 2.0625927 1.5841433e-38
-0.37940276 -0.22009826 2.0684824 1.5841433e-38
-0.35117397 -0.20850639 2.0746317 1.5841433e-38
0.99430525 -0.21333376 2.0760002 1.5841433e-38
1.0182142 -0.21935651 2.0629251 1.5841433e-38
-0.4035587 -0.19572401 2.0510004 1.5841433e-38
-0.37589967 -0.1860881 2.0545421 1.5841433e-38
-0.34364522 -0.1798951 2.0699296 1.5841433e-38
-0.31323597 -0.16184328 2.0760002 1.5841433e-38
0.99252576 -0.19573715 2.0760002 1.5841433e-38
1.0186428 -0.19099464 2.0639462 1.5841433e-38
1.0432887 -0.17682859 2.0630002 1.5841433e-38
-0.36347029 -0.14499746 2.0510006 1.5841433e-38
-0.34009352 -0.14088754 2.0616558 1.5841433e-38
-0.30576673 -0.1394984 2.0760021 1.5841433e-38
-0.26938573 -0.12851429 2.0760002 1.5841433e-38
-0.33048454 -0.10738925 2.0556676 1.5841433e-38
-0.30078036 -0.098648101 2.0693424 1.5841433e-38
-0.27246359 -0.10023914 2.0734644 1.5841433e-38
-0.29702142 -0.060350172 2.0573459 1.5841433e-38
-0.27512497 -0.064556926 2.0608823 1.5841433e-38
-0.2882975 -0.024754956 2.0537429 1.5841433e-38
-0.27932668 -0.02344 2.0510001 1.5841433e-38
-0.0059314291 0.31832001 2.0760002 1.5841433e-38
-0.0049724183 0.34057039 2.0590386 1.5841433e-38
0.017400205 0.34565026 2.0640907 1.5841433e-38
-0.0058600004 0.36415717 2.0510004 1.5841433e-38
0.020862296 0.37604007 2.054374 1.5841433e-38
0.047737435 0.37511036 2.0709002 1.5841433e-38
0.01172 0.40043333 2.0510001 1.5841433e-38
-0.45000333 0.46933055 1.7133591 1.5841433e-38
-0.59994376 -0.45624197 1.9888577 1.5841433e-38
-0.63888705 -0.63489777 2.0582168 1.5841433e-38
-0.62834388 -0.66817445 2.0744412 1.5841433e-38
-0.59217209 -0.62368339 2.0759568 1.5841433e-38
-0.60203654 -0.68811345 2.069658 1.5841433e-38
-0.57305551 -0.72928005 2.0782909 1.5841433e-38
-0.53879863 -0.80637568 2.1012642 1.5841433e-38
-0.49652353 -0.78369242 2.0920529 1.5841433e-38
-0.46234351 -0.80926663 2.0973158 1.5841433e-38
-0.42256737 -0.80804747 2.0974739 1.5841433e-38
-0.38377136 -0.80282128 2.0952222 1.5841433e-38
-0.32837194 -0.80215698 2.0981114 1.5841433e-38
-0.31815144 -0.80238193 2.1010001 1.5841433e-38
-0.26369774 -0.80151784 2.0896251 1.5841433e-38
-0.77468389 -0.78065193 2.0887868 1.5841433e-38
-0.74125272 -0.78058988 2.0987701 1.5841433e-38
-0.71124798 -0.77928406 2.1080196 1.5841433e-38
-0.56783295 -0.79571146 2.112143 1.5841433e-38
-0.54263711 -0.79579204 2.1139996 1.5841433e-38
-0.50736004 -0.79929346 2.1140003 1.5841433e-38
-0.44864601 -0.79784369 2.1110001 1.5841433e-38
-0.40930581 -0.79154682 2.1104543 1.5841433e-38
-0.38108635 -0.79307461 2.1108153 1.5841433e-38
-0.34042108 -0.79377908 2.1069288 1.5841433e-38
-0.29836285 -0.79050231 2.1051991 1.5841433e-38
-0.26064226 -0.78890419 2.1059513 1.5841433e-38
-0.22136618 -0.77747858 2.1022847 1.5841433e-38
-0.17962445 -0.78017753 2.1029897 1.5841433e-38
-0.1416079 -0.7723797 2.1013458 1.5841433e-38
-0.099550426 -0.77717006 2.1014805 1.5841433e-38
-0.061507013 -0.77018148 2.0960975 1.5841433e-38
-0.018976133 -0.77123934 2.0914402 1.5841433e-38
0.01714717 -0.76784819 2.0918229 1.5841433e-38
0.063297801 -0.7677834 2.0913908 1.5841433e-38
0.089848116 -0.76638055 2.0925221 1.5841433e-38
0.16372573 -0.76294863 2.0880001 1.5841433e-38
0.24658287 -0.76162291 2.0880001 1.5841433e-38
-0.76250672 -0.74173719 2.0880001 1.5841433e-38
-0.73999929 -0.74153531 2.0922313 1.5841433e-38
-0.7031436 -0.73913789 2.1027777 1.5841433e-38
-0.23958667 -0.75902671 2.1140001 1.5841433e-38
-0.16811332 -0.75651002 2.1140001 1.5841433e-38
-0.14582287 -0.75902671 2.1140003 1.5841433e-38
-0.055071577 -0.75447786 2.1084845 1.5841433e-38
-0.017244494 -0.75480056 2.1079993 1.5841433e-38
0.017671214 -0.75438964 2.1078246 1.5841433e-38
0.061507758 -0.75284755 2.1061456 1.5841433e-38
0.10200759 -0.74987358 2.1029687 1.5841433e-38
0.13895181 -0.75054938 2.0991421 1.5841433e-38
0.1803434 -0.74785608 2.0968542 1.5841433e-38
0.22000471 -0.74714214 2.0982525 1.5841433e-38
0.25797296 -0.74063432 2.0982134 1.5841433e-38
0.30048653 -0.73690689 2.1040263 1.5841433e-38
0.33799404 -0.73852551 2.1020215 1.5841433e-38
0.38001662 -0.73968792 2.1045444 1.5841433e-38
0.41836503 -0.73136389 2.102886 1.5841433e-38
0.46012273 -0.72690529 2.1005092 1.5841433e-38
0.50052017 -0.72811961 2.0975327 1.5841433e-38
0.54122072 -0.72802478 2.0976086 1.5841433e-38
0.57800615 -0.7266407 2.0975332 1.5841433e-38
0.60949713 -0.72334284 2.0880001 1.5841433e-38
0.66347963 -0.72384018 2.0907371 1.5841433e-38
0.70693719 -0.72350854 2.0879998 1.5841433e-38
0.7397486 -0.72251427 2.0879998 1.5841433e-38
-0.73825717 -0.71588576 2.0880001 1.5841433e-38
-0.69908857 -0.70026553 2.093734 1.5841433e-38
-0.665833 -0.69633812 2.1080317 1.5841433e-38
0.43338448 -0.71373987 2.1120002 1.5841433e-38
0.4554742 -0.71362257 2.1136055 1.5841433e-38
0.50176156 -0.71545666 2.1113999 1.5841433e-38
0.54126573 -0.71278638 2.1120627 1.5841433e-38
0.58483285 -0.7120899 2.1072669 1.5841433e-38
0.61930811 -0.70482606 2.1032228 1.5841433e-38
0.66130644 -0.70873117 2.1045127 1.5841433e-38
0.69917715 -0.70765632 2.1009986 1.5841433e-38
0.74066257 -0.70751458 2.1025283 1.5841433e-38
0.7777366 -0.69794714 2.0959122 1.5841433e-38
0.81940448 -0.69212925 2.0986116 1.5841433e-38
0.85951757 -0.689619 2.0985336 1.5841433e-38
0.89103526 -0.68508047 2.0966666 1.5841433e-38
-0.69117063 -0.67242128 2.0880003 1.5841433e-38
-0.65967053 -0.65964693 2.098635 1.5841433e-38
-0.63520664 -0.65206832 2.1140001 1.5841433e-38
0.86526579 -0.67637128 2.1064169 1.5841433e-38
0.90393573 -0.67441684 2.1010001 1.5841433e-38
0.93736547 -0.66419327 2.1036973 1.5841433e-38
0.97831804 -0.65569919 2.1043582 1.5841433e-38
1.0204805 -0.65158749 2.1032493 1.5841433e-38
1.0599031 -0.66188926 2.0988328 1.5841433e-38
1.0915377 -0.65994924 2.1112623 1.5841433e-38
-0.65751004 -0.62223178 2.094424 1.5841433e-38
-0.62850451 -0.61803001 2.1059828 1.5841433e-38
0.986821 -0.63535053 2.1140003 1.5841433e-38
1.0066667 -0.63822669 2.1140001 1.5841433e-38
1.0893326 -0.61844176 2.1078975 1.5841433e-38
-0.65058535 -0.58684355 2.0880001 1.5841433e-38
-0.62207687 -0.57976294 2.0986967 1.5841433e-38
-0.59040201 -0.56860298 2.1096668 1.5841433e-38
1.0766922 -0.56650913 2.1118336 1.5841433e-38
1.0884268 -0.58112812 2.1079993 1.5841433e-38
-0.61220163 -0.54059166 2.0923324 1.5841433e-38
-0.58320785 -0.53929049 2.1085823 1.5841433e-38
-0.55273747 -0.52640927 2.1140003 1.5841433e-38
1.0713725 -0.53832841 2.1022992 1.5841433e-38
1.0853248 -0.54998481 2.0923333 1.5841433e-38
-0.60815197 -0.5105949 2.0879998 1.5841433e-38
-0.58118117 -0.5024159 2.0966148 1.5841433e-38
-0.54202622 -0.49770769 2.1037271 1.5841433e-38
-0.51742667 -0.48118669 2.1140001 1.5841433e-38
1.0648576 -0.49959537 2.1045442 1.5841433e-38
1.0835621 -0.49566811 2.0901668 1.5841433e-38
-0.57731843 -0.46758544 2.0879996 1.5841433e-38
-0.53579259 -0.46341056 2.0905621 1.5841433e-38
-0.50970018 -0.45532116 2.1038592 1.5841433e-38
1.0330415 -0.45219466 2.1139998 1.5841433e-38
1.0507888 -0.45984402 2.1005399 1.5841433e-38
-0.52796578 -0.4351657 2.0879998 1.5841433e-38
-0.50018519 -0.4206242 2.0950403 1.5841433e-38
-0.45909038 -0.40747729 2.1126544 1.5841433e-38
1.0326287 -0.41771823 2.1039178 1.5841433e-38
1.0482804 -0.42792687 2.0930557 1.5841433e-38
-0.48930895 -0.39140689 2.0895603 1.5841433e-38
-0.46021235 -0.3793782 2.1007359 1.5841433e-38
-0.4230237 -0.36351851 2.1140001 1.5841433e-38
-0.39394221 -0.36307114 2.1140001 1.5841433e-38
1.0284172 -0.38111165 2.1021807 1.5841433e-38
1.0420115 -0.39572573 2.0880001 1.5841433e-38
-0.45645958 -0.3438004 2.0918584 1.5841433e-38
-0.42282304 -0.33639702 2.1029639 1.5841433e-38
-0.38769108 -0.33535329 2.1137538 1.5841433e-38
1.0254778 -0.33996964 2.1009989 1.5841433e-38
1.0411375 -0.34216285 2.1010003 1.5841433e-38
-0.44345143 -0.31618285 2.0880001 1.5841433e-38
-0.41790512 -0.30208433 2.0929742 1.5841433e-38
-0.380665 -0.29844734 2.1064935 1.5841433e-38
-0.35240811 -0.29211536 2.1103892 1.5841433e-38
1.0240154 -0.29915655 2.1001205 1.5841433e-38
-0.40646401 -0.27004799 2.0880001 1.5841433e-38
-0.37546289 -0.26470473 2.0961242 1.5841433e-38
-0.34496462 -0.257415 2.0993962 1.5841433e-38
0.99614459 -0.25466418 2.1087999 1.5841433e-38
1.0077939 -0.26136765 2.0967302 1.5841433e-38
-0.36390856 -0.23663999 2.0880001 1.5841433e-38
-0.33695909 -0.22324571 2.0997272 1.5841433e-38
-0.30491278 -0.21416564 2.1122491 1.5841433e-38
-0.27381334 -0.20334667 2.1140001 1.5841433e-38
0.98960501 -0.21731143 2.1054387 1.5841433e-38
1.0024706 -0.23293288 2.1024442 1.5841433e-38
-0.32432041 -0.18434729 2.0915458 1.5841433e-38
-0.30038697 -0.18130776 2.1070838 1.5841433e-38
-0.27285042 -0.17358436 2.1139996 1.5841433e-38
0.98978388 -0.19676445 2.1010003 1.5841433e-38
-0.28889728 -0.1394452 2.0907207 1.5841433e-38
-0.26695624 -0.1493019 2.0995145 1.5841433e-38
-0.2876156 -0.11491778 2.0923336 1.5841433e-38
0.022146668 0.23757334 2.1140001 1.5841433e-38
0.024591826 0.26909381 2.1046276 1.5841433e-38
0.048869092 0.27509457 2.1140003 1.5841433e-38
-0.0026514286 0.30955431 2.0880003 1.5841433e-38
0.021084817 0.29997844 2.0949135 1.5841433e-38
0.047748871 0.30155867 2.1113997 1.5841433e-38
-0.0039771427 0.32214856 2.0880001 1.5841433e-38
0.024158141 0.32792568 2.0886188 1.5841433e-38
0.056092735 0.34307858 2.1013048 1.5841433e-38
0.089593336 0.35334 2.1140001 1.5841433e-38
0.062314987 0.36805695 2.0937357 1.5841433e-38
0.085231118 0.36307108 2.1140003 1.5841433e-38
0.0039771427 0.40964574 2.0880001 1.5841433e-38
-0.69374359 -0.8059383 2.1322808 1.5841433e-38
-0.65977472 -0.80514163 2.1373405 1.5841433e-38
-0.62119633 -0.8046034 2.1364248 1.5841433e-38
-0.58821768 -0.80226433 2.1283004 1.5841433e-38
-0.52465999 -0.80015725 2.1270003 1.5841433e-38
-0.49367854 -0.80254042 2.1270003 1.5841433e-38
-0.46945933 -0.80167639 2.1270001 1.5841433e-38
-0.43031964 -0.80073601 2.1270001 1.5841433e-38
-0.69526356 -0.78357387 2.1368544 1.5841433e-38
-0.66001749 -0.77912825 2.1456723 1.5841433e-38
-0.62214428 -0.78780681 2.1509473 1.5841433e-38
-0.57688087 -0.78413856 2.1416476 1.5841433e-38
-0.54046482 -0.78469425 2.1382663 1.5841433e-38
-0.50001591 -0.7884537 2.1405413 1.5841433e-38
-0.46014875 -0.78775269 2.1417568 1.5841433e-38
-0.42053306 -0.77999723 2.1378329 1.5841433e-38
-0.38015616 -0.77422971 2.1373436 1.5841433e-38
-0.34097627 -0.77575904 2.1385553 1.5841433e-38
-0.3006779 -0.77374518 2.1384239 1.5841433e-38
-0.26085415 -0.77144825 2.1373515 1.5841433e-38
-0.21772265 -0.76332206 2.1384521 1.5841433e-38
-0.19125934 -0.76248842 2.1377058 1.5841433e-38
-0.13063528 -0.7619583 2.1413684 1.5841433e-38
-0.10064648 -0.7643559 2.1383398 1.5841433e-38
-0.077738784 -0.76193535 2.1400001 1.5841433e-38
-0.68616468 -0.74564701 2.1270001 1.5841433e-38
-0.66016614 -0.74060673 2.1404059 1.5841433e-38
-0.6291613 -0.73599887 2.1526389 1.5841433e-38
-0.35063145 -0.75662571 2.1530001 1.5841433e-38
-0.24312265 -0.75467008 2.1452 1.5841433e-38
-0.22118987 -0.75512058 2.14832 1.5841433e-38
-0.1783413 -0.75258398 2.1463723 1.5841433e-38
-0.14065197 -0.75455308 2.1438046 1.5841433e-38
-0.1015293 -0.75042045 2.1517 1.5841433e-38
-0.0588133 -0.74111784 2.1436911 1.5841433e-38
-0.021636875 -0.7392202 2.1406562 1.5841433e-38
0.021370132 -0.73852909 2.1418195 1.5841433e-38
0.061071645 -0.73950773 2.1436021 1.5841433e-38
0.099876657 -0.73408687 2.1382666 1.5841433e-38
0.13966262 -0.73326993 2.1342592 1.5841433e-38
0.17826438 -0.73321611 2.1336801 1.5841433e-38
0.22016679 -0.73185289 2.1346464 1.5841433e-38
0.25556034 -0.72967666 2.1339328 1.5841433e-38
0.30140498 -0.72531223 2.1270001 1.5841433e-38
0.34335861 -0.72561085 2.1270001 1.5841433e-38
0.37943631 -0.72791511 2.12871 1.5841433e-38
0.41040975 -0.72520572 2.1270003 1.5841433e-38
-0.65042681 -0.70595473 2.1288567 1.5841433e-38
-0.62612277 -0.69923133 2.1449366 1.5841433e-38
-0.57846212 -0.68690962 2.1530001 1.5841433e-38
-0.048527941 -0.7197172 2.1530004 1.5841433e-38
0.012302857 -0.7197172 2.1530001 1.5841433e-38
0.10867524 -0.71835029 2.1530004 1.5841433e-38
0.14115991 -0.71651173 2.1505001 1.5841433e-38
0.1789389 -0.71671933 2.149657 1.5841433e-38
0.21762474 -0.71684259 2.1483572 1.5841433e-38
0.26314437 -0.71333909 2.1434486 1.5841433e-38
0.30120692 -0.71462125 2.140945 1.5841433e-38
0.3398715 -0.71131253 2.1357372 1.5841433e-38
0.38274071 -0.71091181 2.1445301 1.5841433e-38
0.42052057 -0.70954472 2.1405339 1.5841433e-38
0.45941091 -0.69886971 2.1444428 1.5841433e-38
0.50070918 -0.70524019 2.1427364 1.5841433e-38
0.53675735 -0.70202345 2.1395433 1.5841433e-38
0.57968003 -0.70069486 2.1445773 1.5841433e-38
0.61925334 -0.69208902 2.1424234 1.5841433e-38
0.65959924 -0.69005978 2.1372914 1.5841433e-38
0.700831 -0.69038391 2.1388178 1.5841433e-38
0.73916656 -0.69170505 2.1379361 1.5841433e-38
0.77726895 -0.68726474 2.1369996 1.5841433e-38
0.81822878 -0.68660629 2.1281466 1.5841433e-38
0.84371006 -0.68367863 2.1270001 1.5841433e-38
-0.6441772 -0.67861432 2.1270001 1.5841433e-38
-0.61849093 -0.6613459 2.1411695 1.5841433e-38
-0.57777876 -0.65778524 2.1493888 1.5841433e-38
-0.55978006 -0.65820289 2.1530001 1.5841433e-38
0.62949622 -0.67642933 2.1530001 1.5841433e-38
0.66528642 -0.67516589 2.1530001 1.5841433e-38
0.70264441 -0.67305422 2.1526487 1.5841433e-38
0.74085754 -0.67711025 2.1515555 1.5841433e-38
0.78359729 -0.67376709 2.1453528 1.5841433e-38
0.82028675 -0.66993839 2.1419859 1.5841433e-38
0.85965252 -0.66582495 2.1380737 1.5841433e-38
0.90041649 -0.66404068 2.1386547 1.5841433e-38
0.93895435 -0.6537016 2.1373994 1.5841433e-38
0.97498631 -0.64426792 2.1283684 1.5841433e-38
1.0228356 -0.6438269 2.1280837 1.5841433e-38
1.0615295 -0.65050143 2.1319518 1.5841433e-38
1.083077 -0.64958179 2.14325 1.5841433e-38
-0.61086029 -0.62140352 2.1373098 1.5841433e-38
-0.57882118 -0.61907548 2.1409888 1.5841433e-38
-0.55168819 -0.61327934 2.1510303 1.5841433e-38
0.95486504 -0.63560086 2.142889 1.5841433e-38
0.9833926 -0.62971503 2.1410832 1.5841433e-38
1.0161136 -0.63071883 2.1407957 1.5841433e-38
1.0632474 -0.61961389 2.1405647 1.5841433e-38
1.085871 -0.62369144 2.1293635 1.5841433e-38
-0.60737151 -0.59405255 2.1288574 1.5841433e-38
-0.57693565 -0.58228874 2.1314466 1.5841433e-38
-0.54131734 -0.57721317 2.1415291 1.5841433e-38
-0.51587343 -0.5723502 2.1478 1.5841433e-38
1.0671009 -0.57866722 2.1391091 1.5841433e-38
1.0841371 -0.59203702 2.1313336 1.5841433e-38
-0.5722425 -0.54775691 2.1275415 1.5841433e-38
-0.53754896 -0.53974748 2.1289494 1.5841433e-38
-0.50247854 -0.53777921 2.1406336 1.5841433e-38
-0.47403288 -0.52846366 2.1530001 1.5841433e-38
1.0363752 -0.53431571 2.1470001 1.5841433e-38
1.0550076 -0.54090595 2.1315212 1.5841433e-38
-0.52523881 -0.50575334 2.1270001 1.5841433e-38
-0.49914566 -0.50058132 2.1353295 1.5841433e-38
-0.46792173 -0.49803603 2.1486666 1.5841433e-38
1.0370651 -0.49805543 2.1355426 1.5841433e-38
1.0475475 -0.49970156 2.1277642 1.5841433e-38
-0.49246168 -0.46294013 2.1304204 1.5841433e-38
-0.46128833 -0.46020558 2.1421425 1.5841433e-38
-0.422831 -0.4482733 2.1492367 1.5841433e-38
-0.39881763 -0.44392809 2.1530001 1.5841433e-38
1.0251784 -0.46046108 2.1357408 1.5841433e-38
-0.48298821 -0.42974085 2.1270006 1.5841433e-38
-0.4578127 -0.42666572 2.1295996 1.5841433e-38
-0.42206359 -0.41973585 2.1456103 1.5841433e-38
-0.3946656 -0.4185293 2.1511428 1.5841433e-38
1.0193485 -0.4185344 2.1313329 1.5841433e-38
-0.44525203 -0.3840754 2.1270003 1.5841433e-38
-0.4216229 -0.38140067 2.1307583 1.5841433e-38
-0.37974131 -0.38044131 2.1355307 1.5841433e-38
-0.3548871 -0.36829495 2.1494546 1.5841433e-38
1.0167348 -0.38023567 2.1351485 1.5841433e-38
-0.41162515 -0.34842286 2.1270001 1.5841433e-38
-0.37019703 -0.3438091 2.1289618 1.5841433e-38
-0.3451272 -0.33738047 2.1425605 1.5841433e-38
0.99486721 -0.32878003 2.1465001 1.5841433e-38
1.0096695 -0.34104267 2.1345065 1.5841433e-38
-0.36868 -0.31803715 2.1270001 1.5841433e-38
-0.34015691 -0.30796579 2.1347995 1.5841433e-38
0.98572981 -0.29735005 2.1425695 1.5841433e-38
1.0104971 -0.30099204 2.1295996 1.5841433e-38
0.98548627 -0.25998023 2.1383927 1.5841433e-38
1.0047543 -0.27752286 2.1270001 1.5841433e-38
-0.28319487 -0.20459715 2.1270001 1.5841433e-38
-0.27144575 -0.20054573 2.1270001 1.5841433e-38
0.97774076 -0.22040538 2.1376624 1.5841433e-38
-0.28157431 -0.18737857 2.1270001 1.5841433e-38
-0.26492208 -0.1821868 2.1287563 1.5841433e-38
0.98484021 -0.19469067 2.1294379 1.5841433e-38
0.057972558 0.19479525 2.1530001 1.5841433e-38
0.034199376 0.22479779 2.146724 1.5841433e-38
0.058491252 0.22287031 2.1475179 1.5841433e-38
0.030298943 0.25230861 2.1308517 1.5841433e-38
0.0620392 0.25978449 2.140419 1.5841433e-38
0.098667175 0.26650518 2.1522353 1.5841433e-38
0.068383679 0.30073178 2.1360791 1.5841433e-38
0.1002076 0.30060107 2.1473534 1.5841433e-38
0.12849653 0.30392614 2.1530001 1.5841433e-38
0.072043628 0.3310419 2.1285 1.5841433e-38
0.099640109 0.33827782 2.1359589 1.5841433e-38
0.13169844 0.33738691 2.1481569 1.5841433e-38
-0.64184475 -0.76980096 2.1670001 1.5841433e-38
-0.61856747 -0.77640134 2.182936 1.5841433e-38
-0.58133644 -0.76967299 2.1778936 1.5841433e-38
-0.53972942 -0.77208352 2.1833014 1.5841433e-38
-0.50004357 -0.77102113 2.1771131 1.5841433e-38
-0.46082196 -0.7712723 2.1790004 1.5841433e-38
-0.42702064 -0.76602268 2.1739063 1.5841433e-38
-0.3815468 -0.76335168 2.1670001 1.5841433e-38
-0.33608362 -0.76462752 2.1677368 1.5841433e-38
-0.30139056 -0.76490903 2.1675384 1.5841433e-38
-0.26685056 -0.76546705 2.1670001 1.5841433e-38
-0.61291575 -0.74013621 2.1726723 1.5841433e-38
-0.57828724 -0.74120396 2.1849349 1.5841433e-38
-0.54793024 -0.74083138 2.1940002 1.5841433e-38
-0.49475282 -0.75547904 2.194 1.5841433e-38
-0.46434593 -0.75593525 2.19192 1.5841433e-38
-0.41459197 -0.75455642 2.1862059 1.5841433e-38
-0.37935993 -0.75145978 2.1816206 1.5841433e-38
-0.34134027 -0.74814636 2.1822028 1.5841433e-38
-0.29914939 -0.74919683 2.1819854 1.5841433e-38
-0.25916201 -0.74839556 2.181087 1.5841433e-38
-0.21920338 -0.74041444 2.1773796 1.5841433e-38
-0.17969467 -0.73680681 2.1774642 1.5841433e-38
-0.14074799 -0.74030405 2.1775007 1.5841433e-38
-0.09974499 -0.73664457 2.1783543 1.5841433e-38
-0.064826913 -0.72736037 2.1775384 1.5841433e-38
-0.020493459 -0.72246474 2.1749735 1.5841433e-38
0.02346332 -0.72155929 2.1745484 1.5841433e-38
0.059922218 -0.72492003 2.1794565 1.5841433e-38
0.095362119 -0.7230764 2.1772859 1.5841433e-38
0.12314063 -0.72164547 2.1670003 1.5841433e-38
0.2373381 -0.72026956 2.1670001 1.5841433e-38
-0.60593456 -0.70224553 2.1670003 1.5841433e-38
-0.57892269 -0.70256734 2.1706007 1.5841433e-38
-0.54401302 -0.69777203 2.1877398 1.5841433e-38
-0.51611245 -0.68745327 2.194 1.5841433e-38
-0.052707084 -0.71486092 2.1915627 1.5841433e-38
-0.020877594 -0.71199375 2.1923752 1.5841433e-38
0.017348407 -0.71465051 2.1903794 1.5841433e-38
0.061014101 -0.71169192 2.194 1.5841433e-38
0.10414936 -0.70522153 2.1862793 1.5841433e-38
0.14089915 -0.70145983 2.1808691 1.5841433e-38
0.17997175 -0.70060384 2.1830347 1.5841433e-38
0.21903986 -0.70335776 2.1814942 1.5841433e-38
0.25907543 -0.69884229 2.1843913 1.5841433e-38
0.29976505 -0.69683379 2.1771576 1.5841433e-38
0.34109092 -0.69420272 2.1774206 1.5841433e-38
0.37882197 -0.69398326 2.1789088 1.5841433e-38
0.42017815 -0.69179696 2.1749039 1.5841433e-38
0.46453464 -0.68623275 2.1678751 1.5841433e-38
0.49846515 -0.68996823 2.1701875 1.5841433e-38
0.5405497 -0.68886709 2.1750169 1.5841433e-38
0.57726824 -0.68775403 2.1675599 1.5841433e-38
0.60938889 -0.68795282 2.1760869 1.5841433e-38
0.64597237 -0.68312097 2.1670001 1.5841433e-38
-0.6026324 -0.67486572 2.1670001 1.5841433e-38
-0.58130634 -0.67108202 2.1670001 1.5841433e-38
-0.53982401 -0.66031009 2.180285 1.5841433e-38
-0.50726265 -0.65217698 2.194 1.5841433e-38
0.27790666 -0.67909521 2.194 1.5841433e-38
0.304088 -0.67721355 2.1907501 1.5841433e-38
0.33998132 -0.67701882 2.1927001 1.5841433e-38
0.3865619 -0.67909521 2.194 1.5841433e-38
0.42273688 -0.67678297 2.1894784 1.5841433e-38
0.46118537 -0.67659408 2.1812999 1.5841433e-38
0.49552232 -0.67544955 2.1863637 1.5841433e-38
0.54765999 -0.67611313 2.1850476 1.5841433e-38
0.57989115 -0.67493826 2.1827955 1.5841433e-38
0.62352556 -0.66863728 2.1821935 1.5841433e-38
0.65681756 -0.66796416 2.1808448 1.5841433e-38
0.69820035 -0.66813093 2.1865366 1.5841433e-38
0.74131817 -0.67029351 2.190661 1.5841433e-38
0.78081816 -0.66970706 2.1861668 1.5841433e-38
0.81866705 -0.65311688 2.1820614 1.5841433e-38
0.85866171 -0.65100318 2.1774502 1.5841433e-38
0.89812744 -0.64751059 2.1792293 1.5841433e-38
0.93487626 -0.64637619 2.1753333 1.5841433e-38
1.0607982 -0.64390856 2.1670001 1.5841433e-38
1.0835 -0.64803624 2.1670001 1.5841433e-38
-0.53495133 -0.62123871 2.1711419 1.5841433e-38
-0.5008204 -0.61906022 2.1890328 1.5841433e-38
-0.47562781 -0.61510348 2.194 1.5841433e-38
0.82810128 -0.63275069 2.1919475 1.5841433e-38
0.86086422 -0.62932265 2.1907501 1.5841433e-38
0.89909726 -0.62723404 2.1907578 1.5841433e-38
0.94024557 -0.63135564 2.1841755 1.5841433e-38
0.97882837 -0.62437236 2.1783447 1.5841433e-38
1.019263 -0.61132902 2.1744158 1.5841433e-38
1.0480001 -0.61528575 2.1714799 1.5841433e-38
1.0835 -0.6026324 2.1670001 1.5841433e-38
-0.52627146 -0.59644097 2.1670003 1.5841433e-38
-0.49768078 -0.58133125 2.1761575 1.5841433e-38
-0.46578616 -0.57726723 2.188647 1.5841433e-38
1.0269216 -0.5862419 2.1858654 1.5841433e-38
1.0522901 -0.58043325 2.1725154 1.5841433e-38
1.0835 -0.59231335 2.1670001 1.5841433e-38
-0.48803696 -0.55255073 2.1693335 1.5841433e-38
-0.4582243 -0.54201424 2.1816554 1.5841433e-38
-0.42555198 -0.53428179 2.1901767 1.5841433e-38
1.0231057 -0.53730202 2.1854417 1.5841433e-38
1.0448649 -0.5466432 2.1766522 1.5841433e-38
-0.45042354 -0.50284773 2.1719778 1.5841433e-38
-0.42015436 -0.49931264 2.1792362 1.5841433e-38
-0.38194364 -0.4967216 2.1875691 1.5841433e-38
-0.35730857 -0.48476952 2.194 1.5841433e-38
1.0200157 -0.49858272 2.1736715 1.5841433e-38
1.0434033 -0.50091606 2.1670001 1.5841433e-38
-0.44725704 -0.47320208 2.1670001 1.5841433e-38
-0.41686052 -0.46913081 2.1724443 1.5841433e-38
-0.37910914 -0.46161494 2.1794438 1.5841433e-38
-0.35364142 -0.45544592 2.1907501 1.5841433e-38
0.99434853 -0.45059982 2.1821818 1.5841433e-38
1.0141597 -0.45982489 2.1757965 1.5841433e-38
-0.37626591 -0.42318213 2.1696389 1.5841433e-38
-0.34234312 -0.41860911 2.1843452 1.5841433e-38
-0.31513819 -0.40783706 2.1940002 1.5841433e-38
0.9901585 -0.42104197 2.1849301 1.5841433e-38
1.0099148 -0.42197633 2.1768336 1.5841433e-38
-0.36199221 -0.3933621 2.1670001 1.5841433e-38
-0.3381469 -0.38051137 2.169904 1.5841433e-38
-0.30629814 -0.37818205 2.1866252 1.5841433e-38
0.99189132 -0.37746477 2.1886306 1.5841433e-38
1.0085703 -0.38258755 2.172627 1.5841433e-38
-0.32930145 -0.34564674 2.1669998 1.5841433e-38
-0.30020812 -0.3401556 2.1741934 1.5841433e-38
-0.26926523 -0.3384982 2.1876585 1.5841433e-38
0.98458058 -0.34039378 2.1752369 1.5841433e-38
1.0026588 -0.34936872 2.1682727 1.5841433e-38
-0.32460856 -0.31160179 2.171 1.5841433e-38
-0.29883251 -0.30680341 2.1766105 1.5841433e-38
-0.26495451 -0.30075032 2.1818643 1.5841433e-38
0.97271174 -0.30262333 2.1774645 1.5841433e-38
-0.25797617 -0.27861428 2.1670001 1.5841433e-38
0.95225292 -0.25359222 2.1940002 1.5841433e-38
0.97108144 -0.25897378 2.1773448 1.5841433e-38
0.95909142 -0.20686285 2.194 1.5841433e-38
0.96840376 -0.21694702 2.1797693 1.5841433e-38
0.95407659 -0.19348991 2.194 1.5841433e-38
0.97559953 -0.19361599 2.1806538 1.5841433e-38
1.0042251 -0.19348991 2.194 1.5841433e-38
0.073133335 0.15671429 2.194 1.5841433e-38
0.098980278 0.14159052 2.1927001 1.5841433e-38
0.03921238 0.19606191 2.1670001 1.5841433e-38
0.06423454 0.18027087 2.1794031 1.5841433e-38
0.098061211 0.18406916 2.191803 1.5841433e-38
0.12606794 0.18736064 2.1940002 1.5841433e-38
0.035084762 0.20844477 2.1670001 1.5841433e-38
0.069320269 0.20765457 2.168 1.5841433e-38
0.10020448 0.22037356 2.184021 1.5841433e-38
0.13080759 0.22528803 2.1935809 1.5841433e-38
0.10370532 0.24975857 2.1720257 1.5841433e-38
0.13878846 0.25934365 2.1868689 1.5841433e-38
0.16686343 0.26974756 2.194 1.5841433e-38
0.1463663 0.29815146 2.1753137 1.5841433e-38
0.17621292 0.30327761 2.1919689 1.5841433e-38
0.15045929 0.33011812 2.1696668 1.5841433e-38
0.17567909 0.3267386 2.1839547 1.5841433e-38
-0.52928579 -0.76005429 2.223 1.5841433e-38
-0.51446575 -0.76005429 2.223 1.5841433e-38
-0.53451401 -0.74242079 2.2148387 1.5841433e-38
-0.50201941 -0.74058324 2.2248268 1.5841433e-38
-0.46019679 -0.74443704 2.2260592 1.5841433e-38
-0.41913375 -0.73877269 2.2244158 1.5841433e-38
-0.38067856 -0.73416376 2.2238209 1.5841433e-38
-0.33859274 -0.73181587 2.2239301 1.5841433e-38
-0.30083895 -0.73203403 2.2229578 1.5841433e-38
-0.26245967 -0.73208404 2.2208099 1.5841433e-38
-0.22300664 -0.72567022 2.2090003 1.5841433e-38
-0.18003678 -0.72547799 2.2128649 1.5841433e-38
-0.14344288 -0.72618246 2.2101429 1.5841433e-38
-0.10023618 -0.72625041 2.2080002 1.5841433e-38
-0.075786203 -0.72419488 2.2105002 1.5841433e-38
-0.52949953 -0.71034527 2.2080002 1.5841433e-38
-0.49955043 -0.69917536 2.2206948 1.5841433e-38
-0.47219869 -0.69342738 2.2369995 1.5841433e-38
-0.41721827 -0.71619505 2.2369998 1.5841433e-38
-0.37469751 -0.71610636 2.2369998 1.5841433e-38
-0.33917192 -0.71285737 2.237 1.5841433e-38
-0.30139974 -0.71596539 2.2369998 1.5841433e-38
-0.25436181 -0.71167558 2.232692 1.5841433e-38
-0.22004429 -0.70814472 2.2251956 1.5841433e-38
-0.18305914 -0.71039689 2.231446 1.5841433e-38
-0.1380318 -0.71283418 2.2265215 1.5841433e-38
-0.099871285 -0.71188539 2.2225184 1.5841433e-38
-0.060760073 -0.70713419 2.221386 1.5841433e-38
-0.019410336 -0.70015317 2.2194073 1.5841433e-38
0.0216268 -0.70224023 2.2185364 1.5841433e-38
0.060722698 -0.69605583 2.2207248 1.5841433e-38
0.09687826 -0.69052416 2.2169495 1.5841433e-38
0.13968855 -0.68658024 2.2249229 1.5841433e-38
0.18044619 -0.68564147 2.2207565 1.5841433e-38
0.22297198 -0.68657857 2.216027 1.5841433e-38
0.25904348 -0.68539029 2.2113335 1.5841433e-38
0.37821391 -0.68402946 2.2080002 1.5841433e-38
0.53342485 -0.68342865 2.2080002 1.5841433e-38
-0.49557957 -0.66639614 2.2181051 1.5841433e-38
-0.46191335 -0.65861428 2.2348611 1.5841433e-38
-0.41906461 -0.6532042 2.2369998 1.5841433e-38
-0.39839906 -0.64553428 2.237 1.5841433e-38
0.11220509 -0.67820162 2.237 1.5841433e-38
0.14252886 -0.67727822 2.2369998 1.5841433e-38
0.18273981 -0.6728937 2.2366314 1.5841433e-38
0.21903177 -0.67623442 2.2341175 1.5841433e-38
0.26188773 -0.67351115 2.2263792 1.5841433e-38
0.29897615 -0.66532636 2.2235341 1.5841433e-38
0.34040412 -0.66607237 2.2239585 1.5841433e-38
0.38015655 -0.66625178 2.2248981 1.5841433e-38
0.41832563 -0.66496402 2.2232385 1.5841433e-38
0.46173275 -0.66055572 2.2217801 1.5841433e-38
0.50097769 -0.65716249 2.2205591 1.5841433e-38
0.54003233 -0.66035706 2.2205772 1.5841433e-38
0.57764226 -0.6610387 2.2207234 1.5841433e-38
0.61930931 -0.65799391 2.2171805 1.5841433e-38
0.66163552 -0.6508491 2.2189398 1.5841433e-38
0.69979781 -0.6509735 2.2176723 1.5841433e-38
0.73933637 -0.64993101 2.2148919 1.5841433e-38
0.78098744 -0.65182382 2.216429 1.5841433e-38
0.80505145 -0.64615089 2.2172499 1.5841433e-38
0.90753323 -0.6419723 2.2080002 1.5841433e-38
0.92315435 -0.64137149 2.2080002 1.5841433e-38
-0.48155433 -0.63716573 2.2080002 1.5841433e-38
-0.4572891 -0.62227386 2.2248034 1.5841433e-38
-0.41877294 -0.62016511 2.2342 1.5841433e-38
-0.39217159 -0.61439645 2.2369998 1.5841433e-38
0.48787904 -0.63701236 2.237 1.5841433e-38
0.63296002 -0.63716573 2.2080002 1.5841433e-38
0.64643067 -0.63706189 2.2342 1.5841433e-38
0.70305711 -0.63701242 2.2369998 1.5841433e-38
0.74018466 -0.63564825 2.2306111 1.5841433e-38
0.77036113 -0.6363287 2.2198 1.5841433e-38
0.8202256 -0.63252556 2.2282436 1.5841433e-38
0.8608197 -0.6222629 2.232022 1.5841433e-38
0.90126961 -0.62039292 2.222868 1.5841433e-38
0.94095582 -0.61970317 2.2223582 1.5841433e-38
0.98050791 -0.61476558 2.2261202 1.5841433e-38
1.007239 -0.60794115 2.2155001 1.5841433e-38
-0.44957265 -0.58814609 2.2109032 1.5841433e-38
-0.41990498 -0.57994515 2.2185299 1.5841433e-38
-0.38127953 -0.57716751 2.2292631 1.5841433e-38
0.88947374 -0.59546804 2.237 1.5841433e-38
0.98681235 -0.58440107 2.2306895 1.5841433e-38
1.0140183 -0.57898694 2.2132177 1.5841433e-38
1.0444269 -0.56931037 2.2098751 1.5841433e-38
-0.41085637 -0.54593134 2.2123902 1.5841433e-38
-0.37824088 -0.54003638 2.2248826 1.5841433e-38
-0.34225616 -0.53553128 2.2365084 1.5841433e-38
0.99716783 -0.54050851 2.2235882 1.5841433e-38
1.008606 -0.54011124 2.2175491 1.5841433e-38
-0.36962259 -0.51150376 2.211158 1.5841433e-38
-0.34119508 -0.49936837 2.2277021 1.5841433e-38
-0.31261185 -0.49043569 2.237 1.5841433e-38
0.9926948 -0.50090277 2.2277496 1.5841433e-38
1.0064762 -0.50113738 2.2173021 1.5841433e-38
-0.33633071 -0.46200448 2.2180161 1.5841433e-38
-0.30250511 -0.45856795 2.2322793 1.5841433e-38
-0.27696189 -0.45059574 2.2369998 1.5841433e-38
0.99270338 -0.45415503 2.2289703 1.5841433e-38
1.0049924 -0.46862385 2.2207141 1.5841433e-38
-0.3257409 -0.43306375 2.2095001 1.5841433e-38
-0.29809222 -0.42073551 2.2195671 1.5841433e-38
-0.26654783 -0.41520116 2.2343581 1.5841433e-38
0.9873659 -0.41761628 2.2267141 1.5841433e-38
1.003063 -0.40164575 2.2080002 1.5841433e-38
-0.2881631 -0.38458747 2.2126875 1.5841433e-38
-0.25972155 -0.38037941 2.2248061 1.5841433e-38
-0.2307774 -0.36939821 2.2310767 1.5841433e-38
0.98157096 -0.38112974 2.2259853 1.5841433e-38
-0.2524361 -0.34198195 2.2142501 1.5841433e-38
-0.22191337 -0.3438825 2.2261612 1.5841433e-38
-0.19813429 -0.33448476 2.237 1.5841433e-38
0.95498598 -0.33182165 2.2369998 1.5841433e-38
0.97485989 -0.33941942 2.2280817 1.5841433e-38
0.95595181 -0.30185238 2.2338886 1.5841433e-38
0.96773469 -0.29933921 2.225421 1.5841433e-38
0.94615835 -0.25764728 2.2262273 1.5841433e-38
0.96763021 -0.26402682 2.2129335 1.5841433e-38
0.94526148 -0.22175631 2.2263834 1.5841433e-38
0.96373928 -0.22515553 2.21276 1.5841433e-38
0.94779938 -0.19871551 2.2164288 1.5841433e-38
0.96380967 -0.19556575 2.2080002 1.5841433e-38
1.0246972 -0.19689429 2.223 1.5841433e-38
0.13422 0.11717618 2.237 1.5841433e-38
0.076403819 0.15210669 2.2080002 1.5841433e-38
0.10340309 0.14908209 2.2125151 1.5841433e-38
0.13517131 0.14546327 2.2356448 1.5841433e-38
0.07780572 0.16192003 2.2080002 1.5841433e-38
0.10574367 0.16988085 2.2080002 1.5841433e-38
0.14195807 0.17981653 2.2200639 1.5841433e-38
0.16952504 0.19235159 2.2369998 1.5841433e-38
0.10304001 0.21028572 2.2080002 1.5841433e-38
0.14733905 0.21619762 2.2150908 1.5841433e-38
0.17666452 0.22231121 2.2301142 1.5841433e-38
0.15771429 0.24393144 2.2080002 1.5841433e-38
0.18320715 0.25800845 2.2202291 1.5841433e-38
0.20656762 0.26559609 2.2340832 1.5841433e-38
0.19189638 0.29463494 2.2085772 1.5841433e-38
0.21752226 0.30215853 2.2293093 1.5841433e-38
0.24145398 0.30891904 2.237 1.5841433e-38
0.19977143 0.32384002 2.2080002 1.5841433e-38
0.21444423 0.32326466 2.2227144 1.5841433e-38
-0.4873971 -0.73029143 2.2520001 1.5841433e-38
-0.45835796 -0.7285108 2.2524664 1.5841433e-38
-0.4372251 -0.72891271 2.2520001 1.5841433e-38
-0.48257142 -0.71849525 2.2520001 1.5841433e-38
-0.4566662 -0.70383549 2.2529025 1.5841433e-38
-0.42258012 -0.70198971 2.2576754 1.5841433e-38
-0.37884921 -0.71184289 2.2594371 1.5841433e-38
-0.3392323 -0.70356143 2.2607901 1.5841433e-38
-0.29859632 -0.71156299 2.2615783 1.5841433e-38
-0.26015049 -0.70399797 2.2609086 1.5841433e-38
-0.22032386 -0.69418156 2.2593884 1.5841433e-38
-0.17849931 -0.69497162 2.2582493 1.5841433e-38
-0.14088601 -0.69747764 2.2607253 1.5841433e-38
-0.1020835 -0.69711632 2.2616389 1.5841433e-38
-0.060051851 -0.69341338 2.2570682 1.5841433e-38
-0.019538559 -0.68922907 2.2541533 1.5841433e-38
0.018450305 -0.68856591 2.2548714 1.5841433e-38
0.056136142 -0.68597865 2.2534738 1.5841433e-38
0.093759052 -0.68416858 2.2543335 1.5841433e-38
-0.4482553 -0.67345536 2.2520003 1.5841433e-38
-0.42243284 -0.66728878 2.2541773 1.5841433e-38
-0.38978404 -0.65496564 2.260555 1.5841433e-38
-0.13020508 -0.67980003 2.2660003 1.5841433e-38
-0.11869524 -0.67980003 2.266 1.5841433e-38
-0.054206308 -0.67791724 2.2651253 1.5841433e-38
-0.020534135 -0.67822397 2.2637897 1.5841433e-38
0.021902084 -0.67006731 2.2657013 1.5841433e-38
0.0591137 -0.67218852 2.2632494 1.5841433e-38
0.10303383 -0.66639704 2.2598479 1.5841433e-38
0.13881993 -0.66183722 2.2558358 1.5841433e-38
0.17865314 -0.65806472 2.2563443 1.5841433e-38
0.21945475 -0.66054279 2.2565081 1.5841433e-38
0.26103148 -0.65935951 2.2584393 1.5841433e-38
0.2997959 -0.65142119 2.2574439 1.5841433e-38
0.33750707 -0.65270275 2.2582755 1.5841433e-38
0.3804535 -0.65121114 2.2614999 1.5841433e-38
0.4215591 -0.64915121 2.2589996 1.5841433e-38
0.45463726 -0.64879006 2.2577035 1.5841433e-38
0.50469625 -0.64213252 2.2550006 1.5841433e-38
0.54191697 -0.6424216 2.2577035 1.5841433e-38
0.58536565 -0.64814049 2.2579997 1.5841433e-38
0.61697096 -0.65062702 2.2617135 1.5841433e-38
0.66309452 -0.64250749 2.2548003 1.5841433e-38
0.68632376 -0.64342856 2.2520001 1.5841433e-38
0.78283817 -0.64128381 2.2520001 1.5841433e-38
0.80428576 -0.64128381 2.2520001 1.5841433e-38
-0.37806681 -0.6212061 2.2617385 1.5841433e-38
0.47307935 -0.6353181 2.2613335 1.5841433e-38
0.49893516 -0.63189173 2.264055 1.5841433e-38
0.53510481 -0.63334978 2.266 1.5841433e-38
0.57743734 -0.63562584 2.2633753 1.5841433e-38
0.61074096 -0.6366381 2.266 1.5841433e-38
0.66190851 -0.62800562 2.2607207 1.5841433e-38
0.70035303 -0.62594247 2.2600939 1.5841433e-38
0.7404421 -0.62475175 2.26 1.5841433e-38
0.77874786 -0.62426418 2.2588003 1.5841433e-38
0.82125777 -0.61974382 2.2588847 1.5841433e-38
0.85862583 -0.61076516 2.2564068 1.5841433e-38
0.90271771 -0.6080935 2.2544999 1.5841433e-38
0.93881184 -0.6083436 2.252378 1.5841433e-38
0.9833734 -0.60535908 2.2520001 1.5841433e-38
1.0016038 -0.60482287 2.2520001 1.5841433e-38
-0.36450645 -0.58640945 2.2576005 1.5841433e-38
-0.34347761 -0.57223094 2.2599454 1.5841433e-38
-0.31724 -0.56326288 2.266 1.5841433e-38
0.85676384 -0.59779239 2.266 1.5841433e-38
0.89951134 -0.59470981 2.2566667 1.5841433e-38
0.94056129 -0.59260935 2.2589993 1.5841433e-38
0.98210108 -0.58072871 2.2563746 1.5841433e-38
1.001604 -0.58123046 2.2520001 1.5841433e-38
-0.3307215 -0.55038327 2.2537498 1.5841433e-38
-0.31002071 -0.53586739 2.2620428 1.5841433e-38
0.99530363 -0.54443181 2.2651253 1.5841433e-38
1.0048574 -0.54144555 2.2632 1.5841433e-38
-0.32385904 -0.50938094 2.2520001 1.5841433e-38
-0.29925492 -0.50114214 2.2601447 1.5841433e-38
-0.25931218 -0.48693442 2.266 1.5841433e-38
-0.23739047 -0.48125523 2.266 1.5841433e-38
0.99064606 -0.49940833 2.2599995 1.5841433e-38
1.0061888 -0.50322872 2.2558892 1.5841433e-38
-0.28611127 -0.47656614 2.2520001 1.5841433e-38
-0.25949508 -0.46010405 2.2630427 1.5841433e-38
-0.23130856 -0.45378861 2.2659996 1.5841433e-38
0.98581493 -0.46191972 2.2588365 1.5841433e-38
1.0016038 -0.47399241 2.2520003 1.5841433e-38
-0.25140998 -0.42592347 2.2550621 1.5841433e-38
-0.22167818 -0.41937217 2.26531 1.5841433e-38
-0.19638668 -0.40788001 2.266 1.5841433e-38
0.95870858 -0.42166018 2.2520001 1.5841433e-38
0.97331548 -0.42041206 2.2557328 1.5841433e-38
-0.21483612 -0.38379866 2.2600605 1.5841433e-38
-0.18962464 -0.37550861 2.2659998 1.5841433e-38
0.95232683 -0.36860958 2.2602355 1.5841433e-38
0.96917379 -0.37922832 2.2555737 1.5841433e-38
-0.20375238 -0.35817525 2.2520001 1.5841433e-38
-0.1811026 -0.34466949 2.261672 1.5841433e-38
0.95269388 -0.34143692 2.2575996 1.5841433e-38
0.96871752 -0.35031116 2.2520003 1.5841433e-38
0.94609827 -0.30110303 2.2550328 1.5841433e-38
0.93277985 -0.25933996 2.2547219 1.5841433e-38
0.87834477 -0.20286095 2.266 1.5841433e-38
0.90568066 -0.20861587 2.266 1.5841433e-38
0.92864966 -0.21779899 2.2559993 1.5841433e-38
0.92653716 -0.19946286 2.2520001 1.5841433e-38
0.14969599 0.10836952 2.2552307 1.5841433e-38
0.16425502 0.11150159 2.266 1.5841433e-38
0.14843233 0.13275339 2.2519996 1.5841433e-38
0.17294848 0.14381079 2.2611299 1.5841433e-38
0.18387432 0.17842431 2.2551105 1.5841433e-38
0.20456667 0.1817811 2.2610004 1.5841433e-38
0.19588827 0.21519114 2.2520001 1.5841433e-38
0.21860869 0.22354409 2.2609091 1.5841433e-38
0.24386477 0.2287581 2.266 1.5841433e-38
0.22527403 0.25821543 2.2533541 1.5841433e-38
0.24961393 0.26532668 2.2649999 1.5841433e-38
0.23243856 0.2876662 2.2520003 1.5841433e-38
0.2577925 0.29939047 2.2541535 1.5841433e-38
0.28702667 0.30213335 2.266 1.5841433e-38
-0.40646389 -0.70145047 2.2809999 1.5841433e-38
-0.38085669 -0.69649094 2.2819843 1.5841433e-38
-0.33913761 -0.68947953 2.2889993 1.5841433e-38
-0.29998624 -0.69384688 2.2927432 1.5841433e-38
-0.26574644 -0.6902833 2.2903035 1.5841433e-38
-0.22098549 -0.68695402 2.2829192 1.5841433e-38
-0.17819189 -0.68444616 2.2868187 1.5841433e-38
-0.14832318 -0.68249059 2.2925336 1.5841433e-38
-0.093990184 -0.68357748 2.2916789 1.5841433e-38
-0.076383337 -0.68523288 2.2915001 1.5841433e-38
-0.030626668 -0.68034959 2.2970002 1.5841433e-38
-0.37321016 -0.66335589 2.281841 1.5841433e-38
-0.33942798 -0.65822899 2.2940724 1.5841433e-38
-0.3094252 -0.66155219 2.3064554 1.5841433e-38
-0.25297758 -0.67378658 2.2938926 1.5841433e-38
-0.22024409 -0.67392629 2.2963531 1.5841433e-38
-0.18093161 -0.67662066 2.2950358 1.5841433e-38
-0.13796756 -0.67716283 2.2944827 1.5841433e-38
-0.10570306 -0.67753357 2.2934997 1.5841433e-38
-0.057372719 -0.663279 2.2972653 1.5841433e-38
-0.019796774 -0.66182107 2.3027163 1.5841433e-38
0.018024698 -0.65312141 2.2990415 1.5841433e-38
0.060006604 -0.65494108 2.3027308 1.5841433e-38
0.097685672 -0.65184563 2.2966096 1.5841433e-38
0.14130555 -0.64502227 2.2952657 1.5841433e-38
0.17976919 -0.64513713 2.2963541 1.5841433e-38
0.22083303 -0.64655983 2.2976792 1.5841433e-38
0.25584885 -0.6469782 2.2922072 1.5841433e-38
0.30044347 -0.64453912 2.2822301 1.5841433e-38
0.34191388 -0.64460027 2.284199 1.5841433e-38
0.37791911 -0.64433521 2.2852347 1.5841433e-38
0.41954109 -0.64275318 2.2810001 1.5841433e-38
0.45402768 -0.64302474 2.2810001 1.5841433e-38
0.63216293 -0.64259028 2.2810001 1.5841433e-38
0.64085239 -0.64085239 2.2810001 1.5841433e-38
-0.36589104 -0.62564582 2.2810001 1.5841433e-38
-0.34012201 -0.6192376 2.2851408 1.5841433e-38
-0.30642837 -0.61517513 2.302999 1.5841433e-38
