# .PCD v0.7 - Point Cloud Data file format
VERSION 0.7
FIELDS x y z rgb
SIZE 4 4 4 4
TYPE F F F F
COUNT 1 1 1 1
WIDTH 1028
HEIGHT 1
VIEWPOINT 0 0 0 1 0 0 0
POINTS 1028
DATA ascii
-0.36323047 -0.80282193 2.1670001 1.4288752e-38
-0.35703906 -0.80282193 2.1670001 1.4288752e-38
-0.64184475 -0.7966305 2.1670001 1.4288752e-38
-0.62096047 -0.78246891 2.1839321 1.4288752e-38
-0.58281195 -0.78101563 2.1931667 1.4288752e-38
-0.53559083 -0.79172218 2.193435 1.4288752e-38
-0.50428653 -0.79374689 2.1918335 1.4288752e-38
-0.45924377 -0.79237264 2.1903617 1.4288752e-38
-0.41818532 -0.79418504 2.1854377 1.4288752e-38
-0.37932199 -0.78798527 2.1862423 1.4288752e-38
-0.33944172 -0.7857765 2.1857765 1.4288752e-38
-0.30070648 -0.78243512 2.1843216 1.4288752e-38
-0.26191366 -0.78077406 2.1849 1.4288752e-38
-0.219735 -0.77611232 2.1831844 1.4288752e-38
-0.18208633 -0.76804119 2.1824999 1.4288752e-38
-0.1408712 -0.76877737 2.1876252 1.4288752e-38
-0.099516436 -0.76648897 2.1796169 1.4288752e-38
-0.05953867 -0.76910299 2.1790981 1.4288752e-38
-0.020743368 -0.77040231 2.1769719 1.4288752e-38
0.021070195 -0.76733851 2.1691 1.4288752e-38
0.05680126 -0.76567119 2.1738887 1.4288752e-38
0.085304134 -0.76292157 2.1670001 1.4288752e-38
0.13827525 -0.76154578 2.1670001 1.4288752e-38
0.17748763 -0.76154578 2.1670001 1.4288752e-38
-0.61287344 -0.74140519 2.1752062 1.4288752e-38
-0.5796569 -0.74024242 2.1907501 1.4288752e-38
-0.55305493 -0.73308849 2.194 1.4288752e-38
-0.2110419 -0.75849712 2.194 1.4288752e-38
-0.17578121 -0.75614649 2.194 1.4288752e-38
-0.13625136 -0.75287712 2.194 1.4288752e-38
-0.1018952 -0.75310534 2.1926668 1.4288752e-38
-0.072297521 -0.75348228 2.194 1.4288752e-38
-0.01571201 -0.75572735 2.1923046 1.4288752e-38
0.02028412 -0.75290549 2.1850002 1.4288752e-38
0.064432062 -0.75408894 2.187 1.4288752e-38
0.098986916 -0.74865592 2.1788821 1.4288752e-38
0.14025727 -0.74872887 2.1732001 1.4288752e-38
0.18076114 -0.74534523 2.1794291 1.4288752e-38
0.22002143 -0.73875219 2.175317 1.4288752e-38
0.25992846 -0.74145794 2.1788173 1.4288752e-38
0.30082861 -0.73580021 2.1777537 1.4288752e-38
0.33875647 -0.73108745 2.1761658 1.4288752e-38
0.38018572 -0.7305209 2.1761391 1.4288752e-38
0.42000782 -0.72651434 2.1804707 1.4288752e-38
0.45948169 -0.72584498 2.1773279 1.4288752e-38
0.49928957 -0.72596592 2.1706522 1.4288752e-38
0.54258627 -0.72390193 2.1675835 1.4288752e-38
0.58109146 -0.72740996 2.1747453 1.4288752e-38
0.61595345 -0.72327137 2.1670001 1.4288752e-38
0.66457069 -0.72136378 2.16875 1.4288752e-38
0.69994903 -0.72153962 2.1670001 1.4288752e-38
0.7364853 -0.72439712 2.1670001 1.4288752e-38
-0.60387075 -0.70238322 2.1670003 1.4288752e-38
-0.57885957 -0.69910789 2.1735191 1.4288752e-38
-0.54818028 -0.69812644 2.1917586 1.4288752e-38
0.39492002 -0.71252763 2.194 1.4288752e-38
0.4764114 -0.71670663 2.194 1.4288752e-38
0.5069899 -0.71471137 2.1854002 1.4288752e-38
0.5373835 -0.71061057 2.1818948 1.4288752e-38
0.58349437 -0.71328038 2.1889033 1.4288752e-38
0.61974639 -0.7125923 2.1814897 1.4288752e-38
0.66075486 -0.7121473 2.1803999 1.4288752e-38
0.70002043 -0.70880651 2.1779501 1.4288752e-38
0.73927999 -0.70447916 2.1745656 1.4288752e-38
0.78146648 -0.70096648 2.1751525 1.4288752e-38
0.8203848 -0.69761586 2.1777189 1.4288752e-38
0.85748887 -0.68868309 2.1775 1.4288752e-38
0.90005326 -0.6904552 2.1716111 1.4288752e-38
0.93018848 -0.68606925 2.1670001 1.4288752e-38
0.97287989 -0.68312097 2.1670001 1.4288752e-38
1.0339686 -0.68415284 2.1670001 1.4288752e-38
1.0442877 -0.68312097 2.1670001 1.4288752e-38
1.1062019 -0.68415284 2.1670001 1.4288752e-38
1.1206486 -0.68312097 2.1670001 1.4288752e-38
-0.60160053 -0.6758976 2.1670001 1.4288752e-38
-0.574907 -0.66327131 2.1685555 1.4288752e-38
-0.54052192 -0.65964252 2.1864586 1.4288752e-38
-0.50914735 -0.64705586 2.194 1.4288752e-38
0.86201781 -0.67794323 2.1910558 1.4288752e-38
0.90144014 -0.67744249 2.1819999 1.4288752e-38
0.94123256 -0.66951686 2.1758089 1.4288752e-38
0.97934592 -0.66488397 2.1786211 1.4288752e-38
1.0193207 -0.66649115 2.1780593 1.4288752e-38
1.0586737 -0.66095269 2.177597 1.4288752e-38
1.1000307 -0.65861624 2.1769769 1.4288752e-38
1.124629 -0.65909237 2.1670001 1.4288752e-38
-0.57205051 -0.63434011 2.1670001 1.4288752e-38
-0.54086059 -0.62157178 2.177109 1.4288752e-38
-0.50238299 -0.61699784 2.1889317 1.4288752e-38
-0.47432184 -0.61014086 2.1940002 1.4288752e-38
1.0630431 -0.63739926 2.1907499 1.4288752e-38
1.1045703 -0.61988276 2.1829796 1.4288752e-38
1.1245981 -0.62077659 2.1674826 1.4288752e-38
-0.52852291 -0.59268856 2.1670001 1.4288752e-38
-0.49774233 -0.58312547 2.1765559 1.4288752e-38
-0.46543908 -0.57734513 2.1912742 1.4288752e-38
1.0767488 -0.56374955 2.1896667 1.4288752e-38
1.096143 -0.57978648 2.1758308 1.4288752e-38
1.1247764 -0.59437716 2.1670001 1.4288752e-38
-0.49204668 -0.55327296 2.1670001 1.4288752e-38
-0.45825568 -0.54159909 2.1802213 1.4288752e-38
-0.42475489 -0.53211802 2.1928935 1.4288752e-38
1.0766464 -0.53953391 2.1806571 1.4288752e-38
1.0889102 -0.54288369 2.1726065 1.4288752e-38
-0.44877142 -0.50127411 2.1707308 1.4288752e-38
-0.42101127 -0.49854985 2.1783895 1.4288752e-38
-0.38167468 -0.49358776 2.194 1.4288752e-38
-0.35730857 -0.48894855 2.194 1.4288752e-38
1.0685267 -0.49701661 2.1734004 1.4288752e-38
1.0875412 -0.50186473 2.1679335 1.4288752e-38
-0.44371903 -0.47674003 2.1670001 1.4288752e-38
-0.41209695 -0.47002643 2.1715405 1.4288752e-38
-0.37937281 -0.46074617 2.1905844 1.4288752e-38
-0.34736916 -0.45195824 2.194 1.4288752e-38
1.0664341 -0.46224689 2.1814454 1.4288752e-38
1.0835224 -0.47179568 2.1716666 1.4288752e-38
-0.37572825 -0.42776945 2.1729999 1.4288752e-38
-0.34086287 -0.41952574 2.1893415 1.4288752e-38
-0.30697832 -0.40800223 2.194 1.4288752e-38
1.058261 -0.42316267 2.1776004 1.4288752e-38
-0.33620098 -0.38127831 2.1705008 1.4288752e-38
-0.30437258 -0.37822545 2.1872821 1.4288752e-38
-0.27372763 -0.36462191 2.194 1.4288752e-38
1.0384933 -0.36984572 2.194 1.4288752e-38
1.0505162 -0.37961701 2.177788 1.4288752e-38
-0.32971811 -0.34740791 2.1670001 1.4288752e-38
-0.30008608 -0.34043854 2.1754394 1.4288752e-38
-0.263069 -0.33890504 2.1923287 1.4288752e-38
1.0366266 -0.33200586 2.1890001 1.4288752e-38
1.0462791 -0.34279224 2.1781428 1.4288752e-38
-0.29589137 -0.31349444 2.1688066 1.4288752e-38
-0.26015311 -0.29973707 2.1844895 1.4288752e-38
-0.22580788 -0.29350847 2.194 1.4288752e-38
1.0344861 -0.30006391 2.1815357 1.4288752e-38
1.0443164 -0.30689925 2.1678236 1.4288752e-38
-0.25828233 -0.27641773 2.1720624 1.4288752e-38
1.0244282 -0.25974688 2.1815081 1.4288752e-38
1.0214221 -0.21949653 2.1814692 1.4288752e-38
0.9949137 -0.18296917 2.1923752 1.4288752e-38
1.009807 -0.18146014 2.1803563 1.4288752e-38
0.98939514 -0.13815632 2.1801164 1.4288752e-38
1.0043875 -0.14492531 2.1670001 1.4288752e-38
0.98556811 -0.10001162 2.1797185 1.4288752e-38
1.0009476 -0.10112667 2.1670001 1.4288752e-38
0.95923644 -0.048943095 2.1872499 1.4288752e-38
0.97504312 -0.0609596 2.1739874 1.4288752e-38
0.95487422 -0.030185055 2.1765652 1.4288752e-38
0.96792668 -0.036460634 2.1670003 1.4288752e-38
0.11839715 0.19732857 2.181 1.4288752e-38
0.12601829 0.19503048 2.1832001 1.4288752e-38
0.11828874 0.21223477 2.1918335 1.4288752e-38
0.1354147 0.22333837 2.1915627 1.4288752e-38
0.1478703 0.25975615 2.1766555 1.4288752e-38
0.16880189 0.26529154 2.186559 1.4288752e-38
0.15010031 0.29445547 2.1670001 1.4288752e-38
0.17863765 0.30267334 2.1741247 1.4288752e-38
0.20913851 0.31383252 2.1931875 1.4288752e-38
0.83789903 0.31969714 2.194 1.4288752e-38
0.84777677 0.30867964 2.1940002 1.4288752e-38
0.18808146 0.33778167 2.1690001 1.4288752e-38
0.2164984 0.34321731 2.1839879 1.4288752e-38
0.2452341 0.35312954 2.1940002 1.4288752e-38
0.83789903 0.32805523 2.194 1.4288752e-38
0.84458554 0.32721946 2.194 1.4288752e-38
0.19193429 0.36411503 2.1670001 1.4288752e-38
0.22231495 0.37758738 2.1677108 1.4288752e-38
0.25484672 0.38398674 2.1861131 1.4288752e-38
0.77344215 0.37322024 2.1772501 1.4288752e-38
0.23090962 0.41375598 2.1682727 1.4288752e-38
0.26011842 0.42053303 2.1753757 1.4288752e-38
0.2905615 0.42681101 2.1848638 1.4288752e-38
0.22701904 0.44371903 2.1670001 1.4288752e-38
0.26722205 0.4568449 2.1669998 1.4288752e-38
0.30033848 0.46172893 2.1782727 1.4288752e-38
0.33468634 0.46590063 2.1929169 1.4288752e-38
0.27861428 0.49118668 2.1670001 1.4288752e-38
0.30168363 0.48990431 2.176316 1.4288752e-38
0.32323653 0.49007654 2.1896667 1.4288752e-38
-0.60352004 -0.78436577 2.2080002 1.4288752e-38
-0.56741583 -0.78218216 2.2091541 1.4288752e-38
-0.54063118 -0.77642167 2.2143545 1.4288752e-38
-0.50127101 -0.77763844 2.2186255 1.4288752e-38
-0.45878464 -0.77837253 2.2169814 1.4288752e-38
-0.42095986 -0.77510834 2.2171824 1.4288752e-38
-0.37896895 -0.76938808 2.2216997 1.4288752e-38
-0.34169281 -0.7653811 2.2184808 1.4288752e-38
-0.30044073 -0.76552695 2.2170393 1.4288752e-38
-0.26195294 -0.7658518 2.2153654 1.4288752e-38
-0.22403517 -0.76495481 2.2080002 1.4288752e-38
-0.060218189 -0.76486659 2.2080002 1.4288752e-38
-0.53578198 -0.739838 2.2126334 1.4288752e-38
-0.50714678 -0.73743045 2.2275083 1.4288752e-38
-0.33680892 -0.75515699 2.2369998 1.4288752e-38
-0.30243084 -0.75267929 2.2329998 1.4288752e-38
-0.25483558 -0.75373137 2.2270384 1.4288752e-38
-0.21957088 -0.74793816 2.2228508 1.4288752e-38
-0.18114446 -0.74549097 2.2162194 1.4288752e-38
-0.14116561 -0.74406129 2.2221072 1.4288752e-38
-0.098635294 -0.73996794 2.2206213 1.4288752e-38
-0.059688639 -0.74504542 2.2200737 1.4288752e-38
-0.021062281 -0.7444824 2.2188957 1.4288752e-38
0.020855293 -0.73834276 2.2220573 1.4288752e-38
0.059303042 -0.73504972 2.2191896 1.4288752e-38
0.099824123 -0.73206562 2.2169297 1.4288752e-38
0.14022481 -0.73339796 2.2155011 1.4288752e-38
0.17874643 -0.73049992 2.2144654 1.4288752e-38
0.2201945 -0.72594976 2.213625 1.4288752e-38
0.26074064 -0.72762185 2.2087502 1.4288752e-38
0.30030811 -0.72428417 2.2080002 1.4288752e-38
0.34238344 -0.7216624 2.2080002 1.4288752e-38
0.37941554 -0.72278219 2.2080002 1.4288752e-38
0.42197332 -0.72198105 2.2080002 1.4288752e-38
0.4584229 -0.72128004 2.2080002 1.4288752e-38
0.49477226 -0.72428423 2.2080002 1.4288752e-38
-0.53008938 -0.70474148 2.2121668 1.4288752e-38
-0.50003749 -0.70010638 2.2206683 1.4288752e-38
-0.47864699 -0.693115 2.237 1.4288752e-38
0.065436058 -0.71797049 2.237 1.4288752e-38
0.10503704 -0.71608382 2.2318418 1.4288752e-38
0.13904305 -0.71191764 2.2296953 1.4288752e-38
0.17953655 -0.71382761 2.2289393 1.4288752e-38
0.22053437 -0.71265864 2.2281859 1.4288752e-38
0.26083162 -0.71176457 2.2252262 1.4288752e-38
0.30250984 -0.70937437 2.2244859 1.4288752e-38
0.34046265 -0.7064088 2.2232828 1.4288752e-38
0.37960711 -0.70718867 2.2240834 1.4288752e-38
0.41964009 -0.70287472 2.2224307 1.4288752e-38
0.45920491 -0.70236129 2.2184956 1.4288752e-38
0.49922141 -0.70053464 2.2207773 1.4288752e-38
0.54097807 -0.69655281 2.2229552 1.4288752e-38
0.57935435 -0.69654375 2.2162573 1.4288752e-38
0.61981833 -0.69755179 2.2223153 1.4288752e-38
0.66097283 -0.69782424 2.2205398 1.4288752e-38
0.7012893 -0.69401932 2.2164629 1.4288752e-38
0.73906255 -0.69213539 2.2188039 1.4288752e-38
0.77760231 -0.68999255 2.2212758 1.4288752e-38
0.81757694 -0.68845522 2.2122858 1.4288752e-38
0.8432458 -0.6855315 2.2080002 1.4288752e-38
0.91474295 -0.68623245 2.2080002 1.4288752e-38
0.92315435 -0.6855315 2.2080002 1.4288752e-38
-0.52361149 -0.67922294 2.2080002 1.4288752e-38
-0.49914974 -0.66181833 2.21135 1.4288752e-38
-0.45976332 -0.65582836 2.23054 1.4288752e-38
-0.43152922 -0.64962453 2.2350907 1.4288752e-38
0.55392385 -0.67962188 2.237 1.4288752e-38
0.57926869 -0.6796155 2.2323332 1.4288752e-38
0.60505521 -0.67962188 2.237 1.4288752e-38
0.66977239 -0.67855227 2.2326248 1.4288752e-38
0.69755375 -0.67720872 2.232739 1.4288752e-38
0.73717445 -0.67695516 2.2311664 1.4288752e-38
0.78776407 -0.67430764 2.2271998 1.4288752e-38
0.82210273 -0.67392689 2.2265916 1.4288752e-38
0.85926652 -0.66976285 2.2220166 1.4288752e-38
0.90093112 -0.66905844 2.2212248 1.4288752e-38
0.93950671 -0.65904135 2.219074 1.4288752e-38
0.97945899 -0.64756978 2.2185357 1.4288752e-38
1.0212753 -0.649104 2.2188749 1.4288752e-38
1.0523117 -0.64811283 2.2223332 1.4288752e-38
1.0919838 -0.64497638 2.2080002 1.4288752e-38
-0.4864071 -0.63134253 2.2080002 1.4288752e-38
-0.458987 -0.6239683 2.2216985 1.4288752e-38
-0.42021653 -0.61889237 2.2298007 1.4288752e-38
-0.39697874 -0.60434508 2.237 1.4288752e-38
0.99717432 -0.63725996 2.223 1.4288752e-38
1.0150497 -0.6359936 2.2343748 1.4288752e-38
1.0706116 -0.62217659 2.2236106 1.4288752e-38
1.0895988 -0.61894101 2.2080002 1.4288752e-38
-0.45157149 -0.5876469 2.2080002 1.4288752e-38
-0.42139372 -0.58038509 2.21294 1.4288752e-38
-0.38356128 -0.57673633 2.2260466 1.4288752e-38
1.068699 -0.57842708 2.2217338 1.4288752e-38
1.0882988 -0.59230483 2.2080002 1.4288752e-38
-0.44790861 -0.55725718 2.2080002 1.4288752e-38
-0.41308913 -0.54591125 2.2080002 1.4288752e-38
-0.38024139 -0.54085201 2.2142425 1.4288752e-38
-0.34408712 -0.53433901 2.2312887 1.4288752e-38
1.0658673 -0.53923857 2.2256331 1.4288752e-38
-0.4037486 -0.51940572 2.2080002 1.4288752e-38
-0.37935546 -0.51351762 2.2080002 1.4288752e-38
-0.34236884 -0.50101298 2.220315 1.4288752e-38
-0.31141117 -0.48935747 2.2316663 1.4288752e-38
1.0560201 -0.5005182 2.2233908 1.4288752e-38
-0.36379433 -0.47104001 2.2080002 1.4288752e-38
-0.33540899 -0.46444997 2.2085772 1.4288752e-38
-0.30164054 -0.45906815 2.22365 1.4288752e-38
-0.27665755 -0.44526953 2.237 1.4288752e-38
1.0339123 -0.45011857 2.2279284 1.4288752e-38
1.0543013 -0.46157175 2.2110641 1.4288752e-38
-0.32243812 -0.4324877 2.2080002 1.4288752e-38
-0.29841796 -0.42492557 2.2101102 1.4288752e-38
-0.26834521 -0.41517937 2.2272797 1.4288752e-38
1.0335146 -0.42012537 2.2252638 1.4288752e-38
1.0484589 -0.41911307 2.2092001 1.4288752e-38
-0.28809151 -0.3869257 2.2080002 1.4288752e-38
-0.26026973 -0.38166699 2.2146895 1.4288752e-38
-0.22238104 -0.36906871 2.2318418 1.4288752e-38
-0.19813429 -0.36644191 2.237 1.4288752e-38
1.0333114 -0.37756217 2.2208045 1.4288752e-38
1.0445374 -0.38036966 2.2086253 1.4288752e-38
-0.24584311 -0.34544215 2.2080002 1.4288752e-38
-0.22035983 -0.33983493 2.2184565 1.4288752e-38
-0.18972537 -0.32943618 2.2352498 1.4288752e-38
-0.14487237 -0.3231222 2.237 1.4288752e-38
1.0253851 -0.33916241 2.2225366 1.4288752e-38
1.042116 -0.35297963 2.2080002 1.4288752e-38
-0.24550857 -0.31280002 2.2080002 1.4288752e-38
-0.21906841 -0.30336857 2.2091727 1.4288752e-38
-0.18410191 -0.30407086 2.2291145 1.4288752e-38
-0.14762247 -0.30912536 2.2244999 1.4288752e-38
0.99919325 -0.28335333 2.237 1.4288752e-38
1.0185835 -0.30016279 2.2207274 1.4288752e-38
0.99582517 -0.25570828 2.2263331 1.4288752e-38
1.0126156 -0.26399565 2.2169418 1.4288752e-38
0.9904598 -0.21877359 2.2200897 1.4288752e-38
1.0127009 -0.22018674 2.2080002 1.4288752e-38
0.98682243 -0.18055607 2.2201321 1.4288752e-38
1.003063 -0.17033145 2.2080002 1.4288752e-38
0.95676297 -0.12424286 2.2299998 1.4288752e-38
0.97520089 -0.14029008 2.2210147 1.4288752e-38
0.95482689 -0.099008866 2.2292628 1.4288752e-38
0.96869576 -0.099438019 2.2112727 1.4288752e-38
0.94382638 -0.057968762 2.2268569 1.4288752e-38
0.96708679 -0.065638274 2.2143636 1.4288752e-38
0.94160575 -0.019752838 2.2235439 1.4288752e-38
0.96243221 -0.014268468 2.2145555 1.4288752e-38
0.91823518 0.02769619 2.237 1.4288752e-38
0.93076378 0.01525885 2.2272115 1.4288752e-38
0.96084476 0.0021304761 2.237 1.4288752e-38
0.90940398 0.057933297 2.2300699 1.4288752e-38
0.92398536 0.049019244 2.2248666 1.4288752e-38
0.87988663 0.093740948 2.237 1.4288752e-38
0.89284807 0.096785575 2.2254667 1.4288752e-38
0.13718835 0.15414716 2.2247498 1.4288752e-38
0.87722349 0.13794833 2.2369998 1.4288752e-38
0.88524568 0.12558727 2.2280908 1.4288752e-38
0.14298826 0.18158089 2.2139022 1.4288752e-38
0.18022285 0.18825273 2.2313957 1.4288752e-38
0.20239523 0.18961239 2.237 1.4288752e-38
0.86175609 0.18831907 2.2244444 1.4288752e-38
0.11776 0.2271086 2.2080002 1.4288752e-38
0.14345457 0.21861076 2.2098756 1.4288752e-38
0.17955527 0.21963443 2.2177689 1.4288752e-38
0.2073037 0.22333293 2.2320321 1.4288752e-38
0.85894746 0.22347403 2.2323332 1.4288752e-38
0.18598129 0.25799286 2.2090006 1.4288752e-38
0.2188971 0.25961792 2.2281241 1.4288752e-38
0.24074383 0.27057049 2.237 1.4288752e-38
0.83727711 0.27909237 2.237 1.4288752e-38
0.85308522 0.26107687 2.2270625 1.4288752e-38
0.19588923 0.29100308 2.2080002 1.4288752e-38
0.22282998 0.29839107 2.2163885 1.4288752e-38
0.25604737 0.30488524 2.229429 1.4288752e-38
0.83224636 0.3032369 2.2309458 1.4288752e-38
0.84826225 0.29725811 2.2199821 1.4288752e-38
0.23341715 0.33064345 2.2080002 1.4288752e-38
0.26226842 0.33990029 2.2159543 1.4288752e-38
0.29244712 0.34704113 2.2308233 1.4288752e-38
0.82788092 0.34214509 2.2216003 1.4288752e-38
0.8435176 0.34346592 2.2154999 1.4288752e-38
0.27070034 0.37538844 2.2080002 1.4288752e-38
0.30088243 0.37965932 2.2201798 1.4288752e-38
0.33534977 0.38617384 2.2326441 1.4288752e-38
0.36005047 0.39626858 2.237 1.4288752e-38
0.78963923 0.3741399 2.2215383 1.4288752e-38
0.81423753 0.37055594 2.2239795 1.4288752e-38
0.84050572 0.36203143 2.223 1.4288752e-38
0.30680054 0.41470501 2.2112145 1.4288752e-38
0.33968771 0.42025235 2.2175794 1.4288752e-38
0.37229604 0.42494944 2.2325451 1.4288752e-38
0.40265998 0.43674761 2.237 1.4288752e-38
0.31542858 0.44580573 2.2080002 1.4288752e-38
0.34245536 0.45756504 2.2089381 1.4288752e-38
0.37916639 0.45663515 2.2240288 1.4288752e-38
0.40612844 0.45049217 2.2326248 1.4288752e-38
0.34534109 0.48902327 2.2185552 1.4288752e-38
0.3696762 0.48302478 2.2180002 1.4288752e-38
-0.48967689 -0.76722664 2.2538259 1.4288752e-38
-0.46288997 -0.76811326 2.2533019 1.4288752e-38
-0.41707465 -0.76399934 2.2554998 1.4288752e-38
-0.38479015 -0.76424253 2.2538259 1.4288752e-38
-0.34530669 -0.76139051 2.2520001 1.4288752e-38
-0.48974437 -0.74388868 2.2541871 1.4288752e-38
-0.46039078 -0.74085152 2.2596054 1.4288752e-38
-0.42595232 -0.74394888 2.2636309 1.4288752e-38
-0.37857088 -0.74943197 2.2630937 1.4288752e-38
-0.34084809 -0.74213475 2.2618933 1.4288752e-38
-0.29931015 -0.74015731 2.2604787 1.4288752e-38
-0.2609897 -0.74007952 2.2597575 1.4288752e-38
-0.22224779 -0.73051977 2.2580864 1.4288752e-38
-0.18000244 -0.73295754 2.2581854 1.4288752e-38
-0.14032498 -0.73215777 2.258285 1.4288752e-38
-0.10219771 -0.72793263 2.258461 1.4288752e-38
-0.060259357 -0.73011047 2.2617135 1.4288752e-38
-0.019467806 -0.72966456 2.2597773 1.4288752e-38
0.017931199 -0.72691959 2.2596359 1.4288752e-38
0.046469845 -0.72278476 2.2520003 1.4288752e-38
-0.48257142 -0.70562673 2.2520001 1.4288752e-38
-0.46097976 -0.70149803 2.2523496 1.4288752e-38
-0.42230591 -0.70075566 2.2617841 1.4288752e-38
-0.39762905 -0.69544613 2.266 1.4288752e-38
-0.34054741 -0.71864569 2.266 1.4288752e-38
-0.31292379 -0.71864575 2.2660003 1.4288752e-38
-0.24386477 -0.71864569 2.266 1.4288752e-38
-0.23523238 -0.71756667 2.266 1.4288752e-38
-0.12948571 -0.71864569 2.266 1.4288752e-38
-0.09819334 -0.71756661 2.2660003 1.4288752e-38
-0.065282375 -0.71810609 2.266 1.4288752e-38
-0.015106667 -0.71864569 2.266 1.4288752e-38
0.026727183 -0.71598965 2.2660005 1.4288752e-38
0.060257405 -0.71428287 2.2614412 1.4288752e-38
0.1015166 -0.71025735 2.2617385 1.4288752e-38
0.13979863 -0.70356703 2.2583632 1.4288752e-38
0.18079875 -0.70374131 2.2600362 1.4288752e-38
0.22143057 -0.70003909 2.2610164 1.4288752e-38
0.26055837 -0.69764531 2.2623789 1.4288752e-38
0.2988359 -0.69475025 2.2601666 1.4288752e-38
0.34052053 -0.68928444 2.2584872 1.4288752e-38
0.38095438 -0.69133759 2.2588565 1.4288752e-38
0.42117411 -0.68715626 2.2538259 1.4288752e-38
0.46291134 -0.68857598 2.2607496 1.4288752e-38
0.49723545 -0.68535465 2.2558892 1.4288752e-38
0.53660041 -0.68650752 2.2545455 1.4288752e-38
0.62901425 -0.68614924 2.2541542 1.4288752e-38
0.64630061 -0.68728727 2.2545457 1.4288752e-38
0.78167021 -0.68486702 2.2590001 1.4288752e-38
-0.45928553 -0.67835766 2.2520006 1.4288752e-38
-0.41798997 -0.6647163 2.257884 1.4288752e-38
-0.38573301 -0.6560964 2.2659996 1.4288752e-38
0.30429146 -0.67780793 2.2660005 1.4288752e-38
0.33642307 -0.67884088 2.266 1.4288752e-38
0.37982482 -0.67856681 2.2660005 1.4288752e-38
0.42174017 -0.67634684 2.261935 1.4288752e-38
0.45369804 -0.67747593 2.2660005 1.4288752e-38
0.50101328 -0.67351496 2.2627687 1.4288752e-38
0.53921646 -0.67336118 2.2615192 1.4288752e-38
0.58266133 -0.67507666 2.2609739 1.4288752e-38
0.61897999 -0.67588651 2.2627053 1.4288752e-38
0.66125065 -0.67339015 2.2631421 1.4288752e-38
0.7032572 -0.6699506 2.2608774 1.4288752e-38
0.74138588 -0.67075068 2.2631276 1.4288752e-38
0.77767944 -0.6684882 2.2595379 1.4288752e-38
0.81886256 -0.66507202 2.2626836 1.4288752e-38
0.86170381 -0.65512663 2.2594819 1.4288752e-38
0.89878237 -0.65137309 2.25983 1.4288752e-38
0.93791449 -0.64908367 2.2603993 1.4288752e-38
0.97338361 -0.64369839 2.2577035 1.4288752e-38
1.0037487 -0.64128381 2.2520001 1.4288752e-38
1.0587976 -0.64271367 2.2520003 1.4288752e-38
-0.40302029 -0.62724537 2.2520003 1.4288752e-38
-0.37887454 -0.62079054 2.2577529 1.4288752e-38
-0.35027939 -0.61490047 2.2635996 1.4288752e-38
0.86971247 -0.6366381 2.2660003 1.4288752e-38
0.90294707 -0.63318533 2.266 1.4288752e-38
0.93517464 -0.63483965 2.2660003 1.4288752e-38
0.97988129 -0.63249576 2.2643027 1.4288752e-38
1.0221422 -0.62528473 2.2612536 1.4288752e-38
1.0562531 -0.6202808 2.2613928 1.4288752e-38
-0.36693308 -0.58498383 2.2519999 1.4288752e-38
-0.34148273 -0.5802688 2.2623167 1.4288752e-38
-0.29997522 -0.57215697 2.2659996 1.4288752e-38
-0.2740781 -0.56973714 2.266 1.4288752e-38
1.0544013 -0.58350736 2.2598393 1.4288752e-38
-0.36246476 -0.55978286 2.2520001 1.4288752e-38
-0.33376706 -0.54735535 2.252378 1.4288752e-38
-0.30148327 -0.53950244 2.2609105 1.4288752e-38
-0.2656512 -0.52873331 2.266 1.4288752e-38
-0.23954856 -0.52441716 2.266 1.4288752e-38
1.0380439 -0.53089142 2.266 1.4288752e-38
1.0505706 -0.54245281 2.2602723 1.4288752e-38
-0.32457396 -0.50902355 2.2520001 1.4288752e-38
-0.29610711 -0.50250351 2.2522216 1.4288752e-38
-0.26038378 -0.49903634 2.2622166 1.4288752e-38
-0.22847661 -0.48801112 2.2659998 1.4288752e-38
1.0380439 -0.48988762 2.266 1.4288752e-38
1.0455531 -0.49784207 2.2595994 1.4288752e-38
-0.28447348 -0.47204265 2.2520003 1.4288752e-38
-0.25978979 -0.46179509 2.2555463 1.4288752e-38
-0.22442076 -0.46012834 2.2658007 1.4288752e-38
1.0295076 -0.45931017 2.2634072 1.4288752e-38
1.0458019 -0.47059527 2.2604005 1.4288752e-38
-0.25152212 -0.42534527 2.2519994 1.4288752e-38
-0.22124101 -0.41929758 2.2565544 1.4288752e-38
-0.18596937 -0.41348627 2.2645099 1.4288752e-38
1.0266713 -0.41905177 2.2615192 1.4288752e-38
1.0402097 -0.40107051 2.2520001 1.4288752e-38
-0.2423581 -0.39463621 2.2520001 1.4288752e-38
-0.21833675 -0.38873807 2.2519996 1.4288752e-38
-0.17997247 -0.38066277 2.2609236 1.4288752e-38
-0.14942652 -0.37145138 2.2659998 1.4288752e-38
1.0240741 -0.38030526 2.26262 1.4288752e-38
1.0442098 -0.39369825 2.266 1.4288752e-38
-0.17799723 -0.34270421 2.2525995 1.4288752e-38
-0.14065978 -0.34294561 2.2617283 1.4288752e-38
-0.11869524 -0.34529525 2.266 1.4288752e-38
0.99919802 -0.33882093 2.266 1.4288752e-38
1.0120056 -0.34196529 2.2596996 1.4288752e-38
-0.16657653 -0.3074159 2.2520003 1.4288752e-38
-0.14941841 -0.30956063 2.2520003 1.4288752e-38
0.9901166 -0.29194391 2.2655754 1.4288752e-38
1.0068096 -0.30241138 2.2597239 1.4288752e-38
0.98987532 -0.26229194 2.2608142 1.4288752e-38
1.0016038 -0.27452952 2.2520001 1.4288752e-38
0.98119646 -0.22013773 2.2602849 1.4288752e-38
0.95603621 -0.16401523 2.266 1.4288752e-38
0.97361797 -0.17778626 2.259933 1.4288752e-38
0.95022196 -0.13384202 2.2609086 1.4288752e-38
0.96698689 -0.14918171 2.2584999 1.4288752e-38
0.94309449 -0.10104588 2.2603583 1.4288752e-38
0.91503239 -0.047478095 2.266 1.4288752e-38
0.93009043 -0.0611021 2.2610216 1.4288752e-38
0.91143548 -0.016833147 2.2659998 1.4288752e-38
0.92578 -0.020693548 2.2597773 1.4288752e-38
0.90720111 0.020699123 2.2622302 1.4288752e-38
0.92320585 0.017647538 2.2568696 1.4288752e-38
0.19022068 0.077383138 2.266 1.4288752e-38
0.20070286 0.077691428 2.266 1.4288752e-38
0.8956207 0.062441379 2.2610462 1.4288752e-38
0.18858436 0.094126143 2.2659998 1.4288752e-38
0.20070286 0.090640001 2.266 1.4288752e-38
0.8745681 0.10089095 2.2659998 1.4288752e-38
0.88318479 0.10264739 2.2572498 1.4288752e-38
0.19454646 0.14858711 2.2613335 1.4288752e-38
0.20570056 0.14754556 2.266 1.4288752e-38
0.86736 0.14459863 2.2635763 1.4288752e-38
0.88260001 0.13359937 2.2566671 1.4288752e-38
0.13083048 0.17029409 2.2520001 1.4288752e-38
0.19175611 0.17071065 2.2526667 1.4288752e-38
0.21645196 0.18161246 2.2619994 1.4288752e-38
0.86211205 0.17800803 2.2606666 1.4288752e-38
0.88149714 0.16300192 2.2520001 1.4288752e-38
0.22784173 0.21751164 2.2568269 1.4288752e-38
0.25324747 0.22451706 2.2636163 1.4288752e-38
0.83887047 0.2263988 2.2610004 1.4288752e-38
0.85161233 0.21520765 2.2571213 1.4288752e-38
0.23592381 0.24879239 2.2520001 1.4288752e-38
0.26001683 0.26091397 2.2604003 1.4288752e-38
0.29404044 0.27245951 2.2659998 1.4288752e-38
0.83161139 0.26330823 2.2641327 1.4288752e-38
0.84485638 0.26007783 2.2551818 1.4288752e-38
0.26680517 0.28856874 2.2539997 1.4288752e-38
0.29866654 0.30013731 2.259928 1.4288752e-38
0.33178717 0.30972657 2.2659998 1.4288752e-38
0.82384789 0.29982564 2.2601447 1.4288752e-38
0.3060292 0.3350279 2.2575412 1.4288752e-38
0.3385357 0.33976936 2.2637224 1.4288752e-38
0.36725706 0.34770724 2.2660003 1.4288752e-38
0.79190397 0.35293421 2.2634549 1.4288752e-38
0.81610781 0.3382448 2.2617579 1.4288752e-38
0.31956953 0.36246476 2.2520001 1.4288752e-38
0.34505397 0.3725892 2.2550726 1.4288752e-38
0.37594649 0.38312152 2.2642801 1.4288752e-38
0.40883914 0.39541101 2.266 1.4288752e-38
0.78970718 0.36593023 2.2594121 1.4288752e-38
0.80428576 0.36460954 2.2520001 1.4288752e-38
0.38870317 0.41531709 2.2589993 1.4288752e-38
0.41584259 0.42628911 2.2627494 1.4288752e-38
0.44780475 0.43539572 2.266 1.4288752e-38
0.39463621 0.47613713 2.2520001 1.4288752e-38
0.4265016 0.45347109 2.2546246 1.4288752e-38
0.45521885 0.4499281 2.2659996 1.4288752e-38
-0.41036066 -0.73635399 2.2819405 1.4288752e-38
-0.38080296 -0.73281509 2.2932868 1.4288752e-38
-0.3359555 -0.72545069 2.2970564 1.4288752e-38
-0.29909584 -0.72496372 2.2983105 1.4288752e-38
-0.26738697 -0.72429198 2.2972143 1.4288752e-38
-0.21193977 -0.72415698 2.28965 1.4288752e-38
-0.17861935 -0.72555107 2.2849579 1.4288752e-38
-0.15222776 -0.72528917 2.2859235 1.4288752e-38
-0.054309528 -0.72340292 2.2810001 1.4288752e-38
-0.020094525 -0.72340292 2.2810001 1.4288752e-38
0.0086895246 -0.72340292 2.2810001 1.4288752e-38
-0.40189049 -0.71688575 2.2810001 1.4288752e-38
-0.37836358 -0.70043027 2.2886887 1.4288752e-38
-0.34260845 -0.69918495 2.3089476 1.4288752e-38
-0.30572602 -0.70613402 2.3120003 1.4288752e-38
-0.25659722 -0.71356779 2.3058372 1.4288752e-38
-0.22063562 -0.71175176 2.3032763 1.4288752e-38
-0.17814973 -0.71453017 2.3032215 1.4288752e-38
-0.13780092 -0.70701748 2.3045039 1.4288752e-38
-0.099735297 -0.70869881 2.3015952 1.4288752e-38
-0.05803024 -0.7118237 2.297473 1.4288752e-38
-0.01990925 -0.71143514 2.2979341 1.4288752e-38
0.017900439 -0.70759934 2.297817 1.4288752e-38
0.060024455 -0.70270824 2.2951334 1.4288752e-38
0.098053217 -0.69482952 2.3001199 1.4288752e-38
0.13998695 -0.69168425 2.2988856 1.4288752e-38
0.17879252 -0.68710965 2.2929652 1.4288752e-38
0.21799533 -0.68576676 2.2877741 1.4288752e-38
0.25480324 -0.68428862 2.2883079 1.4288752e-38
0.28458193 -0.68538618 2.2810001 1.4288752e-38
0.33889145 -0.68430001 2.2810001 1.4288752e-38
0.47140667 -0.68430001 2.2810001 1.4288752e-38
-0.37034449 -0.66903722 2.2849996 1.4288752e-38
-0.34040725 -0.65901786 2.3021903 1.4288752e-38
-0.30866703 -0.6543662 2.3119988 1.4288752e-38
0.10348953 -0.67598474 2.312 1.4288752e-38
0.13982095 -0.67488384 2.312 1.4288752e-38
0.18982987 -0.67225325 2.3080003 1.4288752e-38
0.2181794 -0.67188591 2.3057685 1.4288752e-38
0.2620337 -0.67416221 2.2974353 1.4288752e-38
0.29923511 -0.6712147 2.2914107 1.4288752e-38
0.34086591 -0.67114395 2.2955923 1.4288752e-38
0.38060954 -0.66934788 2.2937138 1.4288752e-38
0.41724482 -0.66498709 2.2937791 1.4288752e-38
0.46211061 -0.66460103 2.294172 1.4288752e-38
0.49761173 -0.65959269 2.291714 1.4288752e-38
0.540326 -0.65650904 2.2945726 1.4288752e-38
0.58028275 -0.65907961 2.2955353 1.4288752e-38
0.61946386 -0.65972155 2.2939982 1.4288752e-38
0.65841448 -0.65341604 2.2925169 1.4288752e-38
0.70037782 -0.65128195 2.2918143 1.4288752e-38
0.7395277 -0.65437424 2.2863905 1.4288752e-38
0.78110456 -0.65115255 2.2910163 1.4288752e-38
0.81923145 -0.65163708 2.2915072 1.4288752e-38
0.85062587 -0.64721924 2.2870502 1.4288752e-38
0.88415909 -0.64085239 2.2810001 1.4288752e-38
0.95367527 -0.64085239 2.2810001 1.4288752e-38
-0.33247721 -0.62100589 2.2894697 1.4288752e-38
-0.3015596 -0.6195451 2.306771 1.4288752e-38
-0.26504457 -0.60687256 2.3091431 1.4288752e-38
0.65983748 -0.63635051 2.312 1.4288752e-38
0.71905816 -0.63650769 2.2810001 1.4288752e-38
0.73808128 -0.63505763 2.3049233 1.4288752e-38
0.79075533 -0.63259327 2.3063753 1.4288752e-38
0.81426442 -0.63546973 2.312 1.4288752e-38
0.86758494 -0.63256264 2.2992215 1.4288752e-38
0.8979485 -0.62718201 2.2950199 1.4288752e-38
0.94466269 -0.6291433 2.2970223 1.4288752e-38
0.97906387 -0.61987412 2.2979848 1.4288752e-38
1.020252 -0.61362129 2.295902 1.4288752e-38
1.0427847 -0.60347766 2.2900002 1.4288752e-38
-0.32802957 -0.59740484 2.2810001 1.4288752e-38
-0.29881689 -0.5853945 2.2814202 1.4288752e-38
-0.25811353 -0.57940215 2.2985876 1.4288752e-38
-0.22579534 -0.57069361 2.3120003 1.4288752e-38
1.0361714 -0.580827 2.3050838 1.4288752e-38
1.0461361 -0.57931048 2.2943251 1.4288752e-38
-0.28240955 -0.55106068 2.2810001 1.4288752e-38
-0.25965193 -0.54385185 2.2847323 1.4288752e-38
-0.22066996 -0.53675669 2.3040428 1.4288752e-38
-0.18904926 -0.53003007 2.312 1.4288752e-38
1.0342969 -0.54142165 2.3036301 1.4288752e-38
1.0439802 -0.54257733 2.290235 1.4288752e-38
-0.24222048 -0.50507861 2.2810001 1.4288752e-38
-0.21770927 -0.50484771 2.2917492 1.4288752e-38
-0.1819893 -0.49825814 2.308362 1.4288752e-38
1.0259407 -0.49355248 2.2991619 1.4288752e-38
1.0421268 -0.5077706 2.287111 1.4288752e-38
-0.20484515 -0.45837936 2.2843683 1.4288752e-38
-0.18088439 -0.46076298 2.2954931 1.4288752e-38
-0.14992273 -0.45163405 2.3095002 1.4288752e-38
0.99526101 -0.44258285 2.312 1.4288752e-38
1.0163194 -0.45923778 2.2897794 1.4288752e-38
1.0405706 -0.47140667 2.2810001 1.4288752e-38
-0.20203143 -0.43664858 2.2810001 1.4288752e-38
-0.17292154 -0.42810389 2.2809994 1.4288752e-38
-0.1406984 -0.42002136 2.3056259 1.4288752e-38
-0.10841141 -0.41538289 2.3119993 1.4288752e-38
0.99659759 -0.4156343 2.3090003 1.4288752e-38
1.0111761 -0.42063406 2.292985 1.4288752e-38
-0.13644627 -0.38239953 2.2851102 1.4288752e-38
-0.10132816 -0.3795855 2.3049023 1.4288752e-38
0.99202973 -0.37684253 2.2988787 1.4288752e-38
1.0094852 -0.38179585 2.2833683 1.4288752e-38
-0.12382573 -0.35844287 2.2810001 1.4288752e-38
-0.1168741 -0.35496709 2.2810001 1.4288752e-38
0.98995382 -0.34016135 2.2954915 1.4288752e-38
1.0056312 -0.33925354 2.2809997 1.4288752e-38
0.98103291 -0.30115849 2.2902486 1.4288752e-38
1.0049435 -0.31760213 2.2810001 1.4288752e-38
0.95426244 -0.25191328 2.3100624 1.4288752e-38
0.97216666 -0.25865909 2.290309 1.4288752e-38
0.95027786 -0.21814276 2.3015065 1.4288752e-38
0.96815467 -0.22305928 2.2844555 1.4288752e-38
0.94799054 -0.17827323 2.2989583 1.4288752e-38
0.96497166 -0.18552138 2.2810004 1.4288752e-38
0.93670261 -0.14135136 2.2941391 1.4288752e-38
0.91378057 -0.094638079 2.3046362 1.4288752e-38
0.92705029 -0.099718653 2.2886238 1.4288752e-38
0.90833014 -0.058410723 2.2979846 1.4288752e-38
0.92474473 -0.068801403 2.2846925 1.4288752e-38
0.87856001 -0.0022019048 2.312 1.4288752e-38
0.89657265 -0.019999327 2.2927098 1.4288752e-38
0.92326194 -0.036930475 2.2810001 1.4288752e-38
0.87217808 0.025683869 2.3082497 1.4288752e-38
0.89082402 0.018559229 2.2918913 1.4288752e-38
0.19814889 0.071846038 2.2863336 1.4288752e-38
0.2180746 0.066533118 2.3021243 1.4288752e-38
0.8711049 0.059252575 2.2975211 1.4288752e-38
0.8860538 0.054326568 2.2819412 1.4288752e-38
0.19551431 0.1151362 2.2810001 1.4288752e-38
0.21893652 0.10143143 2.2904539 1.4288752e-38
0.24832644 0.10575691 2.307435 1.4288752e-38
0.86286956 0.10067809 2.2933724 1.4288752e-38
0.88415909 0.0803781 2.2810001 1.4288752e-38
0.19520396 0.12941186 2.2810001 1.4288752e-38
0.22396208 0.13858636 2.2849996 1.4288752e-38
0.25956568 0.14304839 2.3013134 1.4288752e-38
0.28536686 0.14004116 2.312 1.4288752e-38
0.83892572 0.12991239 2.312 1.4288752e-38
0.85451895 0.13589728 2.2922957 1.4288752e-38
0.23225591 0.17558506 2.2809997 1.4288752e-38
0.26002488 0.18020116 2.2883003 1.4288752e-38
0.28971672 0.18323247 2.307781 1.4288752e-38
0.82990134 0.18519065 2.3038113 1.4288752e-38
0.84688163 0.1780744 2.2881355 1.4288752e-38
0.26828903 0.21411535 2.2809992 1.4288752e-38
0.29919478 0.21990132 2.2960703 1.4288752e-38
0.33323514 0.22944906 2.3092225 1.4288752e-38
0.82637089 0.21971196 2.29561 1.4288752e-38
0.84158051 0.21550022 2.2810001 1.4288752e-38
0.27589238 0.25156173 2.2810001 1.4288752e-38
0.30189145 0.25523317 2.2834613 1.4288752e-38
0.3403362 0.25935963 2.3003364 1.4288752e-38
0.37102097 0.27248567 2.312 1.4288752e-38
0.82105821 0.25685149 2.2981117 1.4288752e-38
0.84071147 0.24113429 2.2810001 1.4288752e-38
0.31789178 0.28168544 2.2810001 1.4288752e-38
0.34306231 0.295412 2.2840865 1.4288752e-38
0.37617078 0.30379224 2.2978716 1.4288752e-38
0.40033433 0.31282955 2.2970002 1.4288752e-38
0.79752439 0.3129448 2.3044002 1.4288752e-38
0.8099454 0.30018008 2.2903137 1.4288752e-38
0.38251206 0.33887222 2.2859831 1.4288752e-38
0.41816252 0.34262758 2.3028436 1.4288752e-38
0.44870529 0.3563205 2.3095002 1.4288752e-38
0.78942657 0.34253216 2.2929523 1.4288752e-38
0.80526918 0.33726555 2.2829375 1.4288752e-38
0.38972518 0.37480813 2.2809994 1.4288752e-38
0.42170906 0.37760004 2.2855999 1.4288752e-38
0.45591 0.38479656 2.2986596 1.4288752e-38
0.48221713 0.39634284 2.312 1.4288752e-38
0.78204262 0.37801835 2.3019202 1.4288752e-38
0.42966589 0.41352835 2.2809994 1.4288752e-38
0.46023247 0.4179562 2.2837017 1.4288752e-38
0.49796981 0.42846799 2.3101254 1.4288752e-38
0.52680576 0.42964664 2.312 1.4288752e-38
0.75965714 0.41175619 2.312 1.4288752e-38
0.76797545 0.40979901 2.312 1.4288752e-38
0.42543572 0.47331956 2.2850001 1.4288752e-38
0.47068256 0.44244164 2.2810001 1.4288752e-38
0.50253826 0.44941717 2.3085928 1.4288752e-38
0.53626186 0.44775954 2.3112106 1.4288752e-38
0.42056379 0.48441902 2.312 1.4288752e-38
-0.32704639 -0.70633161 2.3270001 1.4288752e-38
-0.29885814 -0.6965673 2.3274643 1.4288752e-38
-0.25947493 -0.69434458 2.3366847 1.4288752e-38
-0.22034203 -0.69392502 2.3430011 1.4288752e-38
-0.18106104 -0.69860786 2.3443716 1.4288752e-38
-0.14167601 -0.68595463 2.3404408 1.4288752e-38
-0.10010653 -0.68845373 2.3411024 1.4288752e-38
-0.060923301 -0.69220495 2.338398 1.4288752e-38
-0.02031224 -0.69194764 2.337183 1.4288752e-38
0.020241281 -0.689955 2.3307457 1.4288752e-38
0.059302099 -0.68868333 2.3280225 1.4288752e-38
0.098251127 -0.68184799 2.3269999 1.4288752e-38
0.14405239 -0.68147856 2.3269999 1.4288752e-38
0.1639981 -0.68037051 2.3270001 1.4288752e-38
-0.29127076 -0.66137451 2.3270011 1.4288752e-38
-0.2600871 -0.6593377 2.3430002 1.4288752e-38
-0.2277192 -0.65760243 2.3575461 1.4288752e-38
-0.19995335 -0.67624676 2.3590002 1.4288752e-38
-0.13954298 -0.67574745 2.3590004 1.4288752e-38
-0.095857792 -0.67549789 2.3590002 1.4288752e-38
-0.064512625 -0.67481923 2.3560002 1.4288752e-38
-0.016066829 -0.6726495 2.3536673 1.4288752e-38
0.023315629 -0.66758144 2.3435938 1.4288752e-38
0.059633192 -0.66246778 2.343832 1.4288752e-38
0.099253558 -0.66729444 2.3408315 1.4288752e-38
0.13926968 -0.66664714 2.3370011 1.4288752e-38
0.18004568 -0.66328198 2.33776 1.4288752e-38
0.2198901 -0.65917295 2.3433087 1.4288752e-38
0.26083297 -0.65820581 2.3403335 1.4288752e-38
0.29999897 -0.65304071 2.340234 1.4288752e-38
0.34081998 -0.65189785 2.3406219 1.4288752e-38
0.37925452 -0.6513685 2.3324246 1.4288752e-38
0.4199703 -0.6481601 2.3296137 1.4288752e-38
0.45730102 -0.64837408 2.332021 1.4288752e-38
0.50182658 -0.64568919 2.3343852 1.4288752e-38
0.53794283 -0.64402032 2.3282797 1.4288752e-38
0.57617384 -0.64607185 2.3321767 1.4288752e-38
0.62102509 -0.64562249 2.3280325 1.4288752e-38
0.65007818 -0.64156753 2.3323336 1.4288752e-38
0.70146263 -0.64195168 2.3283334 1.4288752e-38
0.73282039 -0.64195657 2.3270001 1.4288752e-38
0.77310091 -0.64567971 2.3276954 1.4288752e-38
0.82537276 -0.64174551 2.3270001 1.4288752e-38
0.84939396 -0.641087 2.3338575 1.4288752e-38
-0.2814562 -0.63161433 2.3270001 1.4288752e-38
-0.25732794 -0.62387699 2.3273153 1.4288752e-38
-0.22144921 -0.61793387 2.3388793 1.4288752e-38
-0.1921512 -0.61193663 2.3520441 1.4288752e-38
0.30647108 -0.63583678 2.3558004 1.4288752e-38
0.33983251 -0.63432896 2.3568671 1.4288752e-38
0.38218653 -0.63228995 2.3483336 1.4288752e-38
0.41857168 -0.63132173 2.3461115 1.4288752e-38
0.46340349 -0.63138616 2.3518896 1.4288752e-38
0.50157136 -0.62963092 2.3504426 1.4288752e-38
0.54084837 -0.62568313 2.3470006 1.4288752e-38
0.58020067 -0.62631392 2.3477504 1.4288752e-38
0.61640543 -0.62870997 2.3392797 1.4288752e-38
0.6609785 -0.62609494 2.3421874 1.4288752e-38
0.69847375 -0.62189347 2.3455369 1.4288752e-38
0.73638213 -0.6260587 2.3424394 1.4288752e-38
0.78086239 -0.62135214 2.3414209 1.4288752e-38
0.81948632 -0.62018514 2.3384008 1.4288752e-38
0.85967541 -0.6196717 2.3423603 1.4288752e-38
0.90119219 -0.61541939 2.3426933 1.4288752e-38
0.94020742 -0.6132586 2.3341999 1.4288752e-38
0.97860122 -0.60597712 2.3297436 1.4288752e-38
1.0168871 -0.60507619 2.3310001 1.4288752e-38
-0.2415648 -0.58433563 2.3270001 1.4288752e-38
-0.21550445 -0.58147216 2.3275833 1.4288752e-38
-0.18090808 -0.58054829 2.3486218 1.4288752e-38
-0.15689224 -0.57364899 2.3590007 1.4288752e-38
0.70770007 -0.59986001 2.3590002 1.4288752e-38
0.78053117 -0.5971477 2.3483338 1.4288752e-38
0.80206007 -0.59986001 2.3590002 1.4288752e-38
0.86272007 -0.59986001 2.3590002 1.4288752e-38
0.93755448 -0.59283632 2.350385 1.4288752e-38
0.98517048 -0.5918656 2.3480003 1.4288752e-38
1.0203511 -0.57868755 2.3404193 1.4288752e-38
1.0438257 -0.58064198 2.3270001 1.4288752e-38
-0.20965163 -0.55316126 2.3269999 1.4288752e-38
-0.17529684 -0.54226345 2.3313091 1.4288752e-38
-0.14763001 -0.53828728 2.3566592 1.4288752e-38
1.0194863 -0.53844696 2.3334763 1.4288752e-38
1.0438257 -0.52745336 2.3270001 1.4288752e-38
-0.16379662 -0.50549299 2.3269999 1.4288752e-38
-0.14190528 -0.49979958 2.3410006 1.4288752e-38
-0.10105612 -0.49724767 2.3564744 1.4288752e-38
-0.078633346 -0.48303339 2.3590002 1.4288752e-38
0.99290067 -0.49398202 2.3475134 1.4288752e-38
1.0145588 -0.50554788 2.3313091 1.4288752e-38
1.0438257 -0.51637244 2.3270001 1.4288752e-38
-0.13540405 -0.46295038 2.3279073 1.4288752e-38
-0.10050777 -0.45963904 2.3361742 1.4288752e-38
-0.077956304 -0.46154276 2.353667 1.4288752e-38
0.99116963 -0.45918572 2.3411896 1.4288752e-38
1.008114 -0.46061552 2.329 1.4288752e-38
-0.13075525 -0.43215716 2.3270001 1.4288752e-38
-0.09161596 -0.42262506 2.3273821 1.4288752e-38
-0.073896192 -0.41915718 2.3516157 1.4288752e-38
0.98583174 -0.42087904 2.3403015 1.4288752e-38
1.007157 -0.42854404 2.3287778 1.4288752e-38
-0.089193895 -0.37034905 2.3327146 1.4288752e-38
-0.065279208 -0.37694556 2.3443627 1.4288752e-38
-0.028645001 -0.36592582 2.3590007 1.4288752e-38
0.95728296 -0.36372289 2.3430002 1.4288752e-38
0.9792034 -0.38078028 2.340914 1.4288752e-38
-0.091717154 -0.35708225 2.3483336 1.4288752e-38
-0.052408755 -0.33789766 2.3368192 1.4288752e-38
-0.020922454 -0.34118766 2.3483341 1.4288752e-38
0.0042420109 -0.3350071 2.3572228 1.4288752e-38
0.95462722 -0.33623737 2.3480525 1.4288752e-38
0.97526002 -0.3408595 2.3392229 1.4288752e-38
-0.044323809 -0.31691524 2.3270001 1.4288752e-38
-0.029041588 -0.3187086 2.3456669 1.4288752e-38
0.0044628573 -0.31686288 2.3430002 1.4288752e-38
0.95057112 -0.29902905 2.3455107 1.4288752e-38
0.97121823 -0.30478948 2.3345113 1.4288752e-38
0.94010532 -0.25937942 2.3390472 1.4288752e-38
0.96625912 -0.27480763 2.3270001 1.4288752e-38
0.93147981 -0.2203244 2.3373787 1.4288752e-38
0.91217673 -0.17140935 2.3463943 1.4288752e-38
0.93040985 -0.18521023 2.3335199 1.4288752e-38
0.9060356 -0.1393951 2.3413255 1.4288752e-38
0.92573452 -0.14246939 2.3270001 1.4288752e-38
0.8975805 -0.10219391 2.338378 1.4288752e-38
0.87297261 -0.05239439 2.3485177 1.4288752e-38
0.89018267 -0.062298845 2.3355172 1.4288752e-38
0.23328954 -0.0037165079 2.3403337 1.4288752e-38
0.24959025 -0.0071346327 2.3531823 1.4288752e-38
0.86741668 -0.01837988 2.3400917 1.4288752e-38
0.88770753 -0.022900634 2.3269999 1.4288752e-38
0.22528954 0.020914724 2.3374009 1.4288752e-38
0.25587589 0.022782255 2.3489268 1.4288752e-38
0.83526462 0.034946807 2.3567147 1.4288752e-38
0.85764384 0.018965561 2.3400731 1.4288752e-38
0.22670914 0.049901694 2.3311479 1.4288752e-38
0.26008996 0.060499568 2.3379374 1.4288752e-38
0.29218817 0.063664168 2.3522639 1.4288752e-38
0.83584309 0.047084004 2.3542004 1.4288752e-38
0.85235751 0.060803965 2.3396204 1.4288752e-38
0.23713239 0.084215246 2.3270001 1.4288752e-38
0.26460981 0.09631402 2.3325286 1.4288752e-38
0.29880685 0.10181339 2.348254 1.4288752e-38
0.32191527 0.10687716 2.3590002 1.4288752e-38
0.82791775 0.10522251 2.3489616 1.4288752e-38
0.84914786 0.096174158 2.3354907 1.4288752e-38
0.26657608 0.12758927 2.3270001 1.4288752e-38
0.30344191 0.13994372 2.3337107 1.4288752e-38
0.33996955 0.14668562 2.3524828 1.4288752e-38
0.3672888 0.1481014 2.356334 1.4288752e-38
0.79756677 0.14753112 2.3590002 1.4288752e-38
0.81826311 0.14155972 2.3394635 1.4288752e-38
0.84610921 0.13947168 2.3327141 1.4288752e-38
0.30783945 0.17655653 2.3270011 1.4288752e-38
0.34068659 0.18034013 2.3378651 1.4288752e-38
0.37302718 0.18320167 2.3502004 1.4288752e-38
0.79606891 0.19471113 2.3590002 1.4288752e-38
0.81298745 0.17897741 2.3366845 1.4288752e-38
0.8465848 0.1639981 2.3270001 1.4288752e-38
0.31691524 0.20167334 2.3270001 1.4288752e-38
0.34316191 0.21347857 2.3311613 1.4288752e-38
0.37946361 0.22183585 2.3408091 1.4288752e-38
0.40909481 0.2286267 2.3536673 1.4288752e-38
0.78865933 0.222671 2.349401 1.4288752e-38
0.8081435 0.21957605 2.3306241 1.4288752e-38
0.3568067 0.24378097 2.3270001 1.4288752e-38
0.38118398 0.25808498 2.3281431 1.4288752e-38
0.41885504 0.26121074 2.3450286 1.4288752e-38
0.45082745 0.27525088 2.3574007 1.4288752e-38
0.78461945 0.2618196 2.3438654 1.4288752e-38
0.80748618 0.25960681 2.3278215 1.4288752e-38
0.3875871 0.28884348 2.3269999 1.4288752e-38
0.4203344 0.29947346 2.3328738 1.4288752e-38
0.46156776 0.30038986 2.3452868 1.4288752e-38
0.49319434 0.30888531 2.3515713 1.4288752e-38
0.77712911 0.30001694 2.3394446 1.4288752e-38
0.80548459 0.2921342 2.3269999 1.4288752e-38
0.4232924 0.3237116 2.3270001 1.4288752e-38
0.46150342 0.33877981 2.3341358 1.4288752e-38
0.50082743 0.34233588 2.347384 1.4288752e-38
0.53708571 0.35415608 2.3566005 1.4288752e-38
0.75377727 0.34652141 2.3522635 1.4288752e-38
0.77554107 0.33832017 2.3366389 1.4288752e-38
0.80004483 0.32799619 2.3270001 1.4288752e-38
0.4709405 0.37099034 2.3269999 1.4288752e-38
0.50001192 0.37924275 2.3314559 1.4288752e-38
0.54093945 0.38043445 2.3450782 1.4288752e-38
0.56532824 0.3839103 2.3574007 1.4288752e-38
0.74605751 0.38426244 2.3496037 1.4288752e-38
0.77084166 0.37951651 2.3318825 1.4288752e-38
0.80004483 0.39669812 2.3270001 1.4288752e-38
0.50532591 0.41664764 2.329668 1.4288752e-38
0.53971589 0.417463 2.3333459 1.4288752e-38
0.57749599 0.42471141 2.3507726 1.4288752e-38
0.60704941 0.43091074 2.3590004 1.4288752e-38
0.74053973 0.42089102 2.3419335 1.4288752e-38
0.77488148 0.41898429 2.3318706 1.4288752e-38
0.80004483 0.4011305 2.3270001 1.4288752e-38
0.50085902 0.44545433 2.3270001 1.4288752e-38
0.54872888 0.44589755 2.3269999 1.4288752e-38
0.57665586 0.4460769 2.3353477 1.4288752e-38
0.61370611 0.44744435 2.3550005 1.4288752e-38
0.72656316 0.44690868 2.3554447 1.4288752e-38
0.76634836 0.44203275 2.3323336 1.4288752e-38
-0.24846172 -0.68474066 2.3760002 1.4288752e-38
-0.21497144 -0.68688011 2.3759999 1.4288752e-38
-0.1824294 -0.68478364 2.3759999 1.4288752e-38
-0.10454401 -0.68202513 2.3760002 1.4288752e-38
-0.042994291 -0.68112004 2.3760002 1.4288752e-38
-0.036205716 -0.68112004 2.3760002 1.4288752e-38
-0.21175317 -0.66130728 2.3759997 1.4288752e-38
-0.17913723 -0.66042089 2.3840003 1.4288752e-38
-0.13945629 -0.65854466 2.3867297 1.4288752e-38
-0.10130807 -0.66503185 2.3824558 1.4288752e-38
-0.060262345 -0.66521275 2.3879993 1.4288752e-38
-0.019711977 -0.66167235 2.3867536 1.4288752e-38
0.017100457 -0.65700799 2.3874774 1.4288752e-38
0.060548082 -0.64767492 2.3889024 1.4288752e-38
0.10296862 -0.65587324 2.3886309 1.4288752e-38
0.14005369 -0.65208834 2.3875079 1.4288752e-38
0.17815728 -0.65042722 2.3862634 1.4288752e-38
0.22158331 -0.6461392 2.3830235 1.4288752e-38
0.25427276 -0.6452145 2.3783703 1.4288752e-38
0.29570723 -0.64031887 2.3805718 1.4288752e-38
0.35074288 -0.64038861 2.3760002 1.4288752e-38
-0.17442857 -0.62322861 2.3759997 1.4288752e-38
-0.13834015 -0.61948848 2.3886557 1.4288752e-38
-0.11041168 -0.61037773 2.3920004 1.4288752e-38
0.12985143 -0.63558859 2.3920002 1.4288752e-38
0.19439748 -0.63255119 2.3920002 1.4288752e-38
0.22211437 -0.62837446 2.3919992 1.4288752e-38
0.25998133 -0.63055849 2.3892565 1.4288752e-38
0.29983371 -0.63191968 2.3872936 1.4288752e-38
0.34344617 -0.62615013 2.3881731 1.4288752e-38
0.37913013 -0.61985016 2.3877885 1.4288752e-38
0.42181158 -0.61787528 2.3893325 1.4288752e-38
0.45724222 -0.61975127 2.3867683 1.4288752e-38
0.50208545 -0.61735117 2.3882544 1.4288752e-38
0.53897417 -0.6114732 2.3863993 1.4288752e-38
0.58236808 -0.60960752 2.3839996 1.4288752e-38
0.62025476 -0.61402547 2.3829558 1.4288752e-38
0.65814126 -0.61497164 2.3849993 1.4288752e-38
0.69168413 -0.60804421 2.3781335 1.4288752e-38
0.74178439 -0.61072624 2.3865356 1.4288752e-38
0.7742129 -0.61175632 2.3835552 1.4288752e-38
0.82179374 -0.60531682 2.3825884 1.4288752e-38
0.85180748 -0.60630643 2.3805718 1.4288752e-38
0.89963126 -0.60812229 2.3836794 1.4288752e-38
0.92411596 -0.60743779 2.3888004 1.4288752e-38
-0.16066287 -0.59739435 2.3760002 1.4288752e-38
-0.13760149 -0.58224404 2.3793442 1.4288752e-38
-0.10409641 -0.57932931 2.3906198 1.4288752e-38
-0.079733342 -0.56268954 2.3920002 1.4288752e-38
0.4487848 -0.59913909 2.3920002 1.4288752e-38
0.55448842 -0.59731668 2.3920002 1.4288752e-38
0.58433151 -0.59724081 2.3920002 1.4288752e-38
0.61078274 -0.5961017 2.3920002 1.4288752e-38
0.66853344 -0.59528399 2.3920002 1.4288752e-38
0.69745535 -0.59407252 2.3862555 1.4288752e-38
0.73924196 -0.59572196 2.3920002 1.4288752e-38
0.7841906 -0.59703636 2.3920002 1.4288752e-38
0.82048237 -0.59603721 2.3899128 1.4288752e-38
0.86314088 -0.59225917 2.3887992 1.4288752e-38
0.90038681 -0.58745509 2.390034 1.4288752e-38
0.9367826 -0.58586866 2.3864341 1.4288752e-38
0.98129052 -0.58249152 2.3842499 1.4288752e-38
1.0068455 -0.57432461 2.3810906 1.4288752e-38
-0.13277863 -0.54564059 2.3759997 1.4288752e-38
-0.10211829 -0.54054034 2.380223 1.4288752e-38
-0.0747924 -0.53354764 2.3889999 1.4288752e-38
0.99173087 -0.53383374 2.3920002 1.4288752e-38
1.0081192 -0.54067045 2.3858175 1.4288752e-38
-0.12672001 -0.51819432 2.3760002 1.4288752e-38
-0.099739783 -0.51471293 2.3759999 1.4288752e-38
-0.066148892 -0.49673903 2.3892298 1.4288752e-38
-0.036449526 -0.48067811 2.3920002 1.4288752e-38
0.98839766 -0.49926499 2.387151 1.4288752e-38
1.0029867 -0.51679623 2.3800004 1.4288752e-38
-0.058807828 -0.4595266 2.3861582 1.4288752e-38
-0.028895846 -0.45729774 2.391999 1.4288752e-38
0.95907819 -0.46245337 2.3920002 1.4288752e-38
0.97920704 -0.46104825 2.3859992 1.4288752e-38
-0.054233119 -0.41971886 2.3787165 1.4288752e-38
-0.021556292 -0.42019966 2.3903148 1.4288752e-38
