# .PCD v0.7 - Point Cloud Data file format
VERSION 0.7
FIELDS x y z rgb
SIZE 4 4 4 4
TYPE F F F F
COUNT 1 1 1 1
WIDTH 216
HEIGHT 1
VIEWPOINT 0 0 0 1 0 0 0
POINTS 216
DATA ascii
0.25896043 0.19743964 0.55242449 9.851585e-39
0.11168198 0.23741327 0.55547923 9.8479837e-39
0.14205727 0.23449993 0.54882872 9.6646728e-39
0.18156375 0.22900756 0.54275799 9.3891663e-39
0.22111793 0.22173311 0.53952676 9.0211041e-39
0.25119233 0.21713665 0.53821802 8.7448815e-39
0.07610631 0.2479717 0.55803448 9.4795655e-39
0.099170186 0.24298291 0.55235463 9.6635952e-39
0.1360669 0.24093983 0.54122317 9.1111431e-39
0.16437334 0.24043429 0.53600001 8.4664954e-39
0.25860476 0.24099964 0.53622735 7.4563035e-39
0.26488069 0.19515842 0.56137329 9.5746436e-39
0.069516361 0.23728713 0.58277625 9.5728359e-39
0.099905215 0.2316349 0.57230318 1.0493353e-38
0.13857877 0.22892766 0.56967479 1.0033454e-38
0.17844191 0.22132421 0.56375295 9.7586649e-39
0.21529903 0.21176939 0.56557733 9.7590251e-39
0.24457645 0.20138711 0.56168425 9.1143857e-39
0.031900652 0.25434899 0.58984929 9.4799298e-39
0.05709926 0.24642476 0.57745749 8.9271134e-39
0.083907925 0.24151681 0.56192505 9.5713996e-39
0.038432226 0.23767531 0.62258327 1.0955779e-38
0.06252154 0.22856469 0.61582017 1.0769583e-38
0.099823639 0.21924037 0.62065405 1.1597541e-38
0.13818997 0.2226492 0.6269787 1.3993551e-38
0.16535935 0.23158243 0.63558012 1.6024376e-38
0.028627399 0.25065574 0.60841948 1.031149e-38
0.042300172 0.24097277 0.6027059 1.0125295e-38
0.14760923 0.24165523 0.6211378 1.1139085e-38
0.168161 0.243864 0.63207322 1.2522021e-38
0.074809961 0.19631235 0.67108166 1.2795731e-38
0.10176736 0.19058375 0.66062397 1.3440016e-38
0.13925914 0.18785413 0.66115034 1.555979e-38
0.17229302 0.19061378 0.66914541 1.8416415e-38
0.037331257 0.23651111 0.65666014 1.0957222e-38
0.059790064 0.21609367 0.65717137 1.1691542e-38
0.093753576 0.20360644 0.64395946 1.2426223e-38
0.1466257 0.20525911 0.64327842 1.5928218e-38
0.17810199 0.21742392 0.65278709 1.7773207e-38
0.22239989 0.2261268 0.66740745 1.1230551e-38
0.25839224 0.22355302 0.66155779 1.344289e-38
0.29247817 0.22494404 0.66888505 1.657754e-38
0.032471634 0.24455224 0.65284371 1.0590239e-38
0.040114284 0.24006857 0.648 1.104798e-38
0.19046625 0.24851789 0.65573496 9.0182272e-39
0.21046458 0.24556486 0.65599704 9.8494214e-39
0.11157081 0.15671462 0.71353048 1.3716241e-38
0.14105882 0.15238796 0.70934701 1.4637835e-38
0.17815706 0.15298142 0.71074253 1.5928208e-38
0.21101765 0.15688603 0.71575588 1.685016e-38
0.0708066 0.19039549 0.69940943 1.3073038e-38
0.099430442 0.17315476 0.6972003 1.3624406e-38
0.13953955 0.16794139 0.68981546 1.4914062e-38
0.18233222 0.17398673 0.69321674 1.6479584e-38
0.21959603 0.18116823 0.69799215 1.4454524e-38
0.25725776 0.1873408 0.70277268 1.7403707e-38
0.28796667 0.19472009 0.71102774 1.8694444e-38
0.038881376 0.2284596 0.7025556 8.9350349e-39
0.051509704 0.21247414 0.69557768 1.2337997e-38
0.19872278 0.21160473 0.6869092 1.0296371e-38
0.21408668 0.20794593 0.683272 1.1414225e-38
0.26227596 0.2054155 0.68508428 1.5837817e-38
0.3009806 0.21225293 0.69518381 1.8788437e-38
0.32949376 0.22638442 0.70171428 1.9158662e-38
0.17734794 0.11911429 0.75800008 1.5191362e-38
0.10581273 0.14844783 0.73621887 1.3716962e-38
0.1401965 0.13458914 0.73788136 1.4360889e-38
0.18018776 0.13356668 0.73697209 1.5744175e-38
0.21827987 0.14370707 0.73768103 1.7863592e-38
0.25042725 0.15483814 0.74674422 1.7955431e-38
0.070305631 0.18284135 0.73189646 1.2981925e-38
0.08648397 0.1658455 0.73079836 1.3349262e-38
0.23679188 0.16233665 0.72321755 1.8232371e-38
0.26356789 0.16890781 0.7329731 1.786324e-38
0.29824299 0.1842615 0.73882103 1.8694084e-38
0.32715717 0.19538358 0.75079173 1.9617122e-38
0.05864992 0.20296754 0.73264718 1.2706058e-38
0.31416544 0.20346801 0.72446519 1.9985539e-38
0.34307212 0.21562396 0.73719919 2.0263572e-38
0.36709741 0.22743493 0.74794817 2.0724554e-38
0.35766667 0.2409762 0.72500002 1.9711474e-38
0.37079239 0.24129809 0.74300003 2.1095492e-38
0.3939392 -0.0065608514 0.79740328 8.8378058e-39
0.38336638 0.022556962 0.79219443 1.086323e-38
0.35864681 0.066608414 0.79735738 9.0218356e-39
0.3753179 0.06031457 0.78726697 9.4824578e-39
0.14782834 0.11587577 0.77962393 1.3993193e-38
0.17961852 0.11269424 0.77691656 1.4731111e-38
0.20999275 0.11505364 0.78452605 1.5560863e-38
0.35874811 0.084764779 0.79790908 7.7332533e-39
0.37637675 0.098788902 0.78772271 6.0762628e-39
0.11074774 0.13696226 0.76381665 1.3994989e-38
0.13204046 0.12459712 0.76737761 1.399355e-38
0.18426892 0.12101801 0.76089472 1.5375037e-38
0.22367136 0.12795947 0.76925766 1.7033828e-38
0.26139864 0.14670865 0.776582 1.68498e-38
0.29549766 0.15502934 0.78956157 1.6205871e-38
0.32224 0.15884002 0.79800004 1.6391706e-38
0.38793698 0.12819718 0.79411614 6.6290722e-39
0.40052003 0.1444 0.79800004 1.2990554e-38
0.27654296 0.16074155 0.76112509 1.7035274e-38
0.30505064 0.16894116 0.77238059 1.7681007e-38
0.33722332 0.18200578 0.77924365 1.96182e-38
0.36937547 0.1963135 0.79354841 1.9986985e-38
0.35379836 0.20403717 0.76295245 2.0724191e-38
0.37968644 0.21178387 0.77917778 2.0262496e-38
0.40026906 0.20962811 0.79750001 2.0172818e-38
0.39680895 -0.081999399 0.83590919 3.1332151e-39
0.40561777 -0.085830703 0.826065 3.5934744e-39
0.3587724 -0.040751431 0.83900005 3.1310473e-39
0.38392797 -0.056595262 0.82795143 3.5001955e-39
0.40461901 -0.063855529 0.81974524 5.0646388e-39
0.35709667 -0.010800329 0.83457929 6.1681011e-39
0.377455 -0.021347165 0.81674737 6.6301582e-39
0.40143374 -0.032666579 0.80447614 9.5760926e-39
0.35003507 0.021978183 0.82458681 9.9427115e-39
0.36809787 0.015850818 0.80598235 1.0587363e-38
0.34542567 0.060415197 0.81888652 9.574645e-39
0.36181575 0.04492211 0.8014999 9.6664819e-39
0.14221863 0.11229608 0.80333328 1.5005212e-38
0.17051715 0.10457175 0.80211121 1.6213833e-38
0.23637858 0.11778905 0.83850002 1.3349973e-38
0.24211144 0.1190581 0.83900011 1.3258859e-38
0.3168675 0.11621871 0.83712906 1.1691891e-38
0.3418054 0.10013086 0.82224447 9.5739205e-39
0.36358699 0.11043425 0.80426681 7.1797194e-39
0.2354382 0.12254344 0.83375013 1.4546715e-38
0.26181394 0.13064615 0.82269198 1.4086456e-38
0.30220693 0.13703553 0.8229568 1.3074106e-38
0.33981609 0.1394688 0.82037932 1.2337263e-38
0.37672666 0.14113882 0.81732303 1.1232001e-38
0.40045717 0.15394142 0.83100003 1.7971635e-38
0.34869203 0.16791953 0.80744237 1.9618197e-38
0.38093403 0.17918208 0.81856847 2.0171735e-38
0.40761071 0.18843067 0.82732016 1.9894429e-38
0.39421365 0.20215723 0.80303699 1.9525651e-38
0.40300152 0.20332931 0.80571431 2.0263575e-38
-0.016280597 0.37365472 0.83899999 2.9499028e-39
0.35751426 -0.081479996 0.87300003 3.5005529e-39
0.38138363 -0.084987372 0.85345882 3.5009158e-39
0.40157622 -0.090938091 0.84500003 3.3183224e-39
0.35204366 -0.055518575 0.86220145 3.4076384e-39
0.36772624 -0.067386605 0.84916329 3.2239702e-39
0.31881431 -0.00082380959 0.86500007 1.0129612e-38
0.34172335 -0.019395756 0.85654509 9.1122319e-39
0.31955144 0.0016514286 0.86700004 9.7622747e-39
0.33206019 0.019017017 0.85687429 1.1414958e-38
0.31650677 0.065980099 0.86818445 1.1510029e-38
0.32663512 0.057697132 0.8531366 1.1876649e-38
0.22675818 0.10986169 0.85147053 1.3719125e-38
0.26102865 0.11227488 0.85861385 1.2982635e-38
0.30380937 0.10286371 0.85731924 1.2245064e-38
0.32268679 0.090528615 0.84411407 1.1968122e-38
0.23255143 0.12108763 0.84200001 1.4638554e-38
0.26827404 0.12185688 0.84276468 1.3258499e-38
0.29286581 0.12251007 0.8432219 1.2704965e-38
0.42384231 0.181382 0.86289465 1.9065023e-38
0.44150859 0.18814285 0.87800002 1.8143787e-38
-0.044908829 0.35414034 0.87131327 3.9622513e-39
-0.020313757 0.3508946 0.86729985 3.4087216e-39
0.0063805375 0.35395342 0.87014443 2.4871212e-39
-0.0440735 0.36676002 0.85860884 3.5938317e-39
-0.020332027 0.36805454 0.84979802 3.3165273e-39
0.0042668264 0.36681747 0.85289389 2.3949284e-39
0.36233652 -0.085206352 0.88000005 3.3165231e-39
0.34298906 -0.056150574 0.8909933 3.8675361e-39
0.3188262 -0.0034204766 0.89750004 3.410518e-39
0.32773408 -0.016657 0.89079171 4.9735277e-39
0.31775302 0.022617083 0.89953029 4.9702837e-39
0.32262304 0.018724814 0.89085478 7.6446689e-39
0.31493202 0.060974557 0.88993508 9.7619159e-39
0.32035697 0.045085128 0.90107703 7.8308496e-39
0.27257717 0.10175347 0.88078761 1.3535105e-38
0.29617971 0.092397451 0.88361794 1.2153956e-38
0.43776512 0.18074922 0.88000005 1.814378e-38
0.45293477 0.18237893 0.90457451 1.7220389e-38
-0.044986222 0.31339782 0.90403169 4.3306821e-39
-0.020840896 0.31003049 0.90949982 3.8696997e-39
0.0068921926 0.31486556 0.91173232 3.5931114e-39
-0.046596803 0.33523381 0.89354348 4.3306793e-39
-0.019347109 0.330926 0.88859141 3.5012759e-39
0.011543862 0.33340704 0.89571381 2.8562667e-39
-0.054517463 0.36317143 0.88066673 5.708939e-39
0.45518094 0.18268573 0.92000002 1.749841e-38
-0.045394182 0.27493057 0.94878757 5.251558e-39
-0.019953586 0.27076164 0.94787467 4.1466481e-39
0.010148948 0.27565908 0.95355397 4.1462894e-39
-0.046894684 0.29341015 0.93396378 5.1593609e-39
-0.019126564 0.29069498 0.92839831 3.9618982e-39
0.019149182 0.29888555 0.93731141 3.8700571e-39
0.040628575 0.30245715 0.94800013 4.4232406e-39
0.026436668 0.32315996 0.92250013 3.5938289e-39
-0.012922789 0.23675787 0.99120009 4.7916574e-39
0.0083587524 0.23659435 0.99433333 4.5157908e-39
-0.040842272 0.25079569 0.9765386 5.8043744e-39
-0.020152768 0.25120923 0.97220051 4.606906e-39
0.020293618 0.25896433 0.9774344 4.5150705e-39
0.046466596 0.26646447 0.9853068 4.7916588e-39
-0.059490476 0.28738475 0.96100003 6.7295523e-39
0.035271712 0.2854557 0.96406829 4.3313953e-39
0.044208873 0.28598696 0.96949995 4.423235e-39
-0.012115309 0.22866251 1.0047315 5.251558e-39
0.021813236 0.22772679 1.0160431 5.252274e-39
0.054275259 0.23179287 1.0284451 5.6203391e-39
0.033015601 0.24321404 1.0042704 5.160077e-39
0.06045074 0.24813098 1.0181733 5.4363052e-39
0.080785245 0.24432191 1.0345001 5.5292211e-39
0.033648781 0.22005644 1.0434999 5.8969316e-39
0.066861138 0.22673002 1.0523392 5.9887643e-39
0.085248835 0.23290154 1.0592222 5.8976476e-39
0.31955144 0.0016514286 0.86700004 9.7622747e-39
0.44150859 0.18814285 0.87800002 1.8143787e-38
0.038616963 0.17469467 0.8608883 1.3725979e-38
0.28110802 0.11990776 0.71698081 1.1234892e-38
0.019235803 0.17165022 0.75029516 1.2709299e-38
-0.12923746 0.20666409 0.87263215 1.3541581e-38
