# .PCD v0.7 - Point Cloud Data file format
VERSION 0.7
FIELDS x y z rgb
SIZE 4 4 4 4
TYPE F F F F
COUNT 1 1 1 1
WIDTH 245
HEIGHT 1
VIEWPOINT 0 0 0 1 0 0 0
POINTS 245
DATA ascii
-0.055761226 0.047990371 0.474612 1.1232731e-38
-0.054418243 0.063054763 0.49461758 1.0311495e-38
-0.035293613 0.055077773 0.49221176 1.7866138e-38
-0.054387942 0.081574619 0.51872742 9.2966288e-39
-0.052434694 0.076685421 0.5217334 1.4181548e-38
-0.038214959 0.075520143 0.52466667 1.9618571e-38
-0.081772305 0.11328278 0.55199999 9.3927775e-39
-0.058502905 0.10063523 0.53462964 1.0587361e-38
-0.038082231 0.10079513 0.54629576 1.8696613e-38
-0.29592606 0.15688086 0.54153043 1.1610174e-38
-0.082704589 0.12638277 0.55702031 8.2853551e-39
-0.060910843 0.13236803 0.55218619 9.2055108e-39
-0.038778327 0.12326472 0.55688244 1.7037093e-38
-0.3228322 0.18721089 0.53813386 8.570951e-39
-0.29900992 0.18580748 0.54264235 9.6755021e-39
-0.27319932 0.19433786 0.55351013 1.0043204e-38
-0.32044575 0.20252097 0.54066676 8.7553352e-39
-0.29415748 0.21092179 0.53900802 9.8609737e-39
-0.27253911 0.20536308 0.54259932 8.4780449e-39
-0.033320561 0.11842924 0.56599998 1.8418944e-38
-0.088270828 0.14636862 0.57174933 8.0094857e-39
-0.056989234 0.15089174 0.56378073 1.0402972e-38
-0.03303995 0.14312586 0.57607037 1.7773218e-38
-0.25649035 0.19513346 0.56434113 1.160981e-38
-0.23767474 0.19857402 0.57588243 1.1608376e-38
-0.0898121 0.17819892 0.58554906 8.1006051e-39
-0.059563287 0.17944358 0.57671356 9.2977064e-39
-0.031491783 0.17675313 0.59019941 1.6575758e-38
-0.28702733 0.21953735 0.56289297 8.5695245e-39
-0.25268596 0.21877594 0.57424712 8.8461043e-39
-0.22567722 0.22233638 0.58618528 9.1223325e-39
-0.084561452 0.20688038 0.59502381 7.6399871e-39
-0.060589824 0.21014942 0.59255379 8.3764704e-39
-0.036517173 0.2028944 0.59782141 1.4272308e-38
-0.24304712 0.24262895 0.58363998 9.2134407e-39
-0.22677445 0.24204917 0.58653539 7.0003981e-39
-0.10050613 0.19197273 0.60436678 8.1931637e-39
-0.023767201 0.19265552 0.60970169 1.7588468e-38
-0.25977585 0.23507561 0.6031251 8.4762414e-39
-0.21500885 0.23499964 0.60070592 9.3985691e-39
-0.090168431 0.22171557 0.60957259 7.6410689e-39
-0.058081105 0.22973417 0.60656804 8.2846349e-39
-0.02777206 0.21976131 0.61919481 1.4917315e-38
-0.085837416 0.25054058 0.63017142 7.5495978e-39
-0.059581246 0.2528525 0.62560111 7.271206e-39
-0.033467166 0.24792731 0.63149166 1.1969579e-38
-0.012461118 0.22800487 0.65128076 1.5376846e-38
0.0012933334 0.23991334 0.67900002 1.1968493e-38
-0.08405786 0.26629317 0.64583343 7.3655666e-39
-0.058769122 0.27326724 0.64532524 6.5347242e-39
-0.01633608 0.26149133 0.66096282 1.1783746e-38
0.0084946677 0.25985149 0.67673552 1.1968136e-38
0.1881897 0.26867533 0.66849965 1.0494076e-38
0.22016723 0.26104316 0.65829456 1.0954341e-38
0.25835967 0.26090673 0.66071522 1.6761943e-38
0.29107532 0.26828778 0.67040449 2.0635965e-38
-0.055519391 0.28972876 0.66290712 6.0737432e-39
-0.020711105 0.29058999 0.67087066 7.3619625e-39
0.0033606351 0.28363931 0.67820024 9.1122347e-39
0.15972666 0.30264002 0.67900002 8.1902686e-39
0.17916396 0.28915837 0.66533095 8.9278379e-39
0.21817161 0.2848042 0.64524025 9.2973407e-39
0.2613633 0.28569028 0.64915222 1.5380452e-38
0.29869908 0.29020184 0.6675691 1.9160112e-38
-0.0086030345 0.19464222 0.7105847 1.2702811e-38
0.021350864 0.19309226 0.71161455 1.3531133e-38
0.05388945 0.19350643 0.71542943 1.5283211e-38
-0.0074873851 0.21698196 0.692146 1.224219e-38
0.019577738 0.21971485 0.69358802 1.3716967e-38
0.059532776 0.21978438 0.70618141 1.5100622e-38
0.086085588 0.22459775 0.7157079 1.5377568e-38
0.18916734 0.23349786 0.71391302 1.1783369e-38
0.22054671 0.23040567 0.70504522 1.2889358e-38
0.25866073 0.2306499 0.70290202 1.593109e-38
0.28876948 0.2343798 0.71010977 1.8788799e-38
0.026288928 0.25798759 0.68520361 1.2520949e-38
0.058839753 0.25826612 0.70326364 1.1416039e-38
0.085201599 0.25089619 0.71545184 1.1047614e-38
0.15236133 0.26898754 0.7090351 1.0125291e-38
0.176687 0.25576985 0.69738907 1.1046523e-38
0.21525346 0.24288739 0.68607444 1.2336543e-38
0.26435867 0.2427918 0.68363214 1.6853407e-38
0.30266953 0.25454354 0.69478053 2.0634158e-38
0.32670966 0.26739073 0.70646566 2.0635601e-38
-0.051668257 0.30475289 0.68666667 5.3383348e-39
-0.0035477462 0.29752693 0.68200004 5.7964403e-39
0.020518996 0.2917473 0.69256103 6.7173134e-39
0.051987156 0.28896713 0.71167654 6.164134e-39
0.11911525 0.31695697 0.71880001 7.4530665e-39
0.14213514 0.29713142 0.70044869 8.8349178e-39
0.16263011 0.2845144 0.68227094 9.7568713e-39
0.3172389 0.291022 0.68200004 2.0358655e-38
0.33908361 0.29845199 0.70028627 1.9251944e-38
0.36086956 0.29787144 0.71900004 1.9161551e-38
0.11914857 0.32115334 0.71900004 7.2686767e-39
0.06015873 0.15954095 0.75800002 1.5375405e-38
-0.0079565234 0.18684512 0.72746378 1.2979762e-38
0.022013297 0.17725927 0.73563969 1.3531854e-38
0.06142104 0.17527267 0.73514616 1.5743828e-38
0.098802619 0.1814854 0.74053532 1.758702e-38
0.14066879 0.18637112 0.75301689 1.3532935e-38
0.17959227 0.18507592 0.74867928 1.3901715e-38
0.21893083 0.1886567 0.74820572 1.6112609e-38
0.25324899 0.19373842 0.75190252 1.7311152e-38
0.28154284 0.19996762 0.75800002 1.9338727e-38
0.078569047 0.20105286 0.72050005 1.6758707e-38
0.10428526 0.21763323 0.72639751 1.5654156e-38
0.14205563 0.22029381 0.74218732 1.0217492e-38
0.17783165 0.21674934 0.72978473 1.2152154e-38
0.21960934 0.20993826 0.72895712 1.4362687e-38
0.26055405 0.21097535 0.73342168 1.6851609e-38
0.29967716 0.22216713 0.73906624 1.9617479e-38
0.33009896 0.23265162 0.75030118 2.0539801e-38
0.076383539 0.27694061 0.7217648 6.8073426e-39
0.10277078 0.2606785 0.73154247 7.2693955e-39
0.13726798 0.25845745 0.73498732 7.7300135e-39
0.16339768 0.24313065 0.72170007 1.0861775e-38
0.31618249 0.2429627 0.72270375 2.0725632e-38
0.34395331 0.25766847 0.73864061 2.0634879e-38
0.36845976 0.26730692 0.75072199 1.8238513e-38
0.072151005 0.28857586 0.72770423 5.1503436e-39
0.10742266 0.30126858 0.74176472 5.7035132e-39
0.12588724 0.29073876 0.72696149 8.0055214e-39
0.35401091 0.28662136 0.72477347 1.9897319e-38
0.36540118 0.28733298 0.73428434 1.8238872e-38
0.10006214 0.32609341 0.74312675 5.980456e-39
0.39389291 0.11421193 0.79725033 7.7375946e-39
0.066771545 0.15369074 0.77755827 1.5099533e-38
0.10113499 0.14763391 0.78033942 1.5282844e-38
0.14027131 0.14462472 0.78222221 1.5282846e-38
0.17891923 0.1456746 0.78226084 1.6665776e-38
0.21538065 0.15203923 0.7875843 1.804763e-38
0.24388471 0.15811709 0.79691666 1.7494096e-38
0.39571294 0.12693743 0.79731292 5.3415886e-39
0.037421834 0.16226432 0.76353848 1.4269418e-38
0.053273968 0.16091242 0.76157153 1.5098458e-38
0.1048495 0.1626938 0.76198876 1.6480667e-38
0.1402766 0.16692221 0.76380789 1.463784e-38
0.18086791 0.1650307 0.76359499 1.5467598e-38
0.22163023 0.16890989 0.76869303 1.7586659e-38
0.26081565 0.17806995 0.77749741 1.7863246e-38
0.29651311 0.18983585 0.78490883 1.8601531e-38
0.3252264 0.1967565 0.79472423 1.9526367e-38
0.30645046 0.20647646 0.76834303 1.9432368e-38
0.34063697 0.21866262 0.77675694 2.0170657e-38
0.37643608 0.23051967 0.78655005 1.9618205e-38
0.40026906 0.23241383 0.79750001 1.8422179e-38
0.35636851 0.2427116 0.76131254 2.0910386e-38
0.37670034 0.24917844 0.76834399 1.9066473e-38
0.077978671 0.31807467 0.78880006 4.783003e-39
0.09224651 0.30759791 0.7665031 3.8624858e-39
0.077314489 0.33940807 0.79345572 6.1662878e-39
0.084336378 0.33173865 0.77302372 5.6131182e-39
0.41662344 -0.050020386 0.83900005 4.0504924e-39
0.39000779 -0.0069496254 0.8328408 6.3550203e-39
0.40817827 -0.017486839 0.83108872 9.3931418e-39
0.38223171 0.022183577 0.82586271 1.0955066e-38
0.40455452 0.017637828 0.81806046 8.4697534e-39
0.35309565 0.066066258 0.83242714 1.0034907e-38
0.37868935 0.059714638 0.81342608 1.0679921e-38
0.40177566 0.054322753 0.80546689 1.2797908e-38
0.14512987 0.11760053 0.83005637 1.4730759e-38
0.17809455 0.11600287 0.82822955 1.5469047e-38
0.35149917 0.099785022 0.82749867 8.1016785e-39
0.37719798 0.099094927 0.80593687 7.8269021e-39
0.40102676 0.093941286 0.80292869 1.1510763e-38
0.068944007 0.14458106 0.8031202 1.4546721e-38
0.10015731 0.13191985 0.81164098 1.4546362e-38
0.14013326 0.12487484 0.8102206 1.5283564e-38
0.18207444 0.1260051 0.80997348 1.6758329e-38
0.2167532 0.13754633 0.81265008 1.7310419e-38
0.25616184 0.1535524 0.8218689 1.5836371e-38
0.28462991 0.1578645 0.83549994 1.4270486e-38
0.353448 0.13061799 0.83203572 7.4552273e-39
0.37788019 0.13929416 0.81351632 6.167378e-39
0.40427634 0.15118003 0.8134324 7.4606419e-39
0.27021655 0.16431306 0.80854577 1.6850882e-38
0.30260691 0.17165662 0.81720465 1.6206598e-38
0.33821523 0.18303621 0.82479751 1.8604048e-38
0.37460777 0.1879074 0.83111972 1.7961199e-38
0.40240288 0.16130498 0.81980008 1.3737481e-38
0.35235089 0.20579746 0.80956089 2.0355406e-38
0.38149789 0.2120541 0.81512207 1.9157226e-38
0.40792444 0.21694651 0.82433337 1.8604412e-38
0.073765606 0.34415674 0.80354732 6.3510378e-39
0.07138858 0.36001337 0.80600005 6.3517566e-39
0.42293334 -0.080520004 0.85400003 1.0146966e-38
0.38718966 -0.050377127 0.86722571 3.1321347e-39
0.41286701 -0.059006449 0.85346067 3.9611765e-39
0.3560237 -0.0053441781 0.87511349 5.1553953e-39
0.37820885 -0.021565773 0.8585574 4.0526476e-39
0.40931049 -0.035397682 0.8445335 7.4581126e-39
0.34989816 0.024064897 0.86207056 9.8501557e-39
0.3660748 0.010737462 0.84770179 7.9190922e-39
0.33946925 0.058706488 0.85894942 1.0403325e-38
0.15778762 0.11293428 0.84100002 1.4825881e-38
0.31626919 0.11121155 0.87218583 1.2060677e-38
0.33263108 0.099675328 0.85667497 1.0586992e-38
0.23824646 0.14432938 0.87446171 1.5558704e-38
0.26223302 0.14446014 0.86349767 1.3718398e-38
0.30286843 0.14239651 0.85956061 1.2521294e-38
0.33590689 0.14145397 0.84679079 1.077066e-38
0.36649385 0.15669413 0.84310734 9.9394619e-39
0.30949765 0.16102335 0.84116668 1.3718038e-38
0.34792873 0.16705418 0.84273374 1.5101691e-38
0.38027039 0.17820621 0.84990948 1.7775006e-38
0.40869156 0.19458906 0.86341351 1.8050875e-38
0.3976807 0.2015146 0.84300005 1.8790242e-38
0.42072755 0.20500618 0.85488433 1.7775011e-38
0.44083336 0.20250002 0.87500006 1.7311877e-38
0.39049146 -0.082437858 0.91513813 4.2330999e-39
0.3567023 -0.042324107 0.89824003 3.1306984e-39
0.37738049 -0.060990255 0.89451134 3.3165259e-39
0.34830087 -0.018689211 0.8927747 6.2595764e-39
0.36189479 -0.030736305 0.88126183 3.1321291e-39
0.33400759 0.017065769 0.89165932 1.0770311e-38
0.31855908 0.069302499 0.9119091 9.947389e-39
0.32536229 0.059043795 0.89602965 1.1509313e-38
0.22704002 0.11954001 0.90300006 1.8347642e-38
0.27684665 0.11964667 0.91700006 1.2061801e-38
0.30667406 0.10355777 0.89941686 1.2153596e-38
0.32085875 0.085754149 0.88349998 1.2336547e-38
0.23099564 0.12961346 0.8966887 1.4088632e-38
0.26101303 0.12982355 0.89684749 1.3351062e-38
0.29246268 0.12604937 0.89140719 1.2797521e-38
0.42872238 0.19221815 0.89795482 1.7221472e-38
0.44862556 0.19496298 0.90796679 1.5747068e-38
0.43598685 0.20129785 0.88236368 1.6761222e-38
0.44475791 0.20094307 0.88580006 1.6667585e-38
0.35194638 -0.042758632 0.9246667 3.7746244e-39
0.37731504 -0.071194485 0.92141962 3.8696983e-39
0.34575483 -0.029983975 0.92492449 3.7764223e-39
0.3190079 0.034271512 0.92658347 3.7742713e-39
0.32517272 0.028598186 0.92484236 6.1716996e-39
0.31872213 0.055539999 0.92509544 5.7096438e-39
0.32312447 0.044398874 0.92280954 6.356088e-39
0.27862859 0.11828572 0.92000002 1.4732228e-38
0.30503842 0.096546248 0.92066681 1.114089e-38
0.27269399 0.12012508 0.92066669 1.4828748e-38
0.43459046 0.18400002 0.92000002 1.6950642e-38
0.45368698 0.19241621 0.92014295 1.5286092e-38
0.3433516 0.18204495 0.7752223 1.4370267e-38
0.054839559 0.11908363 0.87111014 1.1786627e-38
0.25251502 0.14965442 0.82333964 1.5744534e-38
0.059750907 0.24804653 0.73181957 1.3814566e-38
