# .PCD v0.7 - Point Cloud Data file format
VERSION 0.7
FIELDS x y z rgb
SIZE 4 4 4 4
TYPE F F F F
COUNT 1 1 1 1
WIDTH 1023
HEIGHT 1
VIEWPOINT 0 0 0 1 0 0 0
POINTS 1023
DATA ascii
0.32776061 -0.72399038 2.1270001 1.6407666e-38
0.38331017 -0.72655612 2.1270001 1.6407666e-38
0.40311715 -0.72318006 2.1270001 1.6407666e-38
0.47361204 -0.72642124 2.1270001 1.6407666e-38
0.48009431 -0.72520578 2.1270001 1.6407666e-38
-0.65205711 -0.70230573 2.1307421 1.6407666e-38
-0.61800182 -0.70125884 2.1403675 1.6407666e-38
-0.58895981 -0.69384974 2.1530001 1.6407666e-38
-0.045110479 -0.7197172 2.1530001 1.6407666e-38
0.026656192 -0.7197172 2.1530001 1.6407666e-38
0.14544775 -0.71499199 2.1491001 1.6407666e-38
0.17856437 -0.71416622 2.1469533 1.6407666e-38
0.217436 -0.71468508 2.1457777 1.6407666e-38
0.25968984 -0.71395183 2.1506052 1.6407666e-38
0.30462095 -0.71457183 2.1417332 1.6407666e-38
0.34033886 -0.71147555 2.1358211 1.6407666e-38
0.38185874 -0.71423173 2.1392496 1.6407666e-38
0.42205206 -0.71212864 2.1389165 1.6407666e-38
0.45824075 -0.70720357 2.1375995 1.6407666e-38
0.5009498 -0.70305371 2.1437628 1.6407666e-38
0.54039031 -0.69891685 2.1414673 1.6407666e-38
0.57948816 -0.70049179 2.1425111 1.6407666e-38
0.61939472 -0.6980353 2.1398139 1.6407666e-38
0.66041023 -0.69762492 2.1391091 1.6407666e-38
0.70259285 -0.68885684 2.1361763 1.6407666e-38
0.73797256 -0.69267303 2.1321142 1.6407666e-38
0.77974439 -0.68764383 2.1411555 1.6407666e-38
0.81861681 -0.686836 2.1409507 1.6407666e-38
-0.64514101 -0.66850317 2.1318753 1.6407666e-38
-0.61794734 -0.66044772 2.1312881 1.6407666e-38
-0.58083624 -0.65908879 2.1461427 1.6407666e-38
0.49416479 -0.67870766 2.1530001 1.6407666e-38
0.55567908 -0.6766572 2.1530001 1.6407666e-38
0.69871986 -0.67657632 2.150111 1.6407666e-38
0.73556721 -0.67685598 2.1478002 1.6407666e-38
0.77740347 -0.67614186 2.1513751 1.6407666e-38
0.82297724 -0.67225897 2.1492856 1.6407666e-38
0.85922819 -0.66487765 2.1420634 1.6407666e-38
0.90328407 -0.66356814 2.1381686 1.6407666e-38
0.93726116 -0.64990813 2.1379271 1.6407666e-38
0.97092909 -0.64440811 2.134526 1.6407666e-38
1.0207349 -0.64260161 2.1270001 1.6407666e-38
1.0606141 -0.64566797 2.1275651 1.6407666e-38
1.0878086 -0.64215147 2.1270003 1.6407666e-38
-0.61232817 -0.62545186 2.128274 1.6407666e-38
-0.57943279 -0.61938 2.1353192 1.6407666e-38
-0.55088687 -0.61182749 2.1498485 1.6407666e-38
0.94581848 -0.63477033 2.1500454 1.6407666e-38
0.98245353 -0.63007849 2.1417997 1.6407666e-38
1.019684 -0.63049984 2.1464057 1.6407666e-38
1.059743 -0.62178105 2.1337235 1.6407666e-38
1.0872561 -0.62465668 2.1270001 1.6407666e-38
-0.60163718 -0.59758574 2.1270001 1.6407666e-38
-0.57371056 -0.58408171 2.1276386 1.6407666e-38
-0.54175907 -0.5773586 2.1420915 1.6407666e-38
-0.51401371 -0.57055032 2.1486666 1.6407666e-38
1.0635339 -0.57959837 2.13399 1.6407666e-38
1.0837573 -0.58047962 2.1270001 1.6407666e-38
-0.56593394 -0.54694289 2.1270003 1.6407666e-38
-0.53807074 -0.53935844 2.1287222 1.6407666e-38
-0.50573778 -0.53854048 2.1433833 1.6407666e-38
-0.47502702 -0.52970642 2.1530004 1.6407666e-38
1.0387712 -0.53271371 2.1530001 1.6407666e-38
1.0556054 -0.54280847 2.136797 1.6407666e-38
-0.52717471 -0.50552052 2.1269996 1.6407666e-38
-0.501531 -0.49919558 2.1363256 1.6407666e-38
-0.46892709 -0.49661216 2.1491351 1.6407666e-38
1.0354213 -0.49947435 2.1382427 1.6407666e-38
1.0467383 -0.49934965 2.1310852 1.6407666e-38
-0.49316218 -0.46341503 2.1292028 1.6407666e-38
-0.46195677 -0.46038678 2.1416047 1.6407666e-38
-0.42281127 -0.45626727 2.143611 1.6407666e-38
-0.39984292 -0.44495338 2.1530004 1.6407666e-38
1.029663 -0.45846269 2.1385996 1.6407666e-38
1.0446196 -0.46151149 2.1298261 1.6407666e-38
-0.48144478 -0.43147716 2.1270001 1.6407666e-38
-0.45645994 -0.42471239 2.1286244 1.6407666e-38
-0.41945836 -0.42142475 2.1336963 1.6407666e-38
-0.39637458 -0.41726404 2.1511428 1.6407666e-38
1.0255364 -0.42059043 2.1378584 1.6407666e-38
1.0452687 -0.43958002 2.1270001 1.6407666e-38
-0.44633245 -0.3909629 2.1270003 1.6407666e-38
-0.41604722 -0.38648045 2.1269994 1.6407666e-38
-0.38112378 -0.37958303 2.1368184 1.6407666e-38
-0.3548871 -0.36829489 2.1494546 1.6407666e-38
1.0186893 -0.37914217 2.1370234 1.6407666e-38
-0.37206179 -0.3427791 2.1296821 1.6407666e-38
-0.34255004 -0.33767837 2.1430271 1.6407666e-38
-0.31482002 -0.32811719 2.1465001 1.6407666e-38
0.99745369 -0.33353397 2.1515555 1.6407666e-38
1.0121859 -0.34105772 2.1384995 1.6407666e-38
-0.36564144 -0.31702429 2.1270001 1.6407666e-38
-0.33984786 -0.30005234 2.1271439 1.6407666e-38
-0.31457785 -0.30931842 2.1283002 1.6407666e-38
0.98943293 -0.30037895 2.1480167 1.6407666e-38
1.0089295 -0.29909551 2.1313326 1.6407666e-38
-0.33311751 -0.26919499 2.1269996 1.6407666e-38
-0.31803718 -0.26536858 2.1270001 1.6407666e-38
0.94321907 -0.24400666 2.1530001 1.6407666e-38
0.99087888 -0.26066905 2.1394689 1.6407666e-38
1.0085943 -0.25765002 2.1321068 1.6407666e-38
1.0163494 -0.23028061 2.131875 1.6407666e-38
0.072835118 0.27063879 2.1422608 1.6407666e-38
0.091815762 0.2680048 2.1530001 1.6407666e-38
0.1209781 0.27271336 2.1530001 1.6407666e-38
0.069528848 0.300603 2.1360996 1.6407666e-38
0.097422302 0.30314213 2.1493332 1.6407666e-38
0.13147053 0.30562261 2.1518936 1.6407666e-38
0.07461381 0.32715285 2.1270003 1.6407666e-38
0.10170453 0.33898422 2.1395121 1.6407666e-38
0.13210848 0.33358371 2.1501112 1.6407666e-38
0.10285981 0.364894 2.1353574 1.6407666e-38
-0.61402351 -0.77269346 2.1747141 1.6407666e-38
-0.57804227 -0.77080649 2.1757421 1.6407666e-38
-0.54086566 -0.77233148 2.1829193 1.6407666e-38
-0.49977118 -0.77076352 2.1750143 1.6407666e-38
-0.46408725 -0.77124143 2.17344 1.6407666e-38
-0.41592643 -0.76347202 2.1670003 1.6407666e-38
-0.39040399 -0.76429749 2.1670001 1.6407666e-38
-0.33289245 -0.76670545 2.1670001 1.6407666e-38
-0.30153951 -0.76574278 2.17015 1.6407666e-38
-0.27011627 -0.7666446 2.1670001 1.6407666e-38
-0.60800856 -0.74652249 2.172353 1.6407666e-38
-0.57919359 -0.73967749 2.1844401 1.6407666e-38
-0.55048835 -0.74205059 2.194 1.6407666e-38
-0.49667081 -0.75468159 2.194 1.6407666e-38
-0.45963293 -0.7541371 2.1884212 1.6407666e-38
-0.42060739 -0.75269514 2.1799271 1.6407666e-38
-0.37873426 -0.75107354 2.1816981 1.6407666e-38
-0.34258988 -0.74957436 2.1817462 1.6407666e-38
-0.29923055 -0.74966317 2.1857903 1.6407666e-38
-0.25703594 -0.74714321 2.1804626 1.6407666e-38
-0.21911958 -0.7366032 2.1762567 1.6407666e-38
-0.1796281 -0.7355932 2.1797905 1.6407666e-38
-0.14136292 -0.73870504 2.1793654 1.6407666e-38
-0.098424047 -0.735322 2.1787846 1.6407666e-38
-0.065727167 -0.72885001 2.1777894 1.6407666e-38
-0.018316003 -0.72284609 2.1698003 1.6407666e-38
0.020800548 -0.72171474 2.1763999 1.6407666e-38
0.0604636 -0.72394747 2.1787381 1.6407666e-38
0.10067251 -0.72425979 2.1800256 1.6407666e-38
0.12506686 -0.72192061 2.1670001 1.6407666e-38
0.28686953 -0.72026956 2.1670001 1.6407666e-38
-0.57606363 -0.70288771 2.1718948 1.6407666e-38
-0.54447097 -0.69624019 2.186918 1.6407666e-38
-0.51332641 -0.68466729 2.194 1.6407666e-38
-0.20268381 -0.71670663 2.194 1.6407666e-38
-0.052488245 -0.71373135 2.1888261 1.6407666e-38
-0.021590758 -0.71317148 2.1889362 1.6407666e-38
0.015018187 -0.71470332 2.192143 1.6407666e-38
0.062370852 -0.71252429 2.1935358 1.6407666e-38
0.10223088 -0.70786506 2.1908519 1.6407666e-38
0.13945171 -0.70030218 2.180897 1.6407666e-38
0.18007733 -0.69877726 2.1822009 1.6407666e-38
0.22010855 -0.70137167 2.181869 1.6407666e-38
0.25919265 -0.69803321 2.183284 1.6407666e-38
0.30009529 -0.69970208 2.1821942 1.6407666e-38
0.34096006 -0.6948756 2.1771345 1.6407666e-38
0.3807646 -0.69693846 2.1776562 1.6407666e-38
0.41984683 -0.6945653 2.172482 1.6407666e-38
0.46116847 -0.69056213 2.1759386 1.6407666e-38
0.49428937 -0.69284326 2.1716444 1.6407666e-38
0.53885192 -0.68799204 2.1678236 1.6407666e-38
0.58124578 -0.68522793 2.1693335 1.6407666e-38
0.61651337 -0.68675363 2.1727648 1.6407666e-38
0.65596128 -0.68752289 2.171 1.6407666e-38
0.68312097 -0.68312097 2.1670001 1.6407666e-38
0.75778759 -0.68325049 2.174 1.6407666e-38
-0.56417048 -0.66510952 2.1670001 1.6407666e-38
-0.53984362 -0.66033268 2.1797192 1.6407666e-38
-0.51059604 -0.65402085 2.194 1.6407666e-38
0.26536953 -0.67909521 2.194 1.6407666e-38
0.31551811 -0.67909521 2.194 1.6407666e-38
0.34209868 -0.67692488 2.192143 1.6407666e-38
0.38656193 -0.67575204 2.194 1.6407666e-38
0.42081714 -0.67603302 2.1875 1.6407666e-38
0.44754046 -0.67808306 2.1907499 1.6407666e-38
0.50434208 -0.67478949 2.176091 1.6407666e-38
0.54350412 -0.67554408 2.1796584 1.6407666e-38
0.58152413 -0.673724 2.1849773 1.6407666e-38
0.62038165 -0.67152458 2.185339 1.6407666e-38
0.66078919 -0.67445838 2.1813333 1.6407666e-38
0.70260513 -0.66702181 2.1822038 1.6407666e-38
0.73964411 -0.66844493 2.1891758 1.6407666e-38
0.7806794 -0.66790521 2.1853766 1.6407666e-38
0.81936258 -0.65847725 2.1823859 1.6407666e-38
0.85985303 -0.65296233 2.1848824 1.6407666e-38
0.90175116 -0.6506443 2.179451 1.6407666e-38
0.92326653 -0.64632654 2.1728334 1.6407666e-38
-0.56290573 -0.62937433 2.181 1.6407666e-38
-0.53502977 -0.62214893 2.1745551 1.6407666e-38
-0.50287694 -0.61800927 2.1907923 1.6407666e-38
-0.47536665 -0.60805142 2.194 1.6407666e-38
0.83312309 -0.63491672 2.1940002 1.6407666e-38
0.85886133 -0.63331687 2.1928751 1.6407666e-38
0.90135241 -0.62736511 2.1918688 1.6407666e-38
0.9367004 -0.62701261 2.1859119 1.6407666e-38
0.9822492 -0.6211921 2.1815317 1.6407666e-38
1.0188771 -0.60928923 2.1777592 1.6407666e-38
1.0504745 -0.61237973 2.1769795 1.6407666e-38
-0.52627146 -0.59644097 2.1670003 1.6407666e-38
-0.49754775 -0.58189785 2.1754699 1.6407666e-38
-0.46230218 -0.57814181 2.1895609 1.6407666e-38
-0.434203 -0.57002205 2.194 1.6407666e-38
1.0221983 -0.59258717 2.1921947 1.6407666e-38
1.050302 -0.58031642 2.1832585 1.6407666e-38
-0.48921591 -0.54565144 2.1690001 1.6407666e-38
-0.46079063 -0.54159588 2.1785719 1.6407666e-38
-0.42462435 -0.53733158 2.1839447 1.6407666e-38
-0.39909905 -0.52029145 2.194 1.6407666e-38
1.0258995 -0.53565484 2.1908753 1.6407666e-38
1.0492001 -0.54556471 2.1773901 1.6407666e-38
-0.48533922 -0.51251274 2.1670001 1.6407666e-38
-0.45500287 -0.50223792 2.1705 1.6407666e-38
-0.42053765 -0.4988192 2.1712244 1.6407666e-38
-0.38211808 -0.49622545 2.1868386 1.6407666e-38
-0.35730857 -0.48476952 2.194 1.6407666e-38
1.022068 -0.49966207 2.1810904 1.6407666e-38
1.0436698 -0.49190518 2.181 1.6407666e-38
-0.4519743 -0.47261244 2.1670001 1.6407666e-38
-0.40883228 -0.46935576 2.168077 1.6407666e-38
-0.38008052 -0.46047378 2.1798041 1.6407666e-38
-0.35461453 -0.45324183 2.192143 1.6407666e-38
0.99428153 -0.44705465 2.1880002 1.6407666e-38
1.0156863 -0.46084112 2.1815734 1.6407666e-38
1.0427257 -0.47982001 2.181 1.6407666e-38
-0.37745801 -0.42259166 2.1708562 1.6407666e-38
-0.34186918 -0.41785523 2.1841154 1.6407666e-38
-0.31513926 -0.40739217 2.1914003 1.6407666e-38
0.99057275 -0.42197469 2.1873727 1.6407666e-38
1.0112736 -0.41895971 2.1789556 1.6407666e-38
-0.36374643 -0.39367169 2.1670001 1.6407666e-38
-0.3379679 -0.38057163 2.171284 1.6407666e-38
-0.30550098 -0.37798536 2.1871803 1.6407666e-38
-0.27581716 -0.36148763 2.194 1.6407666e-38
0.99400985 -0.37877619 2.1910646 1.6407666e-38
1.0083835 -0.38387322 2.1787634 1.6407666e-38
-0.33163831 -0.35354644 2.1670001 1.6407666e-38
-0.3000077 -0.34507975 2.1754615 1.6407666e-38
-0.26986361 -0.34952393 2.1853333 1.6407666e-38
0.9850139 -0.33938006 2.1802216 1.6407666e-38
1.0043405 -0.34889972 2.175 1.6407666e-38
0.95909142 -0.31342858 2.194 1.6407666e-38
0.97538429 -0.29937011 2.1818988 1.6407666e-38
0.94952136 -0.24908771 2.1840625 1.6407666e-38
0.97775584 -0.26299158 2.177851 1.6407666e-38
0.94925427 -0.23887143 2.1810002 1.6407666e-38
0.11910286 0.19850476 2.194 1.6407666e-38
0.13164 0.18805714 2.194 1.6407666e-38
0.11360599 0.22868213 2.191524 1.6407666e-38
0.13151407 0.22589445 2.1898949 1.6407666e-38
0.10636108 0.25710797 2.1742296 1.6407666e-38
0.13979647 0.25986513 2.1839561 1.6407666e-38
0.16743448 0.26627797 2.194 1.6407666e-38
0.11167504 0.29007989 2.1670001 1.6407666e-38
0.14797004 0.29468596 2.1764138 1.6407666e-38
0.17746711 0.30464786 2.1912293 1.6407666e-38
0.20268381 0.31760764 2.194 1.6407666e-38
0.15281427 0.33473131 2.1708183 1.6407666e-38
0.17687441 0.3303307 2.1860554 1.6407666e-38
-0.52961004 -0.76169574 2.2155001 1.6407666e-38
-0.5371936 -0.74132359 2.2155013 1.6407666e-38
-0.50219524 -0.73928589 2.2238081 1.6407666e-38
-0.45982316 -0.73917156 2.224952 1.6407666e-38
-0.41928068 -0.73638052 2.2230661 1.6407666e-38
-0.38080463 -0.73410136 2.2234435 1.6407666e-38
-0.33822343 -0.73441046 2.2249224 1.6407666e-38
-0.30108047 -0.73348355 2.2248774 1.6407666e-38
-0.26437727 -0.73252571 2.2168791 1.6407666e-38
-0.22624268 -0.72424883 2.2080002 1.6407666e-38
-0.17820261 -0.72371507 2.2087145 1.6407666e-38
-0.1421949 -0.7266528 2.2084548 1.6407666e-38
-0.10050286 -0.72512174 2.2089679 1.6407666e-38
-0.07547389 -0.72498012 2.2101431 1.6407666e-38
-0.53040361 -0.70806593 2.209579 1.6407666e-38
-0.5012601 -0.69964182 2.2226934 1.6407666e-38
-0.45191643 -0.70050085 2.2369995 1.6407666e-38
-0.42719266 -0.70299262 2.2369998 1.6407666e-38
-0.38010204 -0.71621603 2.2369998 1.6407666e-38
-0.33648995 -0.71571475 2.2369998 1.6407666e-38
-0.30648422 -0.71736175 2.237 1.6407666e-38
-0.254884 -0.71013373 2.2271161 1.6407666e-38
-0.22117622 -0.70794952 2.2260523 1.6407666e-38
-0.18129702 -0.71118444 2.2283278 1.6407666e-38
-0.13997404 -0.71307552 2.2247956 1.6407666e-38
-0.099905618 -0.71345705 2.2265303 1.6407666e-38
-0.061480619 -0.70606548 2.2231579 1.6407666e-38
-0.019105984 -0.70151448 2.2201507 1.6407666e-38
0.021056883 -0.70138282 2.2175515 1.6407666e-38
0.059377424 -0.69892693 2.218827 1.6407666e-38
0.099171303 -0.69366556 2.2170835 1.6407666e-38
0.141638 -0.68571514 2.2234445 1.6407666e-38
0.17913285 -0.68504828 2.2162814 1.6407666e-38
0.22352582 -0.68593353 2.2108848 1.6407666e-38
0.2633636 -0.68451416 2.2092502 1.6407666e-38
0.3003118 -0.6846956 2.2164736 1.6407666e-38
0.37904 -0.68500578 2.2080002 1.6407666e-38
0.46840572 -0.68363291 2.2155001 1.6407666e-38
0.48576003 -0.68448007 2.2080002 1.6407666e-38
-0.49571559 -0.66330534 2.2178526 1.6407666e-38
-0.46046165 -0.66163111 2.2349758 1.6407666e-38
-0.42875102 -0.65963978 2.2359228 1.6407666e-38
0.142674 -0.67569923 2.2357914 1.6407666e-38
0.18234205 -0.67315835 2.2336593 1.6407666e-38
0.21919005 -0.67379659 2.2287169 1.6407666e-38
0.26045442 -0.67255396 2.225754 1.6407666e-38
0.30024028 -0.67291772 2.2307813 1.6407666e-38
0.33926839 -0.66439033 2.2256873 1.6407666e-38
0.3802678 -0.66469479 2.2234623 1.6407666e-38
0.4193351 -0.66105068 2.2239163 1.6407666e-38
0.46145737 -0.66175729 2.2291625 1.6407666e-38
0.49998307 -0.66003227 2.2215476 1.6407666e-38
0.53994095 -0.65863174 2.2198684 1.6407666e-38
0.57864177 -0.65740132 2.2209048 1.6407666e-38
0.62069404 -0.65562242 2.2224195 1.6407666e-38
0.66113323 -0.65930271 2.2223518 1.6407666e-38
0.69908595 -0.65493494 2.2211339 1.6407666e-38
0.7411443 -0.64796352 2.2111044 1.6407666e-38
0.77974379 -0.64893568 2.2107143 1.6407666e-38
0.81564683 -0.64643669 2.2098 1.6407666e-38
0.85165721 -0.64137149 2.2080002 1.6407666e-38
0.89651817 -0.6511848 2.2080002 1.6407666e-38
-0.48716199 -0.63085723 2.2080002 1.6407666e-38
-0.45904768 -0.62182641 2.2177169 1.6407666e-38
-0.42046568 -0.62053233 2.2315371 1.6407666e-38
-0.38961086 -0.60691935 2.2369998 1.6407666e-38
0.50918382 -0.63701236 2.237 1.6407666e-38
0.71326005 -0.63501716 2.2207501 1.6407666e-38
0.74070376 -0.63489401 2.2221785 1.6407666e-38
0.77942872 -0.63441497 2.2259665 1.6407666e-38
0.8209247 -0.63228375 2.220479 1.6407666e-38
0.86184341 -0.62122953 2.2161803 1.6407666e-38
0.89574689 -0.61930871 2.2165608 1.6407666e-38
0.94304043 -0.6125564 2.2308862 1.6407666e-38
0.97920293 -0.61221075 2.2252781 1.6407666e-38
1.0034332 -0.60510629 2.22 1.6407666e-38
-0.45491809 -0.59545904 2.2080002 1.6407666e-38
-0.41765872 -0.58128744 2.2159102 1.6407666e-38
-0.38300917 -0.57704365 2.2320702 1.6407666e-38
0.95081902 -0.59114444 2.2369998 1.6407666e-38
0.97415662 -0.59126031 2.2352185 1.6407666e-38
1.0192853 -0.57939762 2.2227447 1.6407666e-38
1.0450157 -0.58046287 2.2181537 1.6407666e-38
-0.4062368 -0.54476935 2.2135556 1.6407666e-38
-0.37835929 -0.5395121 2.2244525 1.6407666e-38
-0.3440336 -0.53203225 2.2352049 1.6407666e-38
0.98896706 -0.52537537 2.237 1.6407666e-38
1.0153887 -0.54233676 2.220294 1.6407666e-38
1.0409143 -0.55725718 2.2080002 1.6407666e-38
-0.37118974 -0.50902975 2.2095001 1.6407666e-38
-0.34095517 -0.49936819 2.225425 1.6407666e-38
-0.31460035 -0.49142981 2.2369998 1.6407666e-38
0.99222797 -0.50384802 2.2332366 1.6407666e-38
1.0072886 -0.50277776 2.220423 1.6407666e-38
-0.33843321 -0.46223158 2.2173343 1.6407666e-38
-0.30378738 -0.4575491 2.2312136 1.6407666e-38
-0.27802712 -0.44420427 2.237 1.6407666e-38
0.99339038 -0.45854333 2.2349284 1.6407666e-38
1.0064379 -0.46871504 2.2299497 1.6407666e-38
-0.32537696 -0.43173695 2.2093639 1.6407666e-38
-0.29843107 -0.42050317 2.2205751 1.6407666e-38
-0.26506919 -0.41534731 2.2315962 1.6407666e-38
0.98825228 -0.41472161 2.226692 1.6407666e-38
-0.28915569 -0.38680771 2.2137692 1.6407666e-38
-0.25911433 -0.38074195 2.2202384 1.6407666e-38
-0.22480099 -0.36774337 2.2327573 1.6407666e-38
-0.18953408 -0.36650836 2.2334998 1.6407666e-38
0.98225021 -0.38105837 2.2252412 1.6407666e-38
1.003063 -0.39744005 2.2080002 1.6407666e-38
-0.25309584 -0.35614425 2.2110002 1.6407666e-38
-0.21619186 -0.34377924 2.2272141 1.6407666e-38
-0.18606581 -0.33895281 2.2330699 1.6407666e-38
0.9540742 -0.33051816 2.2351332 1.6407666e-38
0.97392029 -0.33987322 2.2267172 1.6407666e-38
-0.20677818 -0.3027404 2.2240283 1.6407666e-38
-0.19343935 -0.30717716 2.2320998 1.6407666e-38
0.95102483 -0.300302 2.2318361 1.6407666e-38
0.96421993 -0.2986261 2.22 1.6407666e-38
-0.20452571 -0.27909237 2.237 1.6407666e-38
0.91823518 -0.26630953 2.237 1.6407666e-38
0.9421159 -0.26449677 2.2258413 1.6407666e-38
0.97416663 -0.26127186 2.2191598 1.6407666e-38
0.1597857 0.1597857 2.237 1.6407666e-38
0.14742351 0.18437535 2.2246602 1.6407666e-38
0.17053956 0.18981531 2.2369998 1.6407666e-38
0.1168588 0.2129894 2.2080002 1.6407666e-38
0.14801206 0.21609177 2.2186198 1.6407666e-38
0.17717229 0.22322892 2.2319429 1.6407666e-38
0.20346045 0.23115666 2.237 1.6407666e-38
0.090422861 0.25024 2.2080002 1.6407666e-38
0.15771429 0.24182858 2.2080002 1.6407666e-38
0.18397763 0.25758564 2.2215936 1.6407666e-38
0.20813444 0.26375228 2.2356873 1.6407666e-38
0.19059852 0.29348513 2.2135556 1.6407666e-38
0.21748303 0.30162525 2.2306669 1.6407666e-38
0.24196126 0.31074518 2.237 1.6407666e-38
-0.48725089 -0.72863418 2.2520003 1.6407666e-38
-0.47184765 -0.72707433 2.2520003 1.6407666e-38
-0.35388574 -0.72707433 2.2520001 1.6407666e-38
-0.29061526 -0.72385716 2.2520001 1.6407666e-38
-0.48495448 -0.70896304 2.2520001 1.6407666e-38
-0.47191259 -0.70107734 2.2519996 1.6407666e-38
-0.41639212 -0.70402801 2.2562494 1.6407666e-38
-0.37857834 -0.70712233 2.2602723 1.6407666e-38
-0.34290987 -0.71006662 2.2576752 1.6407666e-38
-0.2983788 -0.71332002 2.2595115 1.6407666e-38
-0.26055813 -0.69873345 2.2602167 1.6407666e-38
-0.21934046 -0.69211501 2.2595115 1.6407666e-38
-0.17882363 -0.69485778 2.2595925 1.6407666e-38
-0.14031412 -0.69710231 2.2605996 1.6407666e-38
-0.10288642 -0.69815564 2.2612574 1.6407666e-38
-0.059636045 -0.69243085 2.2566659 1.6407666e-38
-0.019617317 -0.68975544 2.2542784 1.6407666e-38
0.017986797 -0.68727458 2.2544134 1.6407666e-38
0.060087264 -0.68752676 2.2554049 1.6407666e-38
0.099058345 -0.68648255 2.2572498 1.6407666e-38
-0.411145 -0.66333175 2.2571733 1.6407666e-38
-0.39121911 -0.66162264 2.2653327 1.6407666e-38
-0.20501906 -0.67980003 2.266 1.6407666e-38
-0.12948571 -0.67980003 2.266 1.6407666e-38
-0.11437905 -0.67980003 2.266 1.6407666e-38
-0.055118009 -0.67627263 2.2653637 1.6407666e-38
-0.021317462 -0.6781314 2.2644446 1.6407666e-38
0.023174424 -0.67126691 2.2648077 1.6407666e-38
0.060035497 -0.67005628 2.2652752 1.6407666e-38
0.10137454 -0.67083663 2.2649014 1.6407666e-38
0.13940737 -0.66105306 2.254838 1.6407666e-38
0.17987733 -0.65489537 2.2562897 1.6407666e-38
0.21942382 -0.65818739 2.2560828 1.6407666e-38
0.26018471 -0.66037446 2.2578328 1.6407666e-38
0.30215746 -0.65850115 2.2583132 1.6407666e-38
0.33777609 -0.64844024 2.256846 1.6407666e-38
0.3807359 -0.64913762 2.2594664 1.6407666e-38
0.42029667 -0.64514083 2.2596359 1.6407666e-38
0.45753485 -0.64378929 2.2579229 1.6407666e-38
0.49909574 -0.642241 2.2569001 1.6407666e-38
0.54385513 -0.64253008 2.2570908 1.6407666e-38
0.58398473 -0.64430207 2.2539999 1.6407666e-38
0.61843938 -0.64434189 2.2561171 1.6407666e-38
0.66322994 -0.6445781 2.2580664 1.6407666e-38
0.69220787 -0.64361936 2.2555003 1.6407666e-38
-0.40107051 -0.63056004 2.2520001 1.6407666e-38
-0.37798113 -0.62132633 2.2620695 1.6407666e-38
0.47262287 -0.6366381 2.2660003 1.6407666e-38
0.50187415 -0.63608575 2.2616928 1.6407666e-38
0.53664511 -0.63208443 2.264133 1.6407666e-38
0.57921529 -0.63252753 2.2627995 1.6407666e-38
0.62106907 -0.6318596 2.2659998 1.6407666e-38
0.65749562 -0.63160241 2.2651994 1.6407666e-38
0.70351535 -0.63219398 2.2617218 1.6407666e-38
0.73859173 -0.62895441 2.2613328 1.6407666e-38
0.77820849 -0.62319827 2.2593329 1.6407666e-38
0.8208307 -0.62102824 2.2603126 1.6407666e-38
0.85826439 -0.61508524 2.2599993 1.6407666e-38
0.90020502 -0.60959959 2.2581019 1.6407666e-38
0.9296335 -0.60578591 2.252934 1.6407666e-38
0.99302477 -0.60482287 2.2520001 1.6407666e-38
-0.36652359 -0.58617228 2.2572498 1.6407666e-38
-0.34561324 -0.56937528 2.2606151 1.6407666e-38
0.90095878 -0.5965569 2.2613335 1.6407666e-38
0.94037217 -0.58989525 2.256454 1.6407666e-38
0.98535919 -0.57722503 2.2537494 1.6407666e-38
1.0076362 -0.58056015 2.2519996 1.6407666e-38
-0.33482206 -0.54833001 2.2551496 1.6407666e-38
-0.30829927 -0.53429002 2.2631993 1.6407666e-38
0.98980087 -0.53982317 2.2560833 1.6407666e-38
1.007172 -0.54552376 2.2542577 1.6407666e-38
-0.32385904 -0.51474285 2.2520001 1.6407666e-38
-0.29903397 -0.49984145 2.2585618 1.6407666e-38
-0.25979 -0.49197134 2.2659996 1.6407666e-38
-0.23954856 -0.48125523 2.266 1.6407666e-38
0.98387563 -0.49669465 2.2557554 1.6407666e-38
1.0052805 -0.4856354 2.2520001 1.6407666e-38
-0.28659382 -0.47077528 2.2520003 1.6407666e-38
-0.26016393 -0.46114439 2.2616365 1.6407666e-38
-0.23007397 -0.45525283 2.2659993 1.6407666e-38
0.98407865 -0.45961079 2.2588809 1.6407666e-38
1.0037487 -0.47613716 2.2520001 1.6407666e-38
-0.25233573 -0.42768589 2.254333 1.6407666e-38
-0.22080819 -0.41962442 2.2630363 1.6407666e-38
-0.18080044 -0.40668106 2.266 1.6407666e-38
0.95406169 -0.40750477 2.2520003 1.6407666e-38
0.97972554 -0.42254081 2.2580338 1.6407666e-38
-0.21720946 -0.387575 2.2591314 1.6407666e-38
-0.18512455 -0.39098465 2.2611721 1.6407666e-38
0.95186818 -0.37656173 2.258533 1.6407666e-38
0.96874648 -0.37779683 2.2556663 1.6407666e-38
-0.17587048 -0.32600379 2.2520001 1.6407666e-38
0.95193422 -0.34218162 2.2589996 1.6407666e-38
0.97264969 -0.35120475 2.2520003 1.6407666e-38
-0.21233144 -0.28310859 2.2520001 1.6407666e-38
0.93772006 -0.30012947 2.2587192 1.6407666e-38
0.92905778 -0.25837269 2.2624998 1.6407666e-38
0.9279809 -0.23954856 2.266 1.6407666e-38
0.17135277 0.10402019 2.266 1.6407666e-38
0.15561357 0.1481069 2.2537501 1.6407666e-38
0.17342943 0.14733739 2.26121 1.6407666e-38
0.15442288 0.16085716 2.2520001 1.6407666e-38
0.18457931 0.17752302 2.2535305 1.6407666e-38
0.20591599 0.18385075 2.2618825 1.6407666e-38
0.19445844 0.21233144 2.2520001 1.6407666e-38
0.21974811 0.22236967 2.2595384 1.6407666e-38
0.24386477 0.23307428 2.266 1.6407666e-38
0.22696956 0.25832358 2.2525084 1.6407666e-38
0.25116518 0.26306844 2.2609739 1.6407666e-38
0.23255348 0.28770453 2.2520006 1.6407666e-38
0.25800106 0.29791009 2.2569823 1.6407666e-38
0.29270935 0.30047318 2.2632 1.6407666e-38
-0.40551114 -0.70240325 2.2810001 1.6407666e-38
-0.37927476 -0.695535 2.2819588 1.6407666e-38
-0.33916885 -0.69445592 2.2907653 1.6407666e-38
-0.30051202 -0.69521129 2.2944868 1.6407666e-38
-0.26568842 -0.6878714 2.2877855 1.6407666e-38
-0.21910016 -0.68616217 2.2810001 1.6407666e-38
-0.17746219 -0.68407422 2.2844288 1.6407666e-38
-0.14751732 -0.68286353 2.2868183 1.6407666e-38
-0.09347672 -0.68579215 2.2827775 1.6407666e-38
-0.076166674 -0.68657094 2.2850001 1.6407666e-38
-0.37194055 -0.66093701 2.2829638 1.6407666e-38
-0.33924526 -0.65801847 2.2942669 1.6407666e-38
-0.3121374 -0.66290754 2.3085709 1.6407666e-38
-0.2572403 -0.67408603 2.2966492 1.6407666e-38
-0.21947482 -0.671498 2.2940159 1.6407666e-38
-0.1812242 -0.676045 2.2912056 1.6407666e-38
-0.13907197 -0.67642087 2.2962158 1.6407666e-38
-0.098337494 -0.67499828 2.2972279 1.6407666e-38
-0.058107346 -0.66346049 2.3005757 1.6407666e-38
-0.019916374 -0.66170645 2.3017247 1.6407666e-38
0.017837303 -0.65339428 2.2974656 1.6407666e-38
0.058965452 -0.65258336 2.3012168 1.6407666e-38
0.10097682 -0.65569717 2.2969422 1.6407666e-38
0.13958338 -0.64503092 2.2949083 1.6407666e-38
0.18004543 -0.644108 2.297235 1.6407666e-38
0.22091216 -0.64629388 2.2967389 1.6407666e-38
0.25810018 -0.64825511 2.2902167 1.6407666e-38
0.29979441 -0.64668286 2.2899063 1.6407666e-38
0.33984476 -0.64389437 2.2830868 1.6407666e-38
0.37820733 -0.64425772 2.2816956 1.6407666e-38
0.41926956 -0.64085239 2.2810001 1.6407666e-38
0.45257941 -0.64181787 2.2810001 1.6407666e-38
0.49313051 -0.64085239 2.2810001 1.6407666e-38
-0.36604622 -0.62673199 2.2810001 1.6407666e-38
-0.3397226 -0.61852992 2.2868187 1.6407666e-38
-0.30462706 -0.61527044 2.3031752 1.6407666e-38
-0.2703473 -0.60685456 2.3079095 1.6407666e-38
0.022019047 -0.63635057 2.312 1.6407666e-38
0.046240002 -0.63635051 2.312 1.6407666e-38
0.14111644 -0.63179147 2.3108001 1.6407666e-38
0.17708398 -0.63295263 2.3103335 1.6407666e-38
0.21798857 -0.63477778 2.312 1.6407666e-38
0.26200575 -0.63238215 2.3085709 1.6407666e-38
0.30294779 -0.63124955 2.3087063 1.6407666e-38
0.34088656 -0.62426597 2.2977176 1.6407666e-38
0.38010982 -0.62472552 2.2975874 1.6407666e-38
0.41926849 -0.62849575 2.2945507 1.6407666e-38
0.46153963 -0.62532032 2.2988114 1.6407666e-38
0.4986603 -0.62587202 2.2979705 1.6407666e-38
0.54083091 -0.6182574 2.2960761 1.6407666e-38
0.57974333 -0.61817539 2.2942455 1.6407666e-38
0.61765701 -0.61612791 2.2914994 1.6407666e-38
0.66130489 -0.61684328 2.297322 1.6407666e-38
0.69944841 -0.61541939 2.2926314 1.6407666e-38
0.74194396 -0.61231482 2.2896557 1.6407666e-38
0.77869958 -0.607858 2.2942314 1.6407666e-38
0.81905186 -0.60839349 2.2922885 1.6407666e-38
0.86005896 -0.60400826 2.2911167 1.6407666e-38
0.90415466 -0.60332221 2.296042 1.6407666e-38
0.92788267 -0.60288155 2.312 1.6407666e-38
-0.33761296 -0.58673126 2.2817264 1.6407666e-38
-0.2998808 -0.57869869 2.286926 1.6407666e-38
-0.26198214 -0.57614464 2.298789 1.6407666e-38
-0.23193398 -0.56845844 2.3120003 1.6407666e-38
0.67597437 -0.59722006 2.2970002 1.6407666e-38
0.70222592 -0.59430325 2.2970004 1.6407666e-38
0.73931801 -0.59305537 2.3063755 1.6407666e-38
0.78955668 -0.59293205 2.3067503 1.6407666e-38
0.81495714 -0.59342968 2.306474 1.6407666e-38
0.86363769 -0.59419495 2.3030419 1.6407666e-38
0.89561039 -0.59589761 2.3036926 1.6407666e-38
0.94275576 -0.57853287 2.2981534 1.6407666e-38
0.97590703 -0.57175672 2.2935405 1.6407666e-38
1.0014676 -0.56264669 2.2810001 1.6407666e-38
-0.29054466 -0.5442391 2.2840466 1.6407666e-38
-0.25930688 -0.54031146 2.2853246 1.6407666e-38
-0.22446136 -0.53840959 2.3050356 1.6407666e-38
0.94983715 -0.54351348 2.3055949 1.6407666e-38
0.97903395 -0.54180366 2.2949002 1.6407666e-38
1.0014676 -0.55612957 2.2810001 1.6407666e-38
-0.28349575 -0.51087165 2.2810001 1.6407666e-38
-0.25729677 -0.50642544 2.2809987 1.6407666e-38
-0.22113627 -0.49926552 2.2901771 1.6407666e-38
-0.19078822 -0.48671684 2.3108463 1.6407666e-38
0.95018876 -0.50241303 2.3064177 1.6407666e-38
0.97323126 -0.50132209 2.2922893 1.6407666e-38
-0.21200465 -0.46222359 2.2809989 1.6407666e-38
-0.18115662 -0.45864174 2.2975531 1.6407666e-38
-0.15193143 -0.44405079 2.312 1.6407666e-38
0.9518438 -0.45762634 2.3050535 1.6407666e-38
0.96923375 -0.46220049 2.2904551 1.6407666e-38
-0.20203143 -0.42578667 2.2810001 1.6407666e-38
-0.18006173 -0.42582768 2.2809989 1.6407666e-38
-0.15549238 -0.43088564 2.2880909 1.6407666e-38
0.94585961 -0.42057291 2.2948823 1.6407666e-38
0.96787506 -0.42788184 2.2819412 1.6407666e-38
0.9422999 -0.38051951 2.2946308 1.6407666e-38
0.96453714 -0.39320096 2.2810001 1.6407666e-38
0.91379052 -0.32955173 2.312 1.6407666e-38
0.93890637 -0.33983064 2.2961006 1.6407666e-38
0.91048771 -0.29822049 2.3119996 1.6407666e-38
0.9276883 -0.3014811 2.2957132 1.6407666e-38
0.90521508 -0.26128948 2.3060553 1.6407666e-38
0.92708737 -0.26406595 2.2933676 1.6407666e-38
1.0369315 -0.25157622 2.2970002 1.6407666e-38
1.044542 -0.24848668 2.3090003 1.6407666e-38
0.15858382 0.036930475 2.2810001 1.6407666e-38
0.16880858 0.03507302 2.3016667 1.6407666e-38
0.15895462 0.047195241 2.2863336 1.6407666e-38
0.17817572 0.060937636 2.3077128 1.6407666e-38
0.20451812 0.066704765 2.312 1.6407666e-38
0.18377607 0.099924624 2.2886796 1.6407666e-38
0.2149049 0.10234701 2.3072696 1.6407666e-38
0.24088839 0.10613181 2.312 1.6407666e-38
0.18561061 0.13491666 2.2813802 1.6407666e-38
0.219135 0.14032565 2.2985427 1.6407666e-38
0.25031891 0.14366084 2.3119988 1.6407666e-38
0.22400527 0.1796255 2.2894056 1.6407666e-38
0.25890413 0.18006036 2.308378 1.6407666e-38
0.28404573 0.18055619 2.312 1.6407666e-38
0.23120341 0.20916925 2.2810001 1.6407666e-38
0.26190084 0.21877082 2.2976906 1.6407666e-38
0.29354146 0.22555766 2.3119996 1.6407666e-38
0.26852185 0.25541931 2.2911048 1.6407666e-38
0.30119625 0.25939426 2.3083313 1.6407666e-38
0.33464867 0.26512897 2.3079362 1.6407666e-38
0.27321091 0.28624859 2.2827778 1.6407666e-38
0.29991525 0.29304659 2.297672 1.6407666e-38
0.33940408 0.29236624 2.3037009 1.6407666e-38
-0.28917623 -0.68114513 2.3296669 1.6407666e-38
-0.29539251 -0.65761143 2.335501 1.6407666e-38
-0.25904301 -0.65566975 2.3338273 1.6407666e-38
-0.21966763 -0.6531176 2.337589 1.6407666e-38
-0.18047374 -0.65716559 2.339283 1.6407666e-38
-0.14018229 -0.65585023 2.3379471 1.6407666e-38
-0.10108455 -0.65384537 2.3372982 1.6407666e-38
-0.064010628 -0.64718091 2.3306575 1.6407666e-38
-0.018468253 -0.64225215 2.3270001 1.6407666e-38
0.0022161906 -0.64269531 2.3270001 1.6407666e-38
0.069602005 -0.6416772 2.3299088 1.6407666e-38
0.09931045 -0.64440912 2.3339195 1.6407666e-38
0.12216985 -0.6419369 2.3323336 1.6407666e-38
-0.28962496 -0.62768751 2.3298233 1.6407666e-38
-0.25680399 -0.61934102 2.3286011 1.6407666e-38
-0.22042674 -0.61848831 2.3417377 1.6407666e-38
-0.19038409 -0.62214124 2.3564062 1.6407666e-38
-0.13105556 -0.63580668 2.3590002 1.6407666e-38
-0.056139454 -0.62974691 2.3451343 1.6407666e-38
-0.019436792 -0.63079613 2.3440011 1.6407666e-38
0.01878879 -0.6293112 2.3394094 1.6407666e-38
0.059415795 -0.63407147 2.345824 1.6407666e-38
0.10358182 -0.63200951 2.3552356 1.6407666e-38
0.13936108 -0.61836559 2.3454247 1.6407666e-38
0.18267064 -0.61908394 2.3456268 1.6407666e-38
0.21964414 -0.61717045 2.3341322 1.6407666e-38
0.25946218 -0.61682469 2.3383238 1.6407666e-38
0.29828241 -0.6148054 2.3422837 1.6407666e-38
0.33748814 -0.60831648 2.3441169 1.6407666e-38
0.38022432 -0.60654765 2.3353815 1.6407666e-38
0.42213261 -0.611525 2.3375771 1.6407666e-38
0.45899439 -0.60842007 2.3368731 1.6407666e-38
0.50298244 -0.60680115 2.3355858 1.6407666e-38
0.53511029 -0.60948735 2.3320291 1.6407666e-38
0.57706195 -0.60536104 2.3269999 1.6407666e-38
0.61469132 -0.60297906 2.3314798 1.6407666e-38
0.65488821 -0.60500622 2.3276665 1.6407666e-38
0.68568939 -0.60147417 2.3270001 1.6407666e-38
0.72912675 -0.60058767 2.3270001 1.6407666e-38
0.77788293 -0.60280383 2.3270001 1.6407666e-38
0.8399362 -0.60280383 2.3270001 1.6407666e-38
0.84769285 -0.60169572 2.3270001 1.6407666e-38
0.91750288 -0.60058767 2.3270001 1.6407666e-38
0.92415148 -0.60058767 2.3270001 1.6407666e-38
-0.24884655 -0.59172285 2.3270001 1.6407666e-38
-0.21722747 -0.58051842 2.3327713 1.6407666e-38
-0.18530712 -0.57903886 2.3517747 1.6407666e-38
0.13255334 -0.59986001 2.3590002 1.6407666e-38
0.21343336 -0.59986001 2.3590002 1.6407666e-38
0.30125761 -0.59822613 2.3590004 1.6407666e-38
0.34823334 -0.59258521 2.3590009 1.6407666e-38
0.37977812 -0.59016788 2.3536673 1.6407666e-38
0.41890287 -0.59100449 2.3579102 1.6407666e-38
0.45970404 -0.59203327 2.3552358 1.6407666e-38
0.50061679 -0.59383547 2.3585007 1.6407666e-38
0.54160887 -0.59023416 2.3474267 1.6407666e-38
0.57885969 -0.58726025 2.3455811 1.6407666e-38
0.61815369 -0.58821714 2.3446007 1.6407666e-38
0.65868968 -0.58716637 2.3460479 1.6407666e-38
0.69654572 -0.58740509 2.3416212 1.6407666e-38
0.74104899 -0.58503979 2.3423858 1.6407666e-38
0.77987397 -0.5816977 2.3438206 1.6407666e-38
0.81990546 -0.57809645 2.339973 1.6407666e-38
0.85971648 -0.57761317 2.3373532 1.6407666e-38
0.90298945 -0.57892603 2.3442149 1.6407666e-38
0.92893434 -0.57634753 2.3342466 1.6407666e-38
-0.20629846 -0.54142499 2.3269999 1.6407666e-38
-0.18070506 -0.53859496 2.3365562 1.6407666e-38
-0.1475765 -0.53066415 2.3573163 1.6407666e-38
0.83239007 -0.55829674 2.3590002 1.6407666e-38
0.87395346 -0.55942005 2.3590002 1.6407666e-38
0.90091348 -0.55842155 2.3590004 1.6407666e-38
0.9453392 -0.54407114 2.3430002 1.6407666e-38
-0.20315081 -0.51120132 2.3270001 1.6407666e-38
-0.17668033 -0.50211805 2.3277628 1.6407666e-38
-0.14225824 -0.50145072 2.3460689 1.6407666e-38
-0.11832445 -0.49052227 2.3590002 1.6407666e-38
0.94630289 -0.49936351 2.3455467 1.6407666e-38
-0.16510619 -0.47537288 2.3270001 1.6407666e-38
-0.13940538 -0.46199608 2.3334005 1.6407666e-38
-0.11258086 -0.46321219 2.3513205 1.6407666e-38
0.94453293 -0.45909905 2.3409495 1.6407666e-38
-0.059349447 -0.41001672 2.3590009 1.6407666e-38
-0.038193338 -0.4066467 2.3590002 1.6407666e-38
0.91730732 -0.41854054 2.3483338 1.6407666e-38
0.9299221 -0.41984659 2.3390713 1.6407666e-38
-0.054408412 -0.39218986 2.3590009 1.6407666e-38
0.91489536 -0.37925515 2.3449519 1.6407666e-38
0.93066901 -0.37983325 2.3337371 1.6407666e-38
0.90788347 -0.3392337 2.3412771 1.6407666e-38
0.93032581 -0.3481873 2.3285997 1.6407666e-38
0.020220002 -0.30779335 2.3590002 1.6407666e-38
0.89877141 -0.29891855 2.3409023 1.6407666e-38
0.86729032 -0.2600868 2.3552356 1.6407666e-38
0.89024884 -0.26888391 2.3376672 1.6407666e-38
0.97730005 -0.26061338 2.3590002 1.6407666e-38
1.0677463 -0.24432288 2.353667 1.6407666e-38
1.07166 -0.23590001 2.3590002 1.6407666e-38
0.19033125 0.035817143 2.3510005 1.6407666e-38
0.22017336 0.038193338 2.3590002 1.6407666e-38
0.24264002 0.035946671 2.3590002 1.6407666e-38
0.19192211 0.046096761 2.3269999 1.6407666e-38
0.22297157 0.059891239 2.3354375 1.6407666e-38
0.25353691 0.063943252 2.3586454 1.6407666e-38
0.23078282 0.094024122 2.3308396 1.6407666e-38
0.25949013 0.10073889 2.3479035 1.6407666e-38
0.28352937 0.11458001 2.3590002 1.6407666e-38
0.2669276 0.13536973 2.3324742 1.6407666e-38
0.29353243 0.14338501 2.3542736 1.6407666e-38
0.3527267 0.15951334 2.3590002 1.6407666e-38
0.27170497 0.16621429 2.3270001 1.6407666e-38
0.300881 0.18014866 2.3452156 1.6407666e-38
0.33908191 0.18636864 2.3568308 1.6407666e-38
0.36644316 0.18812881 2.3590007 1.6407666e-38
0.30643687 0.21466084 2.3356495 1.6407666e-38
0.34002483 0.22095132 2.3437903 1.6407666e-38
0.37353143 0.22266898 2.3542736 1.6407666e-38
0.34790978 0.25391024 2.3294246 1.6407666e-38
0.38036293 0.26040831 2.3461168 1.6407666e-38
0.40889335 0.2640698 2.3590009 1.6407666e-38
0.3829695 0.29221866 2.3378007 1.6407666e-38
0.41527146 0.29266921 2.3535271 1.6407666e-38
-0.16292572 -0.64038861 2.3760002 1.6407666e-38
-0.1465016 -0.64034796 2.3786669 1.6407666e-38
-0.10029646 -0.64034426 2.3789091 1.6407666e-38
-0.079466671 -0.64026666 2.3840003 1.6407666e-38
-0.17175065 -0.62077087 2.3831482 1.6407666e-38
-0.14047325 -0.62760806 2.3897591 1.6407666e-38
-0.10206156 -0.63182914 2.3883862 1.6407666e-38
-0.059985414 -0.61578542 2.3851905 1.6407666e-38
-0.020959212 -0.61447966 2.3815167 1.6407666e-38
0.022109812 -0.61505759 2.384701 1.6407666e-38
0.061255898 -0.61707997 2.3822224 1.6407666e-38
0.10078173 -0.61609322 2.3816004 1.6407666e-38
0.14176494 -0.60563678 2.3807058 1.6407666e-38
0.17361526 -0.60732651 2.3767998 1.6407666e-38
0.22006287 -0.6041829 2.3760002 1.6407666e-38
0.2582486 -0.60616285 2.3759999 1.6407666e-38
0.28285718 -0.6041829 2.3760002 1.6407666e-38
0.33037716 -0.6041829 2.3760002 1.6407666e-38
-0.16606244 -0.58455294 2.3801737 1.6407666e-38
-0.14034447 -0.57746249 2.3919988 1.6407666e-38
-0.11504382 -0.57294095 2.3920002 1.6407666e-38
-0.061508577 -0.596861 2.3920002 1.6407666e-38
-0.01898413 -0.59913909 2.3920002 1.6407666e-38
0.034171432 -0.59913909 2.3920002 1.6407666e-38
0.056952387 -0.59822792 2.3920002 1.6407666e-38
0.11618286 -0.59913909 2.3920002 1.6407666e-38
0.14051074 -0.59318048 2.3858056 1.6407666e-38
0.18158779 -0.59478134 2.3860564 1.6407666e-38
0.21876995 -0.59360117 2.3839993 1.6407666e-38
0.26023689 -0.5926832 2.3839993 1.6407666e-38
0.30119672 -0.58958721 2.380897 1.6407666e-38
0.33949986 -0.58770609 2.382117 1.6407666e-38
0.38022733 -0.58101404 2.3846664 1.6407666e-38
0.41972518 -0.58047688 2.3886666 1.6407666e-38
0.46362671 -0.58500969 2.3849597 1.6407666e-38
0.50169796 -0.5823893 2.3824861 1.6407666e-38
0.54177362 -0.57755035 2.3834412 1.6407666e-38
0.58117306 -0.57025439 2.3855994 1.6407666e-38
0.61983854 -0.57183206 2.3836184 1.6407666e-38
0.6566689 -0.57123667 2.3858175 1.6407666e-38
0.70126289 -0.57208431 2.3875735 1.6407666e-38
0.73893863 -0.57315928 2.3862634 1.6407666e-38
0.77788419 -0.56733072 2.3759999 1.6407666e-38
0.81689149 -0.56509721 2.3759999 1.6407666e-38
0.85926872 -0.56592005 2.3759999 1.6407666e-38
0.90966862 -0.56345147 2.3760002 1.6407666e-38
0.93456006 -0.56345147 2.3760002 1.6407666e-38
-0.16066287 -0.55666292 2.3760002 1.6407666e-38
-0.1356876 -0.54641163 2.3845327 1.6407666e-38
-0.10483667 -0.53594226 2.3900397 1.6407666e-38
-0.06736654 -0.53144711 2.3920002 1.6407666e-38
0.57635814 -0.55813336 2.3920002 1.6407666e-38
0.66064763 -0.55813336 2.3920002 1.6407666e-38
0.75348735 -0.55464697 2.3888004 1.6407666e-38
0.78308278 -0.5526129 2.3870215 1.6407666e-38
0.82104456 -0.54759133 2.3838634 1.6407666e-38
0.85732865 -0.54880577 2.3848503 1.6407666e-38
0.900841 -0.5456599 2.3849697 1.6407666e-38
0.93833899 -0.54030186 2.3811443 1.6407666e-38
-0.12445715 -0.50574863 2.3760002 1.6407666e-38
-0.10055573 -0.5014587 2.3837578 1.6407666e-38
-0.065966189 -0.4967846 2.3916852 1.6407666e-38
-0.036449526 -0.48067811 2.3920002 1.6407666e-38
0.9120155 -0.49725634 2.3871105 1.6407666e-38
0.93651932 -0.4962323 2.380645 1.6407666e-38
-0.092335619 -0.46268034 2.3791997 1.6407666e-38
-0.06196446 -0.4587006 2.3833337 1.6407666e-38
-0.029952738 -0.45401597 2.3919995 1.6407666e-38
0.9139576 -0.45881343 2.3885214 1.6407666e-38
0.93460131 -0.46391273 2.3797643 1.6407666e-38
-0.083725713 -0.43673146 2.3760002 1.6407666e-38
-0.060645416 -0.42618364 2.3777776 1.6407666e-38
-0.031652272 -0.42710459 2.3817596 1.6407666e-38
0.90440279 -0.41883016 2.3839998 1.6407666e-38
0.92198861 -0.42214862 2.3760002 1.6407666e-38
-0.038468573 -0.39373717 2.3760002 1.6407666e-38
0.8746134 -0.3734324 2.3920002 1.6407666e-38
0.89923471 -0.38056356 2.3849702 1.6407666e-38
0.9209829 -0.39600003 2.3760002 1.6407666e-38
0.0067885723 -0.32585144 2.3760002 1.6407666e-38
0.86930174 -0.33893818 2.3908281 1.6407666e-38
0.89142621 -0.3432804 2.3800681 1.6407666e-38
0.020365715 -0.31453717 2.3760002 1.6407666e-38
0.86357868 -0.29852051 2.3867452 1.6407666e-38
0.887622 -0.30406335 2.3759997 1.6407666e-38
0.85862714 -0.26074997 2.3836064 1.6407666e-38
0.88560003 -0.25858289 2.3759999 1.6407666e-38
1.0673144 -0.24363431 2.3760002 1.6407666e-38
1.0861715 -0.24438858 2.3760002 1.6407666e-38
0.85022545 -0.23710687 2.3876364 1.6407666e-38
1.0703315 -0.23760001 2.3760002 1.6407666e-38
1.0884343 -0.23760001 2.3760002 1.6407666e-38
0.26479679 0.023885006 2.3819528 1.6407666e-38
0.28316727 0.020047238 2.392 1.6407666e-38
0.26873803 0.055675946 2.376533 1.6407666e-38
0.2961643 0.065665245 2.384639 1.6407666e-38
0.27652115 0.092777148 2.3760002 1.6407666e-38
0.29883665 0.10029305 2.3801966 1.6407666e-38
0.34399238 0.11390477 2.3920002 1.6407666e-38
0.31103238 0.13642141 2.3784611 1.6407666e-38
0.34068686 0.14503327 2.3885705 1.6407666e-38
0.37018466 0.14469995 2.3914659 1.6407666e-38
0.71532196 0.14124191 2.3920002 1.6407666e-38
0.31680003 0.16066287 2.3760002 1.6407666e-38
0.34044355 0.16854149 2.3771031 1.6407666e-38
0.37939391 0.17736875 2.3831995 1.6407666e-38
0.40322289 0.1981943 2.3920002 1.6407666e-38
0.3922486 0.21478276 2.3859043 1.6407666e-38
0.40786761 0.22719097 2.391238 1.6407666e-38
0.42496887 0.25794241 2.3839993 1.6407666e-38
0.45698595 0.27564955 2.3920002 1.6407666e-38
0.43483621 0.28648573 2.378 1.6407666e-38
0.45847082 0.29015729 2.3847611 1.6407666e-38
0.49215242 0.30290005 2.3894734 1.6407666e-38
0.55037338 0.31157717 2.3880002 1.6407666e-38
0.56496763 0.30982095 2.3920002 1.6407666e-38
-0.13689238 -0.6120646 2.4089994 1.6407666e-38
-0.097712226 -0.61502218 2.4133954 1.6407666e-38
-0.067304291 -0.60922593 2.4126432 1.6407666e-38
-0.019120848 -0.60437649 2.4108891 1.6407666e-38
0.014538574 -0.60410148 2.4118338 1.6407666e-38
0.094871297 -0.60475332 2.4116158 1.6407666e-38
-0.13249502 -0.5976615 2.4090002 1.6407666e-38
-0.096934244 -0.5820893 2.4163575 1.6407666e-38
-0.061458088 -0.58355784 2.4200494 1.6407666e-38
-0.023038132 -0.5960961 2.4188077 1.6407666e-38
0.025096765 -0.59676743 2.4175003 1.6407666e-38
0.060012903 -0.59257764 2.4150324 1.6407666e-38
0.10008547 -0.59429282 2.4216292 1.6407666e-38
0.14180335 -0.58295631 2.4190462 1.6407666e-38
0.18017413 -0.58136547 2.4200006 1.6407666e-38
0.22148275 -0.57922274 2.4198508 1.6407666e-38
0.25901595 -0.57820517 2.419271 1.6407666e-38
0.29771745 -0.58119893 2.4207242 1.6407666e-38
0.343669 -0.57742208 2.4208491 1.6407666e-38
0.37981102 -0.57020849 2.41818 1.6407666e-38
0.42103297 -0.56861836 2.4146662 1.6407666e-38
0.45963767 -0.57201505 2.4156778 1.6407666e-38
0.498611 -0.56902546 2.4146664 1.6407666e-38
0.53760177 -0.56783783 2.4123046 1.6407666e-38
0.58045429 -0.56209999 2.4090002 1.6407666e-38
0.62124169 -0.56260985 2.4090002 1.6407666e-38
0.65540099 -0.56362951 2.4090002 1.6407666e-38
0.69929832 -0.56301773 2.4090002 1.6407666e-38
0.73777682 -0.56209999 2.4090002 1.6407666e-38
-0.086476922 -0.54515761 2.4090004 1.6407666e-38
-0.060147386 -0.53993517 2.4139745 1.6407666e-38
-0.026801525 -0.52725071 2.4260004 1.6407666e-38
0.35812384 -0.55451429 2.4260001 1.6407666e-38
0.38164869 -0.55598456 2.4260006 1.6407666e-38
0.42358729 -0.5552845 2.4260006 1.6407666e-38
0.45490709 -0.55323064 2.4259999 1.6407666e-38
0.50230014 -0.55399692 2.4251904 1.6407666e-38
0.54347092 -0.55500346 2.4203331 1.6407666e-38
0.58178431 -0.55003273 2.41787 1.6407666e-38
0.61890185 -0.54532051 2.4164562 1.6407666e-38
0.65784055 -0.54945564 2.4158001 1.6407666e-38
0.70057076 -0.54907787 2.4145424 1.6407666e-38
0.73929262 -0.54886943 2.4155681 1.6407666e-38
0.77904254 -0.54044873 2.4165552 1.6407666e-38
0.81791008 -0.53317469 2.4177933 1.6407666e-38
0.86197686 -0.53579152 2.4163916 1.6407666e-38
0.89535856 -0.53783178 2.4190457 1.6407666e-38
0.92414439 -0.52753896 2.4118338 1.6407666e-38
-0.080300003 -0.51621431 2.4090002 1.6407666e-38
-0.050474294 -0.50411719 2.4090004 1.6407666e-38
-0.019878671 -0.50154555 2.4176152 1.6407666e-38
0.0046209525 -0.50691855 2.4260004 1.6407666e-38
0.76938862 -0.51985717 2.4260001 1.6407666e-38
0.82484001 -0.51523626 2.4260001 1.6407666e-38
0.90148753 -0.49711946 2.4170947 1.6407666e-38
-0.043591432 -0.47721145 2.4090002 1.6407666e-38
-0.016564379 -0.46864867 2.4131343 1.6407666e-38
0.0023104763 -0.46748638 2.4260001 1.6407666e-38
0.90506351 -0.45830199 2.4193656 1.6407666e-38
0.92153811 -0.46879908 2.4090002 1.6407666e-38
0.89376837 -0.41750064 2.416846 1.6407666e-38
0.87201941 -0.37565345 2.4152632 1.6407666e-38
0.89553618 -0.39385241 2.4090004 1.6407666e-38
0.85722631 -0.33660838 2.4183497 1.6407666e-38
0.84878969 -0.30218551 2.4152966 1.6407666e-38
0.83468932 -0.25446311 2.422909 1.6407666e-38
0.84594524 -0.26378173 2.4153752 1.6407666e-38
1.1110685 -0.24844871 2.4153752 1.6407666e-38
1.120581 -0.25184193 2.4260001 1.6407666e-38
0.79018283 -0.2033219 2.4260004 1.6407666e-38
0.82341766 -0.21754961 2.4229403 1.6407666e-38
0.84814274 -0.22621192 2.4156115 1.6407666e-38
0.79229397 -0.19333945 2.4226005 1.6407666e-38
0.81165177 -0.18218359 2.4217503 1.6407666e-38
0.79381365 -0.14820056 2.4260004 1.6407666e-38
0.80751133 -0.15441683 2.4260006 1.6407666e-38
0.27928776 -0.018811565 2.4235718 1.6407666e-38
0.29145008 -0.0089118378 2.4260004 1.6407666e-38
0.25925431 0.01606 2.4090002 1.6407666e-38
0.3041831 0.021172078 2.4176664 1.6407666e-38
0.34088415 0.026215022 2.4260011 1.6407666e-38
0.73011053 0.039278094 2.4260001 1.6407666e-38
0.30814952 0.051976237 2.4113183 1.6407666e-38
0.34049001 0.059496526 2.4200749 1.6407666e-38
0.37520128 0.063387409 2.4260008 1.6407666e-38
0.40433335 0.076245718 2.4260001 1.6407666e-38
0.71833479 0.05526524 2.4175 1.6407666e-38
0.72444606 0.049354393 2.4165559 1.6407666e-38
0.31890571 0.10324286 2.4090002 1.6407666e-38
0.3399775 0.098371215 2.4133699 1.6407666e-38
0.38016877 0.09899836 2.4221251 1.6407666e-38
0.41105479 0.09851031 2.4260006 1.6407666e-38
0.71855813 0.083177149 2.4260001 1.6407666e-38
0.72317904 0.083177149 2.4260001 1.6407666e-38
0.34042731 0.13160056 2.4111249 1.6407666e-38
0.38527158 0.13531794 2.4120212 1.6407666e-38
0.41967416 0.14287573 2.4210644 1.6407666e-38
0.44262126 0.14952083 2.4260004 1.6407666e-38
0.71665639 0.15007414 2.4118335 1.6407666e-38
0.72381586 0.14675753 2.4158001 1.6407666e-38
0.3953819 0.17513047 2.4090002 1.6407666e-38
0.41968596 0.18173145 2.4139855 1.6407666e-38
0.45407268 0.18268278 2.4245002 1.6407666e-38
0.48288953 0.19639048 2.4260001 1.6407666e-38
0.70773864 0.18012136 2.4245839 1.6407666e-38
0.7227 0.16289429 2.4090002 1.6407666e-38
0.42587692 0.21786153 2.4089987 1.6407666e-38
0.46065903 0.21904168 2.4210408 1.6407666e-38
0.49213141 0.22543648 2.4260004 1.6407666e-38
0.70839208 0.22411621 2.4260004 1.6407666e-38
0.4329645 0.24352209 2.4090002 1.6407666e-38
0.46104333 0.25845116 2.4122009 1.6407666e-38
0.49823973 0.26088655 2.4197223 1.6407666e-38
0.52563339 0.27379143 2.4260001 1.6407666e-38
0.68929213 0.25800318 2.4260001 1.6407666e-38
0.47950572 0.28449145 2.4090002 1.6407666e-38
0.50286949 0.29118764 2.4127772 1.6407666e-38
0.5373435 0.30015972 2.4235713 1.6407666e-38
0.57219505 0.30685624 2.4226005 1.6407666e-38
-0.050228637 -0.57468665 2.4430003 1.6407666e-38
-0.020382835 -0.57852298 2.4489017 1.6407666e-38
0.020241413 -0.58112395 2.4544802 1.6407666e-38
0.061456084 -0.57476342 2.4522958 1.6407666e-38
0.10000235 -0.57606584 2.4569843 1.6407666e-38
0.13634184 -0.56975234 2.4529734 1.6407666e-38
0.17808717 -0.56615728 2.4442148 1.6407666e-38
0.22044687 -0.56644732 2.4461484 1.6407666e-38
0.26164427 -0.56495696 2.4430006 1.6407666e-38
0.30090731 -0.56867701 2.4469433 1.6407666e-38
0.33581302 -0.57036287 2.4527693 1.6407666e-38
-0.045757782 -0.55064452 2.4430001 1.6407666e-38
-0.019811144 -0.54487514 2.4458871 1.6407666e-38
0.020982934 -0.54255694 2.4599152 1.6407666e-38
0.050840851 -0.54176921 2.4770992 1.6407666e-38
0.095186673 -0.55932009 2.4780002 1.6407666e-38
0.14393838 -0.55532932 2.474292 1.6407666e-38
0.17928556 -0.55465955 2.4726481 1.6407666e-38
0.21941257 -0.55654067 2.4720004 1.6407666e-38
0.26152441 -0.55555934 2.4681287 1.6407666e-38
0.29882908 -0.55501825 2.4741817 1.6407666e-38
0.34727633 -0.55313557 2.4691157 1.6407666e-38
0.3802495 -0.54148144 2.4652526 1.6407666e-38
0.41898435 -0.54249448 2.4633634 1.6407666e-38
0.46185607 -0.54129791 2.4639487 1.6407666e-38
0.49951029 -0.53814137 2.463351 1.6407666e-38
0.54030544 -0.53948486 2.4661539 1.6407666e-38
0.57894003 -0.5342406 2.4558036 1.6407666e-38
0.6193943 -0.52773982 2.4538536 1.6407666e-38
