# .PCD v0.7 - Point Cloud Data file format
VERSION 0.7
FIELDS x y z rgb
SIZE 4 4 4 4
TYPE F F F F
COUNT 1 1 1 1
WIDTH 226
HEIGHT 1
VIEWPOINT 0 0 0 1 0 0 0
POINTS 226
DATA ascii
-0.090091422 0.10378855 0.46886635 8.0084095e-39
-0.070659369 0.10154053 0.47154528 1.2246163e-38
-0.085007831 0.12130259 0.47837502 7.8247399e-39
-0.078284927 0.12100049 0.47883341 8.7459746e-39
-0.097992256 0.11686057 0.48064274 7.3637604e-39
-0.053803205 0.10919555 0.49119663 1.556232e-38
-0.037764821 0.11724865 0.51894128 1.6573949e-38
-0.091696739 0.14030294 0.49430513 7.4559574e-39
-0.060517877 0.13915867 0.49988863 1.2890814e-38
-0.039024007 0.13234305 0.51740009 1.7128566e-38
-0.089631252 0.16930827 0.51272476 7.3641191e-39
-0.06558612 0.17041621 0.51279277 9.5742947e-39
-0.042590477 0.11836191 0.52000004 1.7404438e-38
-0.29871637 0.13920982 0.53912014 1.1058079e-38
-0.041733697 0.14592142 0.52230114 1.7220763e-38
-0.034945715 0.14383377 0.53211927 1.7589182e-38
-0.32231909 0.18813609 0.53169239 8.3872842e-39
-0.2986418 0.18506025 0.53474414 8.1088952e-39
-0.26704517 0.19248432 0.54991215 8.56843e-39
-0.091920547 0.18657777 0.52642566 7.3641233e-39
-0.055116404 0.18550792 0.52820861 1.1417125e-38
-0.033170097 0.17949966 0.54630035 1.6760505e-38
-0.32306415 0.20774893 0.53954005 9.1241177e-39
-0.29969829 0.20883122 0.53771967 7.6489961e-39
-0.27017555 0.204872 0.55576539 8.0156206e-39
-0.086284235 0.20875236 0.54122198 7.5495922e-39
-0.059661478 0.21240816 0.54531991 8.2853551e-39
-0.035596874 0.20713115 0.55503958 1.3812051e-38
-0.24749553 0.19516736 0.56297952 1.0226516e-38
-0.23398168 0.19801298 0.57102531 1.0319797e-38
-0.021927964 0.18755473 0.56875271 1.7496629e-38
-0.28050002 0.21104288 0.56100005 8.2014608e-39
-0.25227672 0.21807589 0.56827462 7.7390365e-39
-0.22397093 0.22209451 0.58228356 8.0149045e-39
-0.19912954 0.2353169 0.59825003 6.6388154e-39
-0.082892515 0.22809888 0.56300002 7.2719235e-39
-0.057569847 0.23265766 0.56584835 7.8243812e-39
-0.025692465 0.22078189 0.57903856 1.4548894e-38
-0.24000572 0.2411143 0.58200002 6.5415751e-39
-0.23033278 0.24139674 0.58371133 7.7383176e-39
-0.05056059 0.24959439 0.58314848 6.9024277e-39
-0.0314373 0.24685575 0.59229594 1.0771397e-38
-0.0069225775 0.19841656 0.63817072 1.1781212e-38
0.0084342686 0.19834442 0.63850963 1.298048e-38
-0.20260318 0.23777777 0.59999996 8.1881415e-39
-0.0072729872 0.21985 0.62267709 1.3994273e-38
0.01600951 0.22130807 0.63153583 1.3810605e-38
-0.042161178 0.26316047 0.60138464 5.890431e-39
-0.016029211 0.26077223 0.61576921 9.5735758e-39
0.014576893 0.25411707 0.63043946 1.1231654e-38
0.19670841 0.27472344 0.63619727 9.4813732e-39
0.22171481 0.26571637 0.62928784 9.4802928e-39
0.25807512 0.26490617 0.62954628 1.4550335e-38
0.28401944 0.27157861 0.63730389 1.8699503e-38
-0.018405441 0.2810283 0.6298095 3.958294e-39
0.19397508 0.28262135 0.63523543 8.651974e-39
0.20653968 0.28113809 0.62816674 8.5601372e-39
0.27161741 0.28134832 0.62864298 1.5381175e-38
0.28623328 0.28349867 0.6363126 1.7592787e-38
-0.011210087 0.17913824 0.65442753 1.2795727e-38
0.020183122 0.17921086 0.6563319 1.4176862e-38
0.058558241 0.18143301 0.66602933 1.6112971e-38
0.086436771 0.18936378 0.67583412 1.7496267e-38
0.034840636 0.21352525 0.64192152 1.5193179e-38
0.059671454 0.21950001 0.65507478 1.5654518e-38
0.08850234 0.21802887 0.6737119 1.5746352e-38
0.19774567 0.23770747 0.67780954 1.1323824e-38
0.22337331 0.23457351 0.66880149 1.2061035e-38
0.25806215 0.23304798 0.66631335 1.4825463e-38
0.28813556 0.23573674 0.67219359 1.8237424e-38
0.029101204 0.26635936 0.64573556 8.6519811e-39
0.057895161 0.25645322 0.66104972 1.0771033e-38
0.083684213 0.2476896 0.67605186 1.095578e-38
0.15795738 0.27743429 0.67723817 9.479927e-39
0.1834718 0.26304877 0.66126186 1.0401518e-38
0.21537744 0.24800991 0.65068394 1.141567e-38
0.26177356 0.24626209 0.64690232 1.5655951e-38
0.29934809 0.25828928 0.65656483 2.008315e-38
0.32573807 0.27041879 0.67181015 2.1190578e-38
0.033482596 0.28160277 0.66050005 4.324557e-39
0.04646733 0.28256851 0.67023081 4.509307e-39
0.1523757 0.29175588 0.67371243 8.6508866e-39
0.17266963 0.28588158 0.65440029 9.0200307e-39
0.30571491 0.28605005 0.64875168 1.8976445e-38
0.32952654 0.29026517 0.66850942 2.0360099e-38
0.029070647 0.15421212 0.69594842 1.3900638e-38
0.05995642 0.15035534 0.69818604 1.5374684e-38
0.097804695 0.15142772 0.70757282 1.777033e-38
0.12749186 0.15665242 0.71661198 1.7862524e-38
-0.0027236191 0.16151677 0.68220001 1.3626215e-38
0.014097139 0.16078345 0.68387091 1.3532573e-38
0.069020122 0.16295652 0.68246067 1.6389197e-38
0.10262877 0.17744893 0.69002336 1.8048361e-38
0.13399965 0.17941648 0.70842278 1.7771772e-38
0.18105406 0.18608297 0.71326518 1.2428024e-38
0.21730046 0.18886781 0.71206117 1.5283927e-38
0.25325668 0.19516173 0.71516305 1.6482828e-38
0.10810372 0.22019134 0.68780911 1.4273021e-38
0.14193083 0.22104679 0.70881861 9.757237e-39
0.17977525 0.22058758 0.69850171 1.1046886e-38
0.21919511 0.21556832 0.69314426 1.2981195e-38
0.26027879 0.21410276 0.69651729 1.5653785e-38
0.29817599 0.22314699 0.70029765 1.8973552e-38
0.32675996 0.23363784 0.71225315 2.0817827e-38
0.072737031 0.27380738 0.68361169 6.5314732e-39
0.099162698 0.25704569 0.69438815 7.4541441e-39
0.14468084 0.26178831 0.702645 7.7303723e-39
0.17081727 0.25061405 0.68684667 1.0125648e-38
0.31402534 0.24342708 0.6847676 2.0726708e-38
0.33652848 0.25761497 0.69699174 2.0635961e-38
0.064921819 0.28233519 0.68294299 5.1543009e-39
0.11478514 0.30482575 0.71270162 6.1641298e-39
0.13289253 0.29300719 0.69593537 7.6374564e-39
0.34035051 0.28189334 0.68200004 2.1096574e-38
0.1061381 0.32115334 0.71900004 6.532192e-39
0.11271249 0.11865309 0.75416708 1.5191366e-38
0.1415706 0.11784095 0.75454116 1.5652344e-38
0.17064175 0.11795753 0.7555517 1.675869e-38
0.033290952 0.14702366 0.72716677 1.3902803e-38
0.064486243 0.1362787 0.7344501 1.4823667e-38
0.10114176 0.13250101 0.73692441 1.574418e-38
0.14056794 0.13869125 0.73403925 1.5927853e-38
0.17970723 0.14066058 0.73817235 1.6389552e-38
0.21642321 0.14648968 0.74415642 1.8508968e-38
0.24799451 0.15554231 0.7532075 1.8416417e-38
0.15415809 0.17962822 0.72114468 1.0861065e-38
0.17729765 0.16701825 0.72155774 1.3625847e-38
0.22325924 0.170343 0.72666842 1.7218599e-38
0.26042014 0.17793897 0.73571581 1.7956163e-38
0.29556105 0.18984962 0.74511272 1.9430931e-38
0.32464477 0.19762023 0.75676 1.9985909e-38
0.1462886 0.21702835 0.72068846 5.7045964e-39
0.30597338 0.2073279 0.72900414 1.9801153e-38
0.33934465 0.22059272 0.74067765 2.0540163e-38
0.36862066 0.23254976 0.75268114 2.0633079e-38
0.11698188 0.27471089 0.72812778 3.4940663e-39
0.1284312 0.26102337 0.72297931 4.5071336e-39
0.35277626 0.25044122 0.72615319 2.0636321e-38
0.36700597 0.25170866 0.73974603 2.0635604e-38
0.10229007 0.30229738 0.73443598 5.2439741e-39
0.12096985 0.28150129 0.72033346 5.6109588e-39
0.091991022 0.32633832 0.74275541 6.7183812e-39
0.39418769 0.031287394 0.7968573 1.0862874e-38
0.3846674 0.061239049 0.79333395 9.575015e-39
0.10741623 0.11517532 0.76896155 1.4915498e-38
0.13994154 0.10881591 0.77705556 1.5284646e-38
0.18086319 0.1082721 0.77606726 1.6389909e-38
0.21049231 0.11322784 0.78077447 1.7494808e-38
0.38271669 0.098724611 0.79200429 6.0766257e-39
0.071626082 0.12795414 0.76158059 1.4823312e-38
0.08733014 0.12174016 0.76259387 1.4731472e-38
0.19515705 0.12138666 0.76072741 1.8232743e-38
0.22439924 0.12981637 0.7692982 1.8784829e-38
0.260407 0.14844762 0.77796263 1.7495175e-38
0.29143947 0.1565066 0.79293501 1.6851242e-38
0.39249074 0.12646924 0.79642689 5.9844315e-39
0.27335393 0.16277017 0.7638334 1.8140191e-38
0.30355445 0.17212299 0.77598006 1.8141989e-38
0.33672819 0.18590137 0.78253549 1.9894792e-38
0.36743504 0.19718269 0.7964195 2.0448325e-38
0.35049313 0.20603062 0.76736677 2.0722753e-38
0.37757736 0.21549784 0.7790876 2.0170663e-38
0.40026906 0.21418524 0.79750001 1.9895144e-38
0.079673812 0.31723383 0.76750004 7.1789992e-39
0.083623745 0.31580877 0.76355994 7.0868049e-39
0.078567073 0.33631247 0.77314299 7.6399759e-39
0.082325779 0.33049685 0.76485711 7.4552301e-39
0.4189657 -0.083794363 0.83793342 3.6871105e-39
0.39546236 -0.050282855 0.83485967 3.0399391e-39
0.40887895 -0.059335206 0.8312543 3.8689795e-39
0.38684633 -0.016286939 0.82568091 6.3535755e-39
0.40382859 -0.024928112 0.8171286 7.3659268e-39
0.35647115 0.029967103 0.83253306 9.9434303e-39
0.37753153 0.018720388 0.81419939 1.0218944e-38
0.40132892 0.0078365915 0.80378944 1.1139818e-38
0.35182539 0.060951784 0.82668144 9.2987798e-39
0.36820087 0.057958089 0.80760854 9.574652e-39
0.13719471 0.10217949 0.80227274 1.6674806e-38
0.34627494 0.10133997 0.82845271 9.7583118e-39
0.36627623 0.1014753 0.80701238 7.4566707e-39
0.26524591 0.13666792 0.82189566 1.4730388e-38
0.30253556 0.14279029 0.82327861 1.3719117e-38
0.33954981 0.13927165 0.82542688 1.224507e-38
0.37842017 0.13985348 0.81798828 9.8501529e-39
0.40372425 0.14746663 0.81230456 9.9452296e-39
0.31742245 0.16092114 0.80080003 1.6575741e-38
0.34481305 0.1689177 0.80909002 1.897319e-38
0.38037658 0.18005045 0.82134348 1.9895511e-38
0.40814769 0.1925474 0.82834458 1.9433812e-38
0.39121172 0.20440714 0.80371821 1.9341621e-38
0.40455884 0.20535272 0.81059539 1.9895155e-38
0.39103001 -0.083990984 0.86929053 3.5923954e-39
0.40991059 -0.086943112 0.85359174 3.5938373e-39
0.35715035 -0.042104281 0.8711251 3.6831477e-39
0.3798095 -0.059664484 0.85724121 3.1321361e-39
0.40524456 -0.073977575 0.84736061 3.2243345e-39
0.34860498 -0.016497675 0.86783153 9.9405521e-39
0.36956969 -0.024060093 0.84995693 4.9724417e-39
0.34435701 0.018727856 0.85879368 1.1414599e-38
0.36201829 0.0031850797 0.84642875 1.0771022e-38
0.33496004 0.060501046 0.85789865 1.1692619e-38
0.233724 0.11323322 0.86402947 1.4085747e-38
0.25762662 0.11464672 0.86868072 1.3167029e-38
0.30688578 0.10748466 0.86399949 1.2520934e-38
0.3273882 0.094740234 0.84985602 1.1968124e-38
0.23284654 0.12097061 0.84600002 1.7126008e-38
0.26295906 0.1252878 0.85093796 1.3350695e-38
0.29701856 0.12530518 0.84801614 1.2798241e-38
0.32171589 0.12147778 0.84100002 1.2059591e-38
0.39967522 0.17765126 0.84100002 2.1186599e-38
0.41868219 0.18345235 0.85534424 1.8880276e-38
0.38751668 -0.088740684 0.88234091 3.5931128e-39
0.40309802 -0.099033445 0.88554543 3.4083726e-39
0.35536319 -0.050224617 0.89827102 3.4998382e-39
0.36343589 -0.05893464 0.88702989 3.3161658e-39
0.33898109 -0.018286658 0.89892495 4.788775e-39
0.33040109 0.021129649 0.89881611 7.5510313e-39
0.31733155 0.074333012 0.89630377 1.0680275e-38
0.32485411 0.055875197 0.89306766 9.8541144e-39
0.232904 0.10548057 0.88023537 1.6215998e-38
0.26901686 0.10952184 0.88713247 1.3074124e-38
0.30114022 0.097112291 0.89173794 1.2430187e-38
0.43588614 0.18194422 0.88241673 1.8051587e-38
0.44995832 0.18261236 0.89968431 1.6760131e-38
0.35436475 -0.052628577 0.921 2.5800469e-39
0.097804695 0.15142772 0.70757282 1.777033e-38
