# .PCD v0.7 - Point Cloud Data file format
VERSION 0.7
FIELDS x y z rgb
SIZE 4 4 4 4
TYPE F F F F
COUNT 1 1 1 1
WIDTH 273
HEIGHT 1
VIEWPOINT 0 0 0 1 0 0 0
POINTS 273
DATA ascii
-0.16887382 -0.043948453 0.51900035 5.160468e-39
-0.16838668 -0.038719054 0.51900005 4.9760725e-39
-0.21105485 -0.095309883 0.54123014 7.9382521e-39
-0.19629595 -0.093548402 0.54897243 1.4390501e-38
-0.21469587 -0.061027989 0.5473094 7.2907051e-39
-0.18519917 -0.053936735 0.53787327 8.9495216e-39
-0.15861183 -0.043196991 0.52642113 5.3513781e-39
-0.2419816 -0.014057118 0.55787802 8.3923611e-39
-0.21776612 -0.018235086 0.54647332 5.9059658e-39
-0.18168068 -0.020185651 0.54001778 5.9084993e-39
-0.15462276 -0.013044673 0.53573602 5.5299946e-39
-0.24677946 0.019736994 0.55161226 9.2055192e-39
-0.21862957 0.017955329 0.54546285 7.5528488e-39
-0.18018197 0.019708622 0.54471797 7.4624636e-39
-0.1520717 0.015492632 0.54095888 9.6701351e-39
-0.21605013 0.055729207 0.5511167 8.8374513e-39
-0.18575212 0.055808429 0.55037671 1.1047624e-38
-0.1593262 0.04074524 0.54850006 7.6414655e-39
-0.2041779 0.08320085 0.55712193 9.2987854e-39
-0.19359036 0.084557503 0.5579024 1.1508962e-38
-0.30238304 0.13981605 0.54631698 1.2071515e-38
-0.32283622 0.18517359 0.53734088 8.6620704e-39
-0.29901198 0.18601751 0.54208428 9.5829505e-39
-0.27294764 0.19412117 0.55384648 9.7666215e-39
-0.32308748 0.20837 0.54364461 9.0319263e-39
-0.29560441 0.21185045 0.53922457 8.7542688e-39
-0.27313519 0.21208908 0.53915906 7.5560844e-39
-0.24800873 -0.044515815 0.57139999 1.2909892e-38
-0.23379266 -0.04385867 0.56658596 1.4016618e-38
-0.16696887 -0.056185365 0.56850845 9.8685856e-39
-0.1550891 -0.053013042 0.57211405 1.0602539e-38
-0.25601512 -0.019657299 0.57687038 1.0412343e-38
-0.23599207 -0.037462696 0.56796676 6.9222308e-39
-0.16840276 -0.02298603 0.57825905 1.3637081e-38
-0.14726292 -0.0096631395 0.58146155 1.1155357e-38
-0.25155848 0.031836931 0.56712872 9.20768e-39
-0.22492152 0.028289028 0.56426877 4.6976709e-39
-0.19532692 0.036516979 0.56231821 4.0537421e-39
-0.14682466 0.019296257 0.57690591 1.0239536e-38
-0.2515724 0.046977416 0.57114083 1.1973538e-38
-0.2223877 0.070467673 0.5645659 8.3771934e-39
-0.17644878 0.06862478 0.57868952 9.7601307e-39
-0.14529151 0.060597301 0.56426895 7.8449677e-39
-0.21224737 0.088390417 0.56432515 1.0404759e-38
-0.1776571 0.098734044 0.56857914 9.4849843e-39
-0.14943936 0.096150696 0.5711872 1.1704916e-38
-0.16862363 0.12577026 0.59104747 9.4835368e-39
-0.15565251 0.12459443 0.59657139 1.3166689e-38
-0.2556482 0.19495995 0.56441897 1.1609814e-38
-0.23572174 0.19871257 0.57669997 1.1794941e-38
-0.28142768 0.21315649 0.56609088 8.9379496e-39
-0.25368291 0.21743344 0.57267529 8.9383014e-39
-0.2268496 0.22171861 0.58486259 9.4907591e-39
-0.24465029 0.24216795 0.58350009 8.2925648e-39
-0.22961769 0.24197394 0.58663642 6.9085626e-39
-0.18298148 0.059444573 0.60098583 7.6396312e-39
-0.13949527 0.10740049 0.61844164 1.860334e-38
-0.16625015 0.14624162 0.60905993 9.8530438e-39
-0.14018695 0.14094405 0.61675358 1.5010233e-38
-0.11953259 0.15820116 0.63840002 1.7957968e-38
-0.16313487 0.16969354 0.62469006 1.012891e-38
-0.13800512 0.17802529 0.6292035 9.7583286e-39
-0.11856737 0.17431198 0.63797128 1.5285383e-38
-0.21580954 0.23574607 0.59999996 9.770234e-39
-0.13501593 0.20074166 0.63900006 7.731824e-39
0.19715688 0.27197728 0.63734496 8.4672255e-39
0.22005379 0.26361108 0.63328594 9.6654057e-39
0.25247476 0.26694378 0.63464373 1.4181911e-38
0.19583848 0.28306171 0.63706267 7.6374648e-39
0.21726045 0.28195882 0.63104445 7.9151279e-39
0.2576887 0.28247344 0.63436085 1.2430912e-38
-0.12897532 0.11642641 0.64251858 1.804908e-38
-0.12376245 0.13445726 0.64515942 1.7864692e-38
-0.11322906 0.14881928 0.65675408 1.7127487e-38
-0.16030477 0.19078097 0.64000005 8.8342031e-39
-0.14187475 0.19734442 0.64055115 8.3768375e-39
-0.10357904 0.18166842 0.65713173 1.6483202e-38
-0.13502704 0.21909039 0.64909297 7.3634044e-39
-0.09941297 0.21947816 0.6590656 1.2890099e-38
-0.07765542 0.22898218 0.67693937 1.5100988e-38
0.19162595 0.23557475 0.67195094 1.1139081e-38
0.22071014 0.23136541 0.66361547 1.2336906e-38
0.2584382 0.23096478 0.66682798 1.5931455e-38
0.28622356 0.23492336 0.67322123 1.8974279e-38
-0.12933742 0.25234628 0.66604501 6.9027864e-39
-0.10008822 0.25624993 0.66963422 8.3761144e-39
-0.077814855 0.24927783 0.67790222 1.1968862e-38
0.15509968 0.27097803 0.67330003 9.8501459e-39
0.18024442 0.25941408 0.65679026 1.0033462e-38
0.21695308 0.2444782 0.6449278 1.0585201e-38
0.26448345 0.25267026 0.64626449 1.6946697e-38
0.29706019 0.26096445 0.66002202 1.9806205e-38
0.32391635 0.27198684 0.67592871 2.0359011e-38
0.15105093 0.29062647 0.67135155 8.4668611e-39
0.174051 0.28585148 0.6513201 8.0988003e-39
0.27628136 0.28413206 0.64091903 1.4919109e-38
0.30214357 0.2874862 0.6548093 1.7131085e-38
0.32967454 0.29244304 0.67330879 1.7315116e-38
-0.085686781 0.18600091 0.68979603 1.6021497e-38
-0.077090599 0.19567458 0.70375937 1.5099902e-38
0.19147895 0.19812103 0.71869987 1.2520579e-38
0.22222102 0.19595355 0.71571904 1.3441095e-38
0.25327259 0.19621608 0.71560168 1.5376484e-38
-0.080879688 0.20512298 0.68226087 1.6667593e-38
-0.067676663 0.221568 0.69793618 1.537649e-38
0.15309498 0.22964959 0.71341747 1.1047246e-38
0.17972028 0.22025682 0.70199364 1.1691536e-38
0.21864501 0.21217713 0.69627106 1.2612772e-38
0.26020384 0.21155283 0.69709641 1.5745624e-38
0.29813105 0.22218056 0.7010532 1.9157947e-38
0.32727364 0.23287798 0.71324736 2.0449412e-38
-0.12601671 0.27360329 0.68117142 7.5470642e-39
-0.092421398 0.27519795 0.68237144 7.3630443e-39
-0.060379669 0.26042259 0.6984641 1.1507881e-38
0.11983334 0.27869812 0.71900004 9.2962532e-39
0.14288981 0.2606931 0.70028239 1.0401881e-38
0.16570093 0.2451683 0.68531507 1.1139078e-38
0.31360525 0.24722093 0.6857906 2.0634884e-38
0.33788514 0.25965014 0.70121747 2.0082429e-38
-0.12133376 0.28224725 0.68442863 8.6516055e-39
-0.095582992 0.29659414 0.69678551 6.4428873e-39
-0.061418235 0.29691553 0.70821577 7.2701256e-39
0.1150337 0.30296785 0.71260166 8.2824671e-39
0.13096558 0.29361701 0.69457227 8.7434452e-39
0.33985409 0.28420785 0.68438774 1.943562e-38
-0.081942856 0.32026002 0.71700001 5.8882758e-39
-0.077898577 0.32048333 0.71750003 5.5216569e-39
0.10584286 0.32026002 0.71700001 7.2697543e-39
0.15458262 0.15789677 0.7575556 1.2980483e-38
0.18152231 0.15425743 0.75513023 1.4269061e-38
0.21477643 0.156721 0.75498456 1.5283211e-38
0.24544762 0.15954095 0.75800002 1.5928579e-38
0.031087358 0.1957045 0.75479764 1.2151081e-38
0.061309248 0.1918672 0.75251538 1.2612422e-38
0.09941522 0.19123775 0.75400895 1.2519862e-38
0.14364022 0.18206978 0.74783826 1.1414955e-38
0.17926872 0.17961632 0.73485672 1.2980479e-38
0.2196165 0.17670655 0.73532218 1.4361974e-38
0.25929204 0.18003178 0.73878038 1.6850174e-38
0.29710287 0.19061081 0.74473745 1.8233469e-38
0.32613429 0.19625086 0.7532413 1.8879204e-38
-0.055790897 0.22460714 0.73755568 1.2520585e-38
-0.017042721 0.22764283 0.74960214 1.0676311e-38
0.020181242 0.22023872 0.74393636 1.0861422e-38
0.059793059 0.21979626 0.74110311 1.113873e-38
0.099672824 0.21948051 0.74480975 1.0033105e-38
0.13721143 0.2178247 0.73615408 9.5728443e-39
0.16560946 0.20301597 0.72188896 1.1967767e-38
0.30665886 0.2064883 0.72809702 1.8972474e-38
0.34067389 0.21892308 0.73748428 1.9618211e-38
0.36723667 0.22548722 0.74746627 1.8697333e-38
-0.04278522 0.25146905 0.72980857 1.1322761e-38
-0.020227732 0.26007351 0.73336917 9.29554e-39
0.019803533 0.25989756 0.73249447 9.0196734e-39
0.060100663 0.25953263 0.73728347 7.821849e-39
0.10219271 0.26084247 0.74465454 6.348521e-39
0.1268999 0.25412968 0.73013914 8.5597742e-39
0.35384837 0.24793252 0.7239998 1.8790972e-38
0.36277339 0.24775992 0.72874081 1.7592789e-38
-0.045167688 0.30811715 0.72145003 6.6247548e-39
-0.020313097 0.29899871 0.72548527 7.1772069e-39
0.019185949 0.29864791 0.73538411 6.0715796e-39
0.057653319 0.29533464 0.74783719 4.8744742e-39
0.10095944 0.2989507 0.73874342 6.7173022e-39
-0.055529986 0.32215044 0.72423619 4.8759231e-39
-0.018207071 0.32504335 0.73441833 4.2305537e-39
0.018458907 0.32586613 0.74817437 1.9314251e-39
0.092567772 0.32651421 0.74291664 5.8879072e-39
0.38786143 -0.014620934 0.79488164 7.4573993e-39
0.35762233 0.03257259 0.79743266 9.6650512e-39
0.37707302 0.021133557 0.78916526 1.0402255e-38
0.35364541 0.062142413 0.79309243 8.8370884e-39
0.37351555 0.059835091 0.78031796 9.2073142e-39
0.14912695 0.1177573 0.79530531 1.4546725e-38
0.17522939 0.11695802 0.79578549 1.5652706e-38
0.35387021 0.096331179 0.7932815 6.6272743e-39
0.37405095 0.1002287 0.78156525 5.1561127e-39
0.07203795 0.15497284 0.79246849 1.3716243e-38
0.10282117 0.1465095 0.78496671 1.3164152e-38
0.13986991 0.14017165 0.77629822 1.3532935e-38
0.17891192 0.13484477 0.77532321 1.5191729e-38
0.21913724 0.14161879 0.77685243 1.6020411e-38
0.25709447 0.15016596 0.78087199 1.5928575e-38
0.29436651 0.15627941 0.79349524 1.5652707e-38
0.35947999 0.12160001 0.79800004 6.9946163e-39
0.37931162 0.12884279 0.79094833 6.2588562e-39
-0.0046297288 0.19675116 0.77864283 1.2335836e-38
0.021638257 0.18487889 0.77537471 1.2887568e-38
0.059566706 0.17240131 0.77400935 1.3624412e-38
0.099769235 0.17147563 0.76641184 1.279573e-38
0.12630422 0.17217998 0.76162761 1.1230206e-38
0.26973608 0.16445611 0.76514292 1.6850537e-38
0.30252245 0.17166536 0.77448446 1.7127843e-38
0.3386232 0.18416025 0.77994299 1.9249062e-38
0.37495866 0.19386674 0.79076535 1.8419303e-38
0.40026906 0.19899477 0.79750001 1.8604415e-38
-0.047920436 0.22773235 0.77040547 9.8487152e-39
-0.0204421 0.21221404 0.7684595 1.1690104e-38
0.0041765082 0.20160292 0.76238096 1.196525e-38
0.35297826 0.20395719 0.76185971 1.9339466e-38
0.37776804 0.20727095 0.7737509 1.8788447e-38
0.065670766 0.31166252 0.76349992 2.6682685e-39
0.088975109 0.30426568 0.7671122 3.310754e-39
0.030898182 0.32897207 0.76073533 1.1960251e-39
0.075482763 0.33245176 0.78562224 3.2185626e-39
0.082516111 0.33026913 0.76557523 4.5067748e-39
0.39258912 -0.08614713 0.82835168 3.2246947e-39
0.40460071 -0.086504661 0.81675005 3.6856742e-39
0.3569943 -0.047733471 0.83711797 2.487124e-39
0.38148805 -0.058498621 0.82199925 3.775702e-39
0.40290919 -0.064334258 0.81035227 5.2472266e-39
0.35275763 -0.016465075 0.82731444 4.879886e-39
0.37329921 -0.023589559 0.81044912 6.9975016e-39
0.40000001 -0.038857143 0.80000001 8.9300113e-39
0.34570625 0.020926798 0.81740451 9.4817347e-39
0.36417884 0.0070984559 0.80262184 1.1047261e-38
0.33681044 0.059829801 0.81753552 8.9296399e-39
0.11186489 0.11737893 0.82391077 1.380952e-38
0.14119633 0.11041173 0.81304276 1.4362693e-38
0.18002726 0.10675063 0.8132363 1.5192092e-38
0.20637648 0.11539675 0.81478435 1.5284279e-38
0.31569397 0.11019173 0.83661216 1.1138721e-38
0.33584353 0.10055535 0.81914407 8.5604945e-39
0.064065553 0.14908467 0.81337416 1.3809162e-38
0.097734325 0.13017334 0.81210619 1.3809878e-38
0.12578976 0.12188478 0.80050009 1.408611e-38
0.19885714 0.12114286 0.80000001 1.6758329e-38
0.22521067 0.12687814 0.80861002 1.5007694e-38
0.26256379 0.1362633 0.81668228 1.3717678e-38
0.30217758 0.13895331 0.82243925 1.2613131e-38
0.33961624 0.13900851 0.81904095 1.2060321e-38
0.37534419 0.1469539 0.82335269 1.3904597e-38
0.40064195 0.15118954 0.8355 1.62138e-38
0.034139592 0.16720934 0.80314285 1.3718406e-38
0.04441921 0.16180603 0.80732268 1.3993194e-38
0.34660882 0.16750441 0.80718011 1.8327824e-38
0.38012809 0.17658512 0.81483871 1.8696969e-38
0.40626258 0.18585525 0.82059383 1.8327826e-38
0.071823776 0.34054804 0.80417395 2.9455756e-39
0.35703197 -0.083015665 0.87455571 3.4987564e-39
0.37608722 -0.085484549 0.85093343 3.3161686e-39
0.34853861 -0.056547012 0.85769349 2.9470232e-39
0.36584467 -0.073825262 0.8484211 3.0395803e-39
0.31792808 -0.0093644345 0.87082869 1.040117e-38
0.33600602 -0.020331247 0.85709375 8.0995219e-39
0.31590581 0.017626179 0.86100012 1.0679555e-38
0.32852516 0.018593283 0.85255414 1.0953262e-38
0.31441003 0.064362518 0.86403483 1.1416754e-38
0.323452 0.055201847 0.84870887 1.1139447e-38
0.14038636 0.1029527 0.84233344 1.4830181e-38
0.23268494 0.11721869 0.8733235 1.2705334e-38
0.26457664 0.11675723 0.86955756 1.2798245e-38
0.30321589 0.10151912 0.8571952 1.1692255e-38
0.32076094 0.084840767 0.84200001 1.1323474e-38
0.23536371 0.12345196 0.85921627 1.3073394e-38
0.26089147 0.12569252 0.85381073 1.2797885e-38
0.29084373 0.12385929 0.84604716 1.2061042e-38
0.41800231 0.17586824 0.85540491 1.7682454e-38
0.35786667 -0.086323813 0.88000005 4.1416091e-39
0.33739963 -0.052753739 0.88645083 3.4072824e-39
0.32868847 -0.036439154 0.88066667 3.4987676e-39
0.3162615 0.022571428 0.89613539 6.8138278e-39
0.32051367 0.022036985 0.88566673 9.0243593e-39
0.30947763 0.061771162 0.89103878 1.0221819e-38
0.2290142 0.11193622 0.88339716 1.2797538e-38
0.26133433 0.11074575 0.88819444 1.2613497e-38
0.29283813 0.095265657 0.89030057 1.2061762e-38
0.43179464 0.17061332 0.88397133 1.7036366e-38
0.4434973 0.17673083 0.88700008 1.6206602e-38
0.23559335 0.21826941 0.70895302 1.4549605e-38
0.10282938 0.097262345 0.70898986 1.1234179e-38
-0.0204909 0.16977814 0.64695299 8.7546444e-39
-0.13082139 0.094872199 0.60997409 9.8559417e-39
