# .PCD v0.7 - Point Cloud Data file format
VERSION 0.7
FIELDS x y z rgb
SIZE 4 4 4 4
TYPE F F F F
COUNT 1 1 1 1
WIDTH 238
HEIGHT 1
VIEWPOINT 0 0 0 1 0 0 0
POINTS 238
DATA ascii
-0.050032172 0.077037886 0.47644237 7.7311038e-39
-0.050338682 0.078379825 0.48097292 9.9423527e-39
-0.036953848 0.077829652 0.48388574 1.6392448e-38
-0.054535057 0.10115074 0.49850523 8.8367268e-39
-0.035516813 0.099577218 0.5036 1.6208056e-38
-0.055533916 0.12671682 0.51535404 8.1006009e-39
-0.03801012 0.12246307 0.51779175 1.3352509e-38
-0.073648982 0.11864491 0.52000004 8.6552139e-39
-0.028778417 0.11406839 0.52424687 1.8327831e-38
-0.29576251 0.15703195 0.54151529 1.087225e-38
-0.085029155 0.14818293 0.54801708 8.3768305e-39
-0.059729058 0.14530681 0.52971995 8.1002422e-39
-0.029516105 0.14145766 0.53837526 1.5838553e-38
-0.32283735 0.18639918 0.53752148 8.3854807e-39
-0.29849443 0.18617132 0.54260296 8.9386573e-39
-0.27284274 0.19417548 0.55319232 9.3981907e-39
-0.085039988 0.16796002 0.55520493 8.100245e-39
-0.05854439 0.17836347 0.54794538 7.8236567e-39
-0.03204919 0.1723153 0.55113316 1.3535464e-38
-0.32657436 0.20486219 0.54336011 8.3876415e-39
-0.29479799 0.21102902 0.53865153 9.1230472e-39
-0.2740041 0.20550366 0.54077893 8.1092596e-39
-0.054292858 0.20099099 0.55890006 6.9953366e-39
-0.091389045 0.15149744 0.56049997 1.1598985e-38
-0.021866668 0.1488 0.56 1.8326392e-38
-0.25625297 0.19505274 0.56433183 1.0687851e-38
-0.23774719 0.19863504 0.57605886 1.0502746e-38
-0.087774843 0.18436053 0.56824422 8.6537845e-39
-0.070586495 0.19605446 0.56198728 7.6403473e-39
-0.022546353 0.18554951 0.57008308 1.5838912e-38
-0.28155211 0.21100342 0.56503439 8.8475407e-39
-0.25518513 0.21977232 0.57271141 8.0159835e-39
-0.2255393 0.22231485 0.58628172 8.3836885e-39
-0.083266005 0.20872319 0.57726079 7.8258217e-39
-0.059157997 0.21873976 0.57530004 7.1797292e-39
-0.027312886 0.21638814 0.58450347 1.2522393e-38
-0.24374777 0.24237908 0.58359253 9.1237576e-39
-0.22954726 0.24229664 0.5884583 7.0014757e-39
-0.055459 0.24294552 0.59644455 6.6272743e-39
-0.0354614 0.24194916 0.59805268 8.744897e-39
-0.007210684 0.19635119 0.60294116 1.7681378e-38
-0.21593073 0.23625024 0.60100001 8.9408279e-39
-0.010601006 0.22488263 0.61266887 1.5561603e-38
-0.052514091 0.25900638 0.61310875 6.2588562e-39
-0.023455307 0.25685808 0.62354988 1.0495169e-38
0.23369145 0.27933431 0.63900006 1.0220019e-38
-0.042830132 0.2815389 0.63672733 5.4308962e-39
-0.037380412 0.28159729 0.63742864 5.4294556e-39
0.23504601 0.28447774 0.639 1.012746e-38
0.24099432 0.28602859 0.63900006 1.1048336e-38
-0.002715905 0.19888525 0.67889994 1.2422254e-38
0.008605605 0.19926155 0.67896158 1.3163789e-38
-0.0018954289 0.21401015 0.66956681 1.4543837e-38
0.018679908 0.22093681 0.66830975 1.3901359e-38
0.045995157 0.22804107 0.67589056 1.5653797e-38
0.23668 0.23991334 0.67900002 1.3535446e-38
0.25254449 0.2394429 0.67876691 1.5009854e-38
-0.0072997371 0.26666301 0.6453948 1.1599716e-38
0.019281071 0.25848582 0.6596241 1.2705341e-38
0.046524081 0.25452843 0.67452401 1.3627297e-38
0.18819135 0.26784512 0.66760427 1.0494075e-38
0.22026935 0.26025712 0.65640432 1.0769948e-38
0.25884265 0.25924176 0.65788078 1.6209488e-38
0.29325762 0.26638192 0.66868061 2.0543767e-38
-0.016741067 0.2873331 0.65310419 6.4418069e-39
0.016382491 0.28678733 0.66914451 7.2701256e-39
0.15869199 0.30108806 0.67899996 8.1899127e-39
0.17904559 0.28883803 0.66443938 8.8356408e-39
0.21562335 0.28440309 0.64357865 8.8360066e-39
0.26153436 0.28475904 0.64513439 1.5011669e-38
0.30046368 0.28972584 0.66488194 1.8976081e-38
0.32123813 0.30250022 0.67839998 1.8052677e-38
-0.0073117437 0.18922597 0.69449699 1.4361974e-38
0.020983754 0.18554933 0.69609284 1.3991751e-38
0.059040919 0.18405095 0.70402217 1.6019694e-38
0.091438949 0.1898222 0.71288788 1.7956164e-38
-0.0099934535 0.2018268 0.68695831 1.8141626e-38
0.033354912 0.2034298 0.68153965 1.4821874e-38
0.06296853 0.21734919 0.68867856 1.6206608e-38
0.097790867 0.21951711 0.70706242 1.6667588e-38
0.1871625 0.2321741 0.71308374 1.1598978e-38
0.2203002 0.22870705 0.70390791 1.2797162e-38
0.25858718 0.22904661 0.70056915 1.5654145e-38
0.29216531 0.23311681 0.70868719 1.8880637e-38
0.065224096 0.2602874 0.6901437 1.1784823e-38
0.093184143 0.25498128 0.70784491 1.0402245e-38
0.1523674 0.2683202 0.70919061 9.5717625e-39
0.17595948 0.25573474 0.69734901 1.0862131e-38
0.21307857 0.24246122 0.68587333 1.1876285e-38
0.27419999 0.2416607 0.68306899 1.7498778e-38
0.30463174 0.25179142 0.69350022 2.0450127e-38
0.32886761 0.26570436 0.70526069 2.0727794e-38
0.034145799 0.29092076 0.68371433 5.15251e-39
0.057811856 0.2863808 0.69832617 6.1641354e-39
0.10797275 0.30528855 0.71662498 6.3470819e-39
0.14147684 0.29700932 0.70041305 8.3743012e-39
0.16263512 0.28383696 0.68251169 9.5728401e-39
0.3184486 0.28268152 0.68100005 2.165012e-38
0.33989459 0.29666719 0.69846141 1.9620726e-38
0.11898191 0.32070667 0.71800005 6.9917282e-39
0.036971431 0.15857416 0.74857152 1.4086106e-38
0.06255956 0.155972 0.74609745 1.5282847e-38
0.097872451 0.15534407 0.75149363 1.7217872e-38
0.13133799 0.15827599 0.7574749 1.66647e-38
0.027861957 0.16780175 0.73101145 1.3716607e-38
0.060815018 0.16429625 0.72761375 1.5559075e-38
0.103534 0.17468101 0.73087776 1.8323865e-38
0.13990039 0.17984931 0.74621516 1.6020415e-38
0.17989676 0.18128251 0.74604344 1.399355e-38
0.21816768 0.18521699 0.74549353 1.6389194e-38
0.25668699 0.19251893 0.74933708 1.7495182e-38
0.28333181 0.1984726 0.75507152 1.9246177e-38
0.11766072 0.21734469 0.72075504 1.6114775e-38
0.14175969 0.22004452 0.73359489 1.1230925e-38
0.17719935 0.21505691 0.72758579 1.1875567e-38
0.22016656 0.20797002 0.72628683 1.4454525e-38
0.26073271 0.20930114 0.73073244 1.6666859e-38
0.29949942 0.21823537 0.73896331 1.9524923e-38
0.33172038 0.23131502 0.7476269 2.0448683e-38
0.10971504 0.26436442 0.72774452 6.2563226e-39
0.13744122 0.2588917 0.73236525 6.8091391e-39
0.16197714 0.24250922 0.72066677 1.0308603e-38
0.31820175 0.24101888 0.72100008 2.1002216e-38
0.3458496 0.25616992 0.7367239 2.0727075e-38
0.36889416 0.26520821 0.75007218 1.8975359e-38
0.10848397 0.3023383 0.74016678 5.0592242e-39
0.1260393 0.28985137 0.7271412 7.0846427e-39
0.35703772 0.28587031 0.72422594 1.9713287e-38
0.36531398 0.28601125 0.7326988 1.8976436e-38
0.099640973 0.32616186 0.74314582 5.8882646e-39
0.39246684 0.11366427 0.79699993 6.8160026e-39
0.070081487 0.14691134 0.77701867 1.4915502e-38
0.10184 0.14046623 0.7773425 1.5375398e-38
0.1406534 0.14114153 0.77615076 1.5836018e-38
0.17915846 0.14288624 0.77814031 1.6757971e-38
0.21615867 0.1497812 0.78312957 1.8232021e-38
0.24686562 0.15674366 0.7939232 1.7402266e-38
0.39386919 0.12675141 0.7973243 4.9731662e-39
0.15734272 0.16120332 0.76016676 1.5099175e-38
0.17898905 0.16112912 0.76051956 1.5559434e-38
0.22475158 0.16633247 0.76556724 1.7955438e-38
0.26039824 0.17464285 0.77600169 1.7862887e-38
0.29694071 0.18788528 0.7822327 1.8601529e-38
0.32770091 0.19631951 0.7948724 1.9433091e-38
0.31067705 0.205468 0.76798368 1.9616042e-38
0.34121737 0.21651435 0.77592635 2.0262493e-38
0.37660608 0.22945176 0.78551787 1.9710401e-38
0.40026906 0.23241383 0.79750001 1.888351e-38
0.35884127 0.24196288 0.76066679 2.0819625e-38
0.37665871 0.24770738 0.76736039 1.952709e-38
0.079689525 0.31950289 0.78200006 5.9811819e-39
0.091028899 0.31109428 0.765625 4.4156568e-39
0.077601016 0.34456539 0.78948933 7.1793607e-39
0.08449135 0.33158267 0.77253741 6.3499588e-39
0.39233345 -0.0068705268 0.83090383 6.5394087e-39
0.40881383 -0.018004054 0.83126515 9.2087478e-39
0.3587724 0.039153337 0.83900005 9.4806627e-39
0.38288271 0.021644795 0.82534462 1.0955066e-38
0.40428597 0.018481083 0.81683433 9.0207664e-39
0.35441285 0.06491185 0.83251172 1.0035263e-38
0.37885571 0.059727907 0.8130402 1.0587724e-38
0.40150949 0.054248679 0.80493337 1.2521678e-38
0.14533442 0.11688714 0.8193748 1.4730755e-38
0.17803675 0.11592475 0.82336247 1.5376487e-38
0.20291792 0.11833962 0.82840008 1.5377194e-38
0.35258123 0.099485882 0.8286553 8.1938742e-39
0.37687051 0.09868329 0.80553955 7.7347065e-39
0.4005501 0.094602965 0.80110019 1.1327452e-38
0.076887213 0.13801648 0.80385715 1.4269787e-38
0.1013638 0.12849675 0.80466372 1.4638915e-38
0.13870758 0.12215916 0.80619657 1.5191726e-38
0.1843444 0.12328213 0.80797553 1.6757969e-38
0.2159977 0.13317372 0.81063765 1.7402612e-38
0.25848535 0.1522633 0.81987566 1.5836372e-38
0.28903645 0.15822443 0.83154052 1.4454879e-38
0.35421941 0.13217707 0.83296746 7.7314541e-39
0.3779262 0.1400511 0.81465083 6.3514077e-39
0.40376177 0.15068801 0.81101614 6.9067479e-39
0.27100393 0.16284811 0.80772579 1.6942716e-38
0.30352861 0.16988763 0.81636053 1.6206237e-38
0.33884102 0.18094431 0.82365221 1.814343e-38
0.37570465 0.18755637 0.82979137 1.832962e-38
0.40403813 0.16161796 0.81716681 1.4933859e-38
0.35352343 0.20547806 0.80660343 2.044832e-38
0.38227788 0.21094993 0.81438679 1.9249421e-38
0.40764838 0.21511407 0.82400608 1.8788802e-38
0.072387785 0.34838039 0.80610013 6.2599239e-39
0.069495082 0.36113986 0.81083339 5.4319653e-39
0.38792306 -0.048664618 0.86696768 3.2239716e-39
0.41230729 -0.057868503 0.85520548 3.8686207e-39
0.35676837 -0.0060609523 0.87625641 5.430543e-39
0.37839663 -0.021233954 0.85921907 3.8682592e-39
0.40779883 -0.034203462 0.84387773 6.7219923e-39
0.35031191 0.025084777 0.86384565 1.0494803e-38
0.36562434 0.01319799 0.84936035 7.0896958e-39
0.34065548 0.059175152 0.85889089 1.049552e-38
0.31676221 0.11119861 0.87247431 1.2060679e-38
0.33332241 0.10000701 0.85661834 1.086286e-38
0.23692529 0.14006132 0.86552495 1.5651259e-38
0.26240829 0.14239405 0.86248302 1.3718397e-38
0.30295485 0.14197315 0.85902494 1.261349e-38
0.33606526 0.141113 0.84612226 1.0955049e-38
0.36693338 0.15764549 0.8423751 1.0400437e-38
0.31877905 0.16099143 0.84100002 1.3441451e-38
0.3501403 0.1663949 0.84209967 1.4825103e-38
0.37963352 0.17764874 0.84811628 1.749842e-38
0.40942925 0.19434449 0.860906 1.7959759e-38
0.39967522 0.20103905 0.84100002 1.8882787e-38
0.42192423 0.2036809 0.8542363 1.759062e-38
0.35740128 -0.041715238 0.89657146 3.0399405e-39
0.36903939 -0.048577875 0.88847899 3.1324906e-39
0.34909472 -0.018375512 0.89367992 6.4439691e-39
0.36290064 -0.033062562 0.88313031 3.2232513e-39
0.33578715 0.017174359 0.88988739 1.0769951e-38
0.31863961 0.074850515 0.90903348 1.0406929e-38
0.32638487 0.059481423 0.8959462 1.1233806e-38
0.23154727 0.11964591 0.90380001 1.7057629e-38
0.27798569 0.11938572 0.91500008 1.24277e-38
0.30753878 0.10373391 0.8994655 1.2061402e-38
0.32142904 0.085482977 0.88480645 1.233691e-38
0.23216015 0.12701614 0.89470977 1.3626572e-38
0.26148924 0.1285421 0.89535809 1.3350699e-38
0.29276121 0.12552436 0.89037681 1.2797519e-38
0.42511904 0.19339238 0.88492638 1.7406222e-38
0.45058957 0.19613191 0.90518463 1.5839259e-38
0.43714571 0.20053238 0.88100004 1.6761229e-38
0.44396353 0.20133896 0.88455564 1.6667951e-38
0.34537858 -0.023363965 0.92463994 4.051563e-39
0.32663727 0.028093373 0.92634743 5.2501062e-39
0.31977856 0.051496428 0.92500007 6.2545345e-39
0.32350448 0.046884116 0.92379409 5.0657164e-39
0.30748394 0.097775199 0.92245007 1.1324561e-38
0.45134628 0.194143 0.92066687 1.5654864e-38
0.28882986 0.21562672 0.76475108 1.436774e-38
0.06815882 0.21301031 0.8152405 1.3629815e-38
-0.091603749 0.24923199 0.7302286 1.2617467e-38
0.35703772 0.28587031 0.72422594 1.9713287e-38
-0.019781157 0.19796379 0.6002261 1.2246885e-38
