# .PCD v0.7 - Point Cloud Data file format
VERSION 0.7
FIELDS x y z rgb
SIZE 4 4 4 4
TYPE F F F F
COUNT 1 1 1 1
WIDTH 212
HEIGHT 1
VIEWPOINT 0 0 0 1 0 0 0
POINTS 212
DATA ascii
-0.04625855 0.12792312 0.47379848 7.0864518e-39
-0.032528058 0.12755945 0.47386637 9.1140326e-39
-0.053734969 0.14589272 0.4925794 7.0868119e-39
-0.021765376 0.14463937 0.49483973 1.2614227e-38
-0.051178034 0.17246723 0.50984776 7.0871735e-39
-0.025476685 0.17222296 0.51050383 1.0218941e-38
-0.0029678673 0.15387882 0.52376932 1.8234915e-38
0.00050081633 0.15518354 0.52585721 1.8695171e-38
-0.05827716 0.18945667 0.52728039 7.2726451e-39
-0.014809695 0.1872171 0.52980685 1.2614587e-38
0.00074391539 0.18250373 0.53977782 1.6761585e-38
-0.049349651 0.21031095 0.54029894 6.8116684e-39
-0.02326482 0.21272114 0.54482472 8.8374485e-39
-0.013186026 0.22748484 0.56794828 1.0587725e-38
0.004125013 0.21573004 0.56811041 1.5008791e-38
-0.014535601 0.24370112 0.58537 9.2058723e-39
0.0019009527 0.24155621 0.59866667 1.3165963e-38
0.024683496 0.22290401 0.6287722 1.5653434e-38
0.043088954 0.22958192 0.637196 1.5930744e-38
-0.0044929804 0.2665818 0.61861217 7.2712074e-39
0.018085415 0.25592351 0.62525982 1.1784467e-38
0.042694237 0.24468832 0.63770586 1.4363423e-38
0.231665 0.27164742 0.63727021 9.2962659e-39
0.24668245 0.27312613 0.63726234 1.2338001e-38
-0.012057143 0.28032857 0.63300002 3.682426e-39
0.010066477 0.28046724 0.63660002 2.0239907e-39
0.22671226 0.28302985 0.63671565 8.8367254e-39
0.25161061 0.28283849 0.63660192 1.2430914e-38
0.025024932 0.18224819 0.65823328 1.4637478e-38
0.057754148 0.18544351 0.66662073 1.6757617e-38
0.085050575 0.19375221 0.67606026 1.8601532e-38
0.032798365 0.20525582 0.64166349 1.528393e-38
0.060952418 0.21849075 0.65327924 1.7128207e-38
0.087647863 0.21948321 0.67264426 1.7773574e-38
0.23204412 0.2377266 0.67656356 1.2890074e-38
0.25534365 0.23671053 0.67466116 1.5010212e-38
0.28000668 0.23991334 0.67900002 1.7958685e-38
0.032174185 0.27130258 0.64417303 8.100245e-39
0.059917729 0.25735831 0.65776628 1.2245441e-38
0.084562905 0.25179622 0.67524266 1.2706052e-38
0.18789423 0.26701441 0.66630965 1.0309325e-38
0.218081 0.25692642 0.65511429 1.067811e-38
0.26078466 0.25659886 0.6529066 1.6116933e-38
0.29504251 0.26324463 0.66499889 2.0267542e-38
0.32147756 0.27634117 0.67700005 2.1283491e-38
0.019273015 0.28116426 0.64288884 2.2991342e-39
0.065217778 0.28067017 0.67800009 7.2708431e-39
0.15848309 0.29841179 0.67900008 8.0055228e-39
0.17854939 0.28847778 0.66303104 8.5590553e-39
0.20784269 0.28396276 0.6421572 8.2835517e-39
0.27190715 0.28443807 0.64325285 1.6025821e-38
0.30112594 0.28835505 0.65941966 1.8699133e-38
0.32269076 0.29207954 0.67635715 2.0359013e-38
0.036356635 0.15760033 0.70505422 1.3992833e-38
0.060819633 0.15531945 0.7067498 1.5190291e-38
0.092232376 0.15582031 0.71253055 1.8046556e-38
0.028568139 0.16358483 0.68963701 1.3992111e-38
0.063266881 0.16651019 0.68771106 1.6387395e-38
0.10047303 0.17879894 0.6974569 1.906179e-38
0.12870659 0.18771762 0.71257263 2.0075943e-38
0.10744907 0.21908021 0.69056678 1.7312597e-38
0.13126363 0.2175175 0.71013004 1.6022578e-38
0.18499406 0.22779003 0.71156335 1.1414586e-38
0.21907599 0.22402209 0.70256615 1.2797162e-38
0.2595343 0.22413568 0.70057786 1.5561948e-38
0.29464433 0.2311036 0.70423895 1.8880995e-38
0.32244954 0.23839085 0.71640009 2.090966e-38
0.074253544 0.27528661 0.68177414 7.1768412e-39
0.10253309 0.25427443 0.69564039 9.8494312e-39
0.14919335 0.26420128 0.70910156 8.4664968e-39
0.17520565 0.25488997 0.69528347 1.0585186e-38
0.2061559 0.24217318 0.68321162 1.1598613e-38
0.30814484 0.24876466 0.68943042 2.0542321e-38
0.3307513 0.26291126 0.70044166 2.0727792e-38
0.073826671 0.28027999 0.68600005 7.1789852e-39
0.11845648 0.31547204 0.7173 6.2559625e-39
0.14054216 0.29645988 0.70011497 7.6370991e-39
0.1623549 0.2838605 0.68205565 9.2037017e-39
0.33979088 0.29577011 0.69335467 1.9620727e-38
0.11745143 0.32026002 0.71700001 6.6229541e-39
0.038630478 0.15660572 0.72866672 1.3902798e-38
0.064406246 0.14591993 0.73097914 1.4822948e-38
0.10143365 0.14549474 0.73896426 1.7401904e-38
0.13831186 0.14989349 0.74811172 1.7769964e-38
0.17778954 0.15451019 0.75478464 1.6388473e-38
0.20883778 0.15830728 0.75722593 1.7494816e-38
0.11707239 0.1625445 0.72247636 1.9612802e-38
0.14399348 0.17577809 0.73205256 1.8323502e-38
0.18023419 0.1805644 0.73858982 1.3441094e-38
0.21911328 0.18111248 0.740592 1.6665421e-38
0.25715283 0.1889428 0.7452361 1.7587378e-38
0.28741276 0.19556575 0.75313914 1.924618e-38
0.1527155 0.2233898 0.72971886 7.5445461e-39
0.17416236 0.21150266 0.72537088 1.1230195e-38
0.22241053 0.20364948 0.7230112 1.4823305e-38
0.26193568 0.20634739 0.72674537 1.6667215e-38
0.3010903 0.21451472 0.73653054 1.9524923e-38
0.33436796 0.22955422 0.74455196 2.0540517e-38
0.36023048 0.23895048 0.75800002 2.1278443e-38
0.11746971 0.27795818 0.74263644 3.1263655e-39
0.13789576 0.26100287 0.72989541 5.6113203e-39
0.34854349 0.2548967 0.73355347 2.0727074e-38
0.3687354 0.2618978 0.74795938 1.9713283e-38
0.10844683 0.30322894 0.73953378 5.0592256e-39
0.12514105 0.28910497 0.72610694 5.7949885e-39
0.35835844 0.28459382 0.72515011 2.0268619e-38
0.36346287 0.28510103 0.72728956 1.962109e-38
0.09911339 0.32627216 0.74293828 6.4407167e-39
0.39626408 0.076760009 0.7980001 1.1051586e-38
0.1178 0.11932001 0.79800004 1.5099176e-38
0.13957891 0.11849836 0.79427135 1.5467951e-38
0.16851076 0.11859736 0.7975238 1.6298067e-38
0.39430085 0.10345352 0.79720271 8.0138185e-39
0.073163927 0.13943976 0.77176052 1.4824385e-38
0.10138116 0.12993369 0.77589649 1.5191367e-38
0.14077792 0.13007124 0.77291411 1.6388829e-38
0.18031648 0.13512325 0.77548683 1.7402618e-38
0.21705011 0.14586347 0.77818692 1.8324212e-38
0.24962926 0.155496 0.78919554 1.767849e-38
0.39478239 0.12518702 0.79662526 5.0649975e-39
0.23346455 0.16245802 0.76363885 1.8691923e-38
0.26277664 0.17017545 0.7736392 1.795508e-38
0.29872757 0.18388321 0.78059703 1.8509691e-38
0.32940048 0.19443992 0.79097283 1.9525284e-38
0.31365028 0.20366345 0.76336533 1.9708596e-38
0.34251624 0.21338861 0.77410531 2.0354686e-38
0.3761391 0.22705749 0.78336644 1.9894791e-38
0.40035272 0.2286638 0.79766673 1.9710392e-38
0.3774685 0.24555026 0.76536775 1.989623e-38
0.090315372 0.31218529 0.7643286 6.2574086e-39
0.077152781 0.3465696 0.78869456 7.9162069e-39
0.084579349 0.33221927 0.77161431 7.4552245e-39
0.39085373 -0.0066485978 0.83319563 5.8944008e-39
0.40783033 -0.01845105 0.83053762 8.4722687e-39
0.38285023 0.022125218 0.82504547 1.1047618e-38
0.404484 0.016893502 0.81692982 9.2051534e-39
0.35484529 0.067522041 0.83275771 9.851592e-39
0.3782064 0.059357427 0.81242806 1.0403334e-38
0.40100312 0.054401733 0.80303025 1.2245453e-38
0.11166096 0.11918349 0.80622226 1.4820085e-38
0.14424337 0.11388218 0.80710787 1.5006624e-38
0.1810524 0.11434963 0.81051123 1.5836738e-38
0.2061937 0.11821191 0.82200003 1.6389541e-38
0.3532865 0.099541888 0.8300764 8.2857083e-39
0.37550375 0.099588826 0.80639529 7.2740857e-39
0.40000004 0.097523816 0.80000007 1.1145585e-38
0.10749707 0.12176152 0.80410528 1.4361618e-38
0.1946907 0.1212662 0.80400002 1.7309345e-38
0.21826139 0.12943476 0.80744392 1.7310415e-38
0.26114729 0.15035553 0.81333482 1.6204433e-38
0.29621434 0.15725204 0.83124262 1.4454879e-38
0.35187313 0.13608921 0.83470768 8.7445228e-39
0.37866363 0.13937314 0.81471157 6.6272743e-39
0.40358409 0.14949839 0.81026846 7.36701e-39
0.27751684 0.16090731 0.80199999 1.6943444e-38
0.30547279 0.16758044 0.81347418 1.6298069e-38
0.34058651 0.17827514 0.82199997 1.7959396e-38
0.37783125 0.18725054 0.82872021 1.8697684e-38
0.40411836 0.18237086 0.82750005 1.713864e-38
0.35583183 0.20314117 0.80280012 2.0632347e-38
0.384334 0.20947886 0.81281668 1.9249421e-38
0.40819323 0.21216376 0.82402635 1.9065027e-38
0.07435143 0.34664041 0.80666673 6.8127376e-39
0.079999998 0.34590477 0.80000001 8.0998751e-39
0.38714644 -0.047959793 0.86745524 3.0399391e-39
0.41326806 -0.056578647 0.85233247 3.9604548e-39
0.35728091 -0.0038970895 0.87561125 8.6512468e-39
0.37894022 -0.020988541 0.85901183 3.7764223e-39
0.40799621 -0.035470393 0.84341013 6.355009e-39
0.35082588 0.026119361 0.86403173 1.1046895e-38
0.36515722 0.011435413 0.84967405 6.8127488e-39
0.34221557 0.059170641 0.8582679 1.0495521e-38
0.36122954 0.044052381 0.84100002 1.0496592e-38
0.31674173 0.11218026 0.87245196 1.215251e-38
0.33384174 0.099789307 0.85612851 1.0955412e-38
0.23889334 0.13318001 0.87400007 1.3350336e-38
0.2641125 0.13931258 0.86320537 1.3626202e-38
0.30270702 0.13967121 0.85794681 1.2613488e-38
0.33577704 0.13984607 0.8451575 1.113908e-38
0.36677009 0.1569476 0.84159446 1.0952887e-38
0.35542554 0.16557138 0.84112477 1.5010217e-38
0.38127851 0.17551094 0.84762192 1.7406223e-38
0.41455626 0.19146097 0.86437541 1.7866843e-38
0.42484605 0.20288844 0.85410935 1.7498064e-38
0.44150859 0.2015219 0.87800002 1.6852339e-38
0.35688713 -0.042863037 0.90434635 3.5923954e-39
0.37911704 -0.054340061 0.88858414 3.2246904e-39
0.35008287 -0.018336058 0.89375991 6.6279988e-39
0.36385906 -0.032135978 0.88316923 3.0402964e-39
0.31876668 0.020086668 0.91700006 8.3667229e-39
0.33709365 0.017502042 0.89095658 1.0494442e-38
0.31961685 0.075372383 0.91354549 9.7629977e-39
0.32711816 0.059705663 0.8962872 1.1050132e-38
0.23154025 0.11896794 0.89769232 1.5383365e-38
0.26906618 0.11912525 0.90650004 1.270463e-38
0.30697915 0.10425235 0.89962167 1.20614e-38
0.3212873 0.085869506 0.88572961 1.2245433e-38
0.2344158 0.12592717 0.89062065 1.3533295e-38
0.26071754 0.12638511 0.89061046 1.3166668e-38
0.29316038 0.12455169 0.88789862 1.279788e-38
0.43145356 0.19195586 0.8913334 1.7129994e-38
0.44881931 0.19428793 0.90417552 1.5931453e-38
0.4425143 0.20030476 0.88000005 1.6760861e-38
0.34594387 -0.024020316 0.92053342 3.6853043e-39
0.31978574 0.039642859 0.92500007 1.0563663e-38
0.32622549 0.029571401 0.92449373 5.2468692e-39
0.31850892 0.067072704 0.92300004 9.4778013e-39
0.32666162 0.046877805 0.92989677 4.4192666e-39
0.31374639 0.086794026 0.92057151 9.4860549e-39
0.23161808 0.12732354 0.92534786 1.4362337e-38
0.44270286 0.18932764 0.9212001 1.6573233e-38
0.17357482 0.15410039 0.75266886 1.7586293e-38
