# .PCD v0.7 - Point Cloud Data file format
VERSION 0.7
FIELDS x y z rgb
SIZE 4 4 4 4
TYPE F F F F
COUNT 1 1 1 1
WIDTH 251
HEIGHT 1
VIEWPOINT 0 0 0 1 0 0 0
POINTS 251
DATA ascii
-0.090108335 0.073869921 0.45074266 8.653416e-39
-0.063673526 0.074459285 0.46041372 1.3167755e-38
-0.090261415 0.096685804 0.46814623 7.9162111e-39
-0.068605348 0.094539747 0.47041887 1.224616e-38
-0.044706125 0.078230485 0.48304766 1.6574666e-38
-0.09419024 0.11647359 0.48350406 7.4566749e-39
-0.052527081 0.10454413 0.49045175 1.5470122e-38
-0.038066186 0.10575028 0.50922918 1.6944528e-38
-0.09299852 0.13869748 0.49911737 7.7321828e-39
-0.060569715 0.13860092 0.5013665 1.2153967e-38
-0.038600352 0.1254911 0.51789486 1.7497703e-38
-0.26854593 0.19887863 0.51329178 9.7698515e-39
-0.08782205 0.16588821 0.51526308 7.364838e-39
-0.067400463 0.16720931 0.51476014 8.6537761e-39
-0.26945126 0.20188576 0.51543486 8.2021713e-39
-0.29962596 0.13954696 0.5411545 1.0966242e-38
-0.10579507 0.15673274 0.52063638 8.5612148e-39
-0.042781506 0.15197578 0.52245355 1.6392083e-38
-0.033479501 0.1461792 0.53468502 1.7773934e-38
-0.32137784 0.18083754 0.53121436 8.4783938e-39
-0.29870513 0.18531656 0.53680992 8.2932837e-39
-0.26804841 0.1933223 0.55180347 8.7528199e-39
-0.089190915 0.18201663 0.52961272 7.4570378e-39
-0.056471679 0.18300694 0.53207994 1.0403695e-38
-0.032910798 0.17673388 0.54712594 1.602366e-38
-0.32582945 0.21759991 0.54388112 7.8333845e-39
-0.30230245 0.21131516 0.53867394 7.556799e-39
-0.27060542 0.20952113 0.53786081 7.279852e-39
-0.21620174 0.22528337 0.5551843 7.1858641e-39
-0.082023747 0.2055176 0.54937047 7.1811754e-39
-0.060113765 0.20751673 0.55161834 8.0091312e-39
-0.038157143 0.20113429 0.55650002 1.279898e-38
-0.020929944 0.15459165 0.56754166 1.7864323e-38
-0.24864036 0.19525298 0.5634166 1.0135037e-38
-0.2355904 0.19818987 0.57124561 9.9499282e-39
-0.021907087 0.18348117 0.56818855 1.703637e-38
-0.25221282 0.21802258 0.56912035 8.1085337e-39
-0.22444355 0.22192615 0.58230186 8.0159821e-39
-0.19969717 0.23024572 0.59400004 8.8436058e-39
-0.052506909 0.22339572 0.57089913 8.2853565e-39
-0.028244117 0.21764667 0.58309639 1.3351432e-38
-0.23098223 0.24179374 0.58296669 7.6461122e-39
-0.043371089 0.24390629 0.59707993 7.0875294e-39
-0.036934644 0.24206036 0.59662509 7.824014e-39
-0.0073373243 0.18681851 0.63128507 1.2980476e-38
0.014942967 0.18966296 0.63385189 1.4270859e-38
-0.2017594 0.23719595 0.60013336 6.537971e-39
-0.19914286 0.23714286 0.60000002 6.2675176e-39
-0.0090947412 0.22115928 0.61189181 1.4363779e-38
0.019287309 0.21883397 0.62760693 1.4180108e-38
0.041396324 0.2176584 0.6389032 1.5839269e-38
-0.041874666 0.249878 0.6024 6.2577772e-39
-0.018073304 0.25281578 0.61681002 7.7321828e-39
0.013714805 0.24892075 0.63179159 1.0034551e-38
0.19531034 0.27286392 0.6351155 9.3891733e-39
0.22127995 0.26244456 0.62666821 9.4806501e-39
0.25854149 0.26063675 0.62740827 1.4551051e-38
0.28639832 0.26852307 0.63524514 1.8884967e-38
0.19260913 0.28249153 0.63455564 8.4679401e-39
0.20432958 0.2807363 0.62673336 8.5590582e-39
0.27509746 0.28070146 0.62629998 1.5658119e-38
0.29006323 0.28338122 0.6349389 1.7225084e-38
-0.012034355 0.15517935 0.66267312 1.3440736e-38
0.01949835 0.15374696 0.66644567 1.4637117e-38
0.054798905 0.15507236 0.67370427 1.6203723e-38
-0.011047411 0.16668904 0.64746433 1.288828e-38
0.02334154 0.17267822 0.64749712 1.5006982e-38
0.059442237 0.17972359 0.65908724 1.6851254e-38
0.088660456 0.18449934 0.67478156 1.7956883e-38
0.0386553 0.23627685 0.64043754 1.3258161e-38
0.060120896 0.21931247 0.65328336 1.5470486e-38
0.089238964 0.21630192 0.67348284 1.5378647e-38
0.19578744 0.2372977 0.6762265 1.1323104e-38
0.2225903 0.23250273 0.66514814 1.2061035e-38
0.25856277 0.23042254 0.66186363 1.4826182e-38
0.29154515 0.23392779 0.66910613 1.8698044e-38
-0.00060952385 0.26392382 0.64000005 7.0857343e-39
0.027042383 0.25990736 0.64874309 7.3634002e-39
0.057402808 0.25359112 0.66456574 9.3898978e-39
0.082084723 0.24473904 0.67678261 1.0403683e-38
0.15586644 0.27596524 0.67575389 9.2047737e-39
0.1817393 0.26108307 0.66038233 1.0310039e-38
0.21337269 0.24611406 0.64751023 1.1323833e-38
0.2658639 0.24330142 0.64302313 1.6302035e-38
0.30195072 0.25636205 0.65390688 2.0360093e-38
0.32781485 0.26614299 0.67128968 2.109838e-38
0.1509749 0.29082194 0.67209184 8.4668555e-39
0.17202406 0.28555441 0.65228355 8.7438039e-39
0.30953145 0.28631079 0.64887327 1.8792051e-38
0.32722697 0.28976524 0.66271865 1.9899121e-38
0.030153634 0.14325395 0.69136006 1.4269418e-38
0.061373413 0.1416683 0.69639021 1.5744184e-38
0.098052785 0.14745367 0.70225614 1.8324221e-38
0.1290738 0.15320165 0.7146588 1.8600086e-38
0.07977429 0.16084477 0.68099999 1.7496985e-38
0.10605088 0.17670748 0.68714994 1.8326027e-38
0.1352794 0.17872223 0.70662355 1.7496261e-38
0.17988835 0.1828863 0.71179122 1.2336188e-38
0.21840027 0.18652889 0.71047318 1.5284285e-38
0.25584188 0.19279358 0.71184498 1.6482826e-38
0.28402913 0.19833975 0.71689993 1.8695522e-38
0.10785116 0.22164991 0.68830693 1.3075555e-38
0.14316024 0.22042066 0.70889807 8.8363583e-39
0.1795115 0.22015239 0.69581246 1.0954689e-38
0.21917962 0.21328115 0.69114983 1.2889356e-38
0.2602132 0.21058743 0.69327337 1.5470112e-38
0.29947558 0.21881689 0.69881183 1.9065745e-38
0.32978067 0.2318259 0.70904803 2.0818545e-38
0.070815392 0.26926115 0.68733019 6.1652088e-39
0.097936131 0.2527028 0.69494087 6.9013319e-39
0.1433195 0.26158643 0.70100695 7.8225651e-39
0.16859809 0.24872573 0.68621749 9.9416171e-39
0.31816131 0.24166419 0.68212503 2.0910024e-38
0.33908623 0.25231913 0.69731748 2.0728513e-38
0.11344332 0.30275604 0.71201676 6.6247436e-39
0.13126004 0.29290327 0.69438475 7.6374564e-39
0.10447714 0.32026002 0.71700001 6.7180084e-39
0.078571439 0.11928572 0.75000006 1.464071e-38
0.10496072 0.11676285 0.75100654 1.5376833e-38
0.13844708 0.11541283 0.75101829 1.5929288e-38
0.17503925 0.11685792 0.75461549 1.7219307e-38
0.038628574 0.13554285 0.72000003 1.4179742e-38
0.069313303 0.1275225 0.73600566 1.510097e-38
0.10104051 0.12805983 0.73208922 1.6389545e-38
0.14200003 0.13704418 0.7307784 1.6388829e-38
0.17984454 0.14003384 0.7353 1.6297714e-38
0.21684214 0.14549813 0.74173802 1.8416772e-38
0.25096345 0.15507019 0.75110626 1.814019e-38
0.15465775 0.18208843 0.72086412 9.5714066e-39
0.17941321 0.16257791 0.72118884 1.4086106e-38
0.22308382 0.16719814 0.72511595 1.7218596e-38
0.26153395 0.1743516 0.7340281 1.7956161e-38
0.29673547 0.18687697 0.74154609 1.9339453e-38
0.32720551 0.19586757 0.75240314 1.9894429e-38
0.14160796 0.22203322 0.72116345 4.9681089e-39
0.30987316 0.20472205 0.72674757 1.9710035e-38
0.34080407 0.21671304 0.73796338 2.0540519e-38
0.3671914 0.22817062 0.7485587 2.0541243e-38
0.11458874 0.27262461 0.72912091 3.9546801e-39
0.127056 0.25655276 0.72310758 4.6911647e-39
0.35527369 0.24677148 0.72469652 2.0729239e-38
0.36427218 0.24818829 0.73236924 2.0912545e-38
-0.066002719 0.30134368 0.75800008 7.4555987e-39
0.10008257 0.29982862 0.73692322 5.7971451e-39
0.091533154 0.32687005 0.74347728 7.1789992e-39
0.38942015 0.025647879 0.79402417 1.0955068e-38
0.37936264 0.061611034 0.79021323 9.4835368e-39
0.078091748 0.11896414 0.76633334 1.454853e-38
0.10176519 0.11147828 0.76762962 1.4915862e-38
0.14226173 0.10552749 0.773283 1.5469036e-38
0.18032801 0.10689352 0.77398509 1.6482462e-38
0.20978552 0.11186998 0.77924043 1.7495531e-38
0.37752867 0.098757006 0.78909755 6.1684598e-39
0.075004496 0.12063797 0.76242864 1.491622e-38
0.080871433 0.12021429 0.76500005 1.4824743e-38
0.22596869 0.12898916 0.76808232 1.85086e-38
0.26113695 0.14696452 0.7737515 1.7311501e-38
0.29539633 0.15502271 0.78954995 1.6575014e-38
0.32107717 0.15863906 0.79700005 1.6484617e-38
0.38625109 0.12800528 0.79368204 6.3524881e-39
0.27782699 0.16079587 0.76166672 1.7863966e-38
0.30534622 0.16999616 0.77216285 1.8141988e-38
0.33743969 0.18218334 0.77937436 1.9803311e-38
0.37059236 0.1953167 0.7927261 1.9987702e-38
0.35332102 0.20379595 0.76277268 2.0538003e-38
0.3791405 0.21005189 0.77782327 1.9986628e-38
0.4000181 0.20342478 0.79700005 1.998663e-38
0.078467146 0.31533921 0.77483338 7.0893231e-39
0.084017836 0.31222796 0.76725417 7.2719137e-39
0.078265429 0.33610138 0.77344459 7.8247259e-39
0.082398027 0.33006683 0.76553357 7.7321715e-39
0.41102278 -0.084156193 0.83562976 3.9622583e-39
0.39005294 -0.052255876 0.83143032 3.2243289e-39
0.40732062 -0.061252117 0.8272438 4.6050984e-39
0.35938004 -0.0007933334 0.83300006 5.2450756e-39
0.38257888 -0.018030019 0.82084274 6.2617386e-39
0.40261722 -0.026834091 0.81082755 7.919095e-39
0.35345078 0.025022985 0.8282727 9.6668448e-39
0.37391227 0.017375739 0.81021011 1.0403331e-38
0.40066668 0.002288254 0.80133337 8.7427333e-39
0.34865677 0.061311748 0.82168233 9.4831682e-39
0.36488792 0.054305963 0.8035807 9.6668434e-39
0.23092477 0.11825906 0.83900005 1.6666504e-38
0.31802601 0.11810436 0.83871442 1.1785157e-38
0.3438929 0.10071843 0.82305777 9.482085e-39
0.36327863 0.10622438 0.80243403 7.2722808e-39
0.26973611 0.13541235 0.82470137 1.4178652e-38
0.3025929 0.13844419 0.82330275 1.3258496e-38
0.33973831 0.13925305 0.82096922 1.2153591e-38
0.37626171 0.14202814 0.81580496 1.0495161e-38
0.4029839 0.14788866 0.80558336 1.151328e-38
0.34881985 0.16760115 0.80695027 1.9250133e-38
0.38123044 0.17871951 0.81690633 1.961928e-38
0.40722054 0.18684718 0.82643402 1.9250496e-38
0.39685473 0.20109798 0.80200016 1.9342701e-38
0.40206549 0.20112549 0.8037501 1.9803319e-38
-0.01778518 0.3728272 0.83811992 2.5789581e-39
0.38973069 -0.085955054 0.8679716 3.5931142e-39
0.40239444 -0.083972126 0.85022849 3.1332165e-39
0.35635936 -0.046499453 0.86808985 3.3158029e-39
0.37404981 -0.061221 0.85475707 3.0402978e-39
0.40442264 -0.076002412 0.84771442 2.9488238e-39
0.34660551 -0.017024346 0.86359 9.1125907e-39
0.36508507 -0.025786942 0.84718388 4.2359585e-39
0.33983356 0.017548792 0.85671282 1.1322761e-38
0.31853145 0.077301458 0.87026685 1.1877731e-38
0.33053422 0.05953081 0.85697186 1.1692621e-38
0.23245943 0.11173424 0.86420882 1.4087906e-38
0.2587111 0.11427854 0.86687279 1.3166666e-38
0.30615318 0.1052489 0.86072862 1.2337263e-38
0.32489124 0.092481129 0.84628922 1.1876643e-38
0.2375797 0.12163429 0.85333341 1.6572477e-38
0.26153517 0.12437923 0.84912843 1.3442889e-38
0.29458243 0.12389594 0.84658313 1.261421e-38
0.42324746 0.18018167 0.85884762 1.832818e-38
-0.012115556 0.35941464 0.84933341 2.8537527e-39
-0.043612178 0.37238547 0.84472728 2.8577016e-39
-0.019531412 0.3685129 0.84673637 2.7629906e-39
0.01964514 0.37221065 0.85914928 1.6573619e-39
0.046848871 0.38444081 0.8733747 2.3020125e-39
0.35845146 -0.080885723 0.89400005 5.5295714e-39
0.380833 -0.090169042 0.88680458 3.5927541e-39
0.40238747 -0.10070827 0.88483334 3.3158267e-39
0.35198486 -0.053361442 0.89436805 3.5913122e-39
0.36655685 -0.075622298 0.88948113 3.6849413e-39
0.34104863 -0.029953921 0.89060026 4.4199938e-39
0.31948403 0.017735429 0.90420008 4.5971978e-39
0.32727426 0.021991394 0.894131 7.5513928e-39
0.3168681 0.072315522 0.89240009 1.0314728e-38
0.32264891 0.053229276 0.88853347 9.7633621e-39
0.27412245 0.10904697 0.88537496 1.2982281e-38
0.29935637 0.097038485 0.88947171 1.2154316e-38
0.43529087 0.17687468 0.88440007 1.8052663e-38
0.44569686 0.1771796 0.89823526 1.7037439e-38
0.039426286 0.37328917 0.88080007 2.6718726e-39
0.060756877 0.38359925 0.89528847 3.1321347e-39
0.081561193 0.39457119 0.89675003 4.1441216e-39
0.074240007 0.40021333 0.89600003 2.3967248e-39
0.35738477 -0.064100958 0.92200005 3.9492963e-39
0.36361906 -0.070971429 0.91999996 6.9928353e-39
0.075095721 0.38150656 0.92030454 3.8697025e-39
0.081662856 0.38460574 0.92200005 3.4097992e-39
0.20665321 0.23971836 0.64498103 1.6300965e-38
0.22032532 0.25016618 0.65030521 1.261457e-38
-0.12947941 0.16134544 0.52348399 1.1051584e-38
-0.20789245 0.19104435 0.53879851 9.3034713e-39
-0.063194007 0.19035682 0.60621828 1.2340521e-38
-0.028184133 0.20520757 0.60540593 1.0497327e-38
0.026063636 0.190299 0.61005235 9.4820949e-39
-0.096504495 0.33526731 0.89107263 1.6028706e-38
-0.13821337 0.29046398 0.94378281 1.3172084e-38
