# .PCD v0.7 - Point Cloud Data file format
VERSION 0.7
FIELDS x y z rgb
SIZE 4 4 4 4
TYPE F F F F
COUNT 1 1 1 1
WIDTH 657
HEIGHT 1
VIEWPOINT 0 0 0 1 0 0 0
POINTS 657
DATA ascii
-1.6116749 -0.69404119 3.0631819 1.98003e-38
-1.5955238 -0.68462479 3.0460002 1.98003e-38
-1.6038134 -0.67606002 3.0730002 1.98003e-38
-1.6194112 -0.73734897 3.1010003 1.98003e-38
-1.6526854 -0.69816804 3.1010001 1.98003e-38
-1.6254411 -0.70030916 3.1010005 1.98003e-38
-1.6066134 -0.67631334 3.1010001 1.98003e-38
-1.72282 -0.72761333 3.1570001 1.98003e-38
-1.7034792 -0.7279762 3.1530001 1.98003e-38
-1.6525786 -0.7376067 3.1457999 1.98003e-38
-1.6223972 -0.74542576 3.1290004 1.98003e-38
-1.72282 -0.71558666 3.1570001 1.98003e-38
-1.6930268 -0.70698279 3.1429999 1.98003e-38
-1.6714295 -0.69959885 3.1290004 1.98003e-38
-1.6688001 -0.67646003 3.1290002 1.98003e-38
-1.6749258 -0.76160574 3.1860001 1.98003e-38
-1.729543 -0.72519433 3.1860001 1.98003e-38
-1.6749258 -0.75553715 3.1860001 1.98003e-38
-1.7224629 -0.71305722 3.1860003 1.98003e-38
-1.6018742 -0.84228575 3.2160001 1.98003e-38
-1.5957485 -0.84228575 3.2160001 1.98003e-38
-1.6018742 -0.83616 3.2160001 1.98003e-38
-1.5957485 -0.83616 3.2160001 1.98003e-38
-1.7351085 -0.74427432 3.2160001 1.98003e-38
-1.6983544 -0.75193143 3.2160001 1.98003e-38
-1.7488915 -0.71977144 3.2160001 1.98003e-38
-1.6137258 -0.85632575 3.2460001 1.98003e-38
-1.7219256 -0.76358289 3.2460001 1.98003e-38
-1.7157428 -0.76358289 3.2460001 1.98003e-38
-1.623 -0.79449713 3.2460001 1.98003e-38
-1.7478937 -0.74379772 3.2460001 1.98003e-38
-1.6545001 -0.86664295 3.3090003 1.98003e-38
-1.7821331 -0.80912936 3.3090003 1.98003e-38
-1.7792968 -0.78722692 3.3090005 1.98003e-38
-1.7521944 -0.78785723 3.3090003 1.98003e-38
-1.6705 -0.88138765 3.3410001 1.98003e-38
-1.820611 -0.81438053 3.3409998 1.98003e-38
-1.6768638 -0.81774956 3.3410001 1.98003e-38
-1.8083825 -0.79229426 3.3410003 1.98003e-38
-1.7837757 -0.79229426 3.3410001 1.98003e-38
-1.8535439 -0.82282841 3.3730006 1.98003e-38
-1.8342695 -0.83200669 3.3730001 1.98003e-38
-1.6993495 -0.82558191 3.3730001 1.98003e-38
-1.8278449 -0.79988289 3.3730001 1.98003e-38
-1.7250485 -0.72278577 3.3730001 1.98003e-38
-1.8522153 -0.84663433 3.4060001 1.98003e-38
-1.83924 -0.84663433 3.4060001 1.98003e-38
-1.8548104 -0.80770856 3.4060001 1.98003e-38
-1.8262649 -0.80446482 3.4060001 1.98003e-38
-1.8587029 -0.79473335 3.4060001 1.98003e-38
-1.73706 -0.73066807 3.4060001 1.98003e-38
-1.5885715 -0.92335713 3.4750001 1.98003e-38
-1.9129047 -0.89798421 3.4750001 1.98003e-38
-1.8731905 -0.90680957 3.4750001 1.98003e-38
-1.7661827 -0.90129369 3.4750001 1.98003e-38
-1.7452327 -0.90731847 3.4706252 1.98003e-38
-1.7167238 -0.91405714 3.4400001 1.98003e-38
-1.6155703 -0.89653265 3.4749992 1.98003e-38
-1.5771503 -0.89421862 3.4473681 1.98003e-38
-1.8964559 -0.87104356 3.4700003 1.98003e-38
-1.6188841 -0.87159681 3.4696152 1.98003e-38
-1.5796055 -0.86520451 3.4662495 1.98003e-38
-1.9228334 -0.82738101 3.4750001 1.98003e-38
-1.9032266 -0.82176965 3.4618752 1.98003e-38
-1.8554161 -0.81686348 3.4400003 1.98003e-38
-1.8313906 -0.8288762 3.4400001 1.98003e-38
-1.5733477 -0.8306905 3.4750001 1.98003e-38
-1.5365334 -0.80266666 3.4400001 1.98003e-38
-1.7672858 -0.76450002 3.4750001 1.98003e-38
-1.5720239 -0.78104764 3.4750001 1.98003e-38
-1.7715406 -0.73865396 3.4711113 1.98003e-38
-1.7482126 -0.75090653 3.4618752 1.98003e-38
-1.9020859 -0.92597151 3.5100002 1.98003e-38
-1.7750572 -0.92864579 3.5100002 1.98003e-38
-1.6435716 -0.94380009 3.5100002 1.98003e-38
-1.6317919 -0.94316339 3.5100005 1.98003e-38
-1.9246502 -0.90424293 3.5100002 1.98003e-38
-1.9064318 -0.90223712 3.5100009 1.98003e-38
-1.8068144 -0.90090007 3.5100002 1.98003e-38
-1.7835259 -0.9072516 3.5100007 1.98003e-38
-1.7550001 -0.90591437 3.5100002 1.98003e-38
-1.6430144 -0.91260004 3.5100002 1.98003e-38
-1.6346573 -0.91594291 3.5100002 1.98003e-38
-1.8954002 -0.87917149 3.5100002 1.98003e-38
-1.641343 -0.87248576 3.5100002 1.98003e-38
-1.613645 -0.86484498 3.5100007 1.98003e-38
-1.594543 -0.85242862 3.5100002 1.98003e-38
-1.9278737 -0.81708992 3.5100005 1.98003e-38
-1.7639145 -0.83682865 3.5100002 1.98003e-38
-1.7550001 -0.83237147 3.5100002 1.98003e-38
-1.6012287 -0.83905721 3.5100002 1.98003e-38
-1.7750573 -0.77220005 3.5100002 1.98003e-38
-1.594543 -0.79894292 3.5100002 1.98003e-38
-1.5254573 -0.73877144 3.5100002 1.98003e-38
-1.9384801 -0.93209147 3.5460002 1.98003e-38
-1.8101487 -0.93546861 3.5460002 1.98003e-38
-1.793263 -0.94222289 3.5460002 1.98003e-38
-1.6514229 -0.94222295 3.5460002 1.98003e-38
-1.9621201 -0.91182864 3.5460002 1.98003e-38
-1.9103373 -0.90732574 3.5460002 1.98003e-38
-1.8142014 -0.89696926 3.546 1.98003e-38
-1.7898858 -0.90507436 3.5460002 1.98003e-38
-1.8000174 -0.84766293 3.5460002 1.98003e-38
-1.7898858 -0.84428573 3.5460002 1.98003e-38
-1.5230916 -0.82064575 3.5460002 1.98003e-38
-1.7865087 -0.78012002 3.5460002 1.98003e-38
-1.9518819 -0.93499243 3.5830002 1.98003e-38
-1.8460983 -0.9384048 3.5830002 1.98003e-38
-1.8347235 -0.94636703 3.5830002 1.98003e-38
-1.8187991 -0.90428102 3.5830002 1.98003e-38
-1.7983248 -0.91451812 3.5830002 1.98003e-38
-1.6754791 -0.88380671 3.5830002 1.98003e-38
-1.8201641 -0.85992002 3.5830002 1.98003e-38
-1.6413553 -0.86333245 3.5830002 1.98003e-38
-1.5276092 -0.847408 3.5830002 1.98003e-38
-1.5150971 -0.84627056 3.5830002 1.98003e-38
-1.8290365 -0.81100929 3.5830002 1.98003e-38
-1.5321591 -0.83432716 3.5830002 1.98003e-38
-1.5150971 -0.83603334 3.5830002 1.98003e-38
-1.808562 -0.79508477 3.5830002 1.98003e-38
-1.7949123 -0.78825998 3.5830002 1.98003e-38
-1.8559401 -0.98040873 3.6210012 1.98003e-38
-1.8316846 -0.98185766 3.6210012 1.98003e-38
-1.8477448 -0.8945595 3.6210003 1.98003e-38
-1.8380888 -0.89318001 3.6210003 1.98003e-38
-1.6656601 -0.88628292 3.6210003 1.98003e-38
-1.849584 -0.87708682 3.6210003 1.98003e-38
-1.8242944 -0.85179722 3.6210003 1.98003e-38
-1.5346144 -0.86559153 3.6210003 1.98003e-38
-1.8484344 -0.82420862 3.6210003 1.98003e-38
-1.8626053 -1.0088387 3.6590002 1.98003e-38
-1.8852562 -0.97921818 3.6590002 1.98003e-38
-1.8329848 -0.97921818 3.6590002 1.98003e-38
-1.8922257 -0.92346197 3.6590002 1.98003e-38
-1.68314 -0.8886143 3.6590002 1.98003e-38
-1.8434391 -0.86073619 3.6590002 1.98003e-38
-1.9018286 -0.91217339 3.6980002 1.98003e-38
-1.7245595 -0.90278167 3.6980004 1.98003e-38
-1.708124 -0.89456379 3.6980002 1.98003e-38
-1.8724794 -0.85817087 3.6980004 1.98003e-38
-1.9887455 -0.97705817 3.7380002 1.98003e-38
-2.0042801 -0.95052004 3.7380002 1.98003e-38
-1.9900401 -0.95230001 3.7380002 1.98003e-38
-1.93753 -0.94607008 3.7380004 1.98003e-38
-1.9259601 -0.91492003 3.7380002 1.98003e-38
-1.9152801 -0.91492003 3.7380002 1.98003e-38
-1.7337201 -0.89712006 3.7380002 1.98003e-38
-1.8897667 -0.85558671 3.7379999 1.98003e-38
-1.87256 -0.85558677 3.7380004 1.98003e-38
-1.8903601 -0.83660007 3.7380004 1.98003e-38
-1.87256 -0.83660007 3.7380002 1.98003e-38
-2.0166664 -1.0041344 3.7790003 1.98003e-38
-1.9542829 -1.0041343 3.7790003 1.98003e-38
-2.0172663 -0.97714144 3.7789998 1.98003e-38
-1.9779339 -0.96608734 3.779 1.98003e-38
-1.9542829 -0.99693626 3.7790003 1.98003e-38
-1.8871007 -0.96334517 3.7790003 1.98003e-38
-2.0151901 -0.94544226 3.7789998 1.98003e-38
-1.9796659 -0.94238234 3.7789998 1.98003e-38
-1.9542829 -0.9285543 3.7790003 1.98003e-38
-1.7743306 -0.92495531 3.7790003 1.98003e-38
-1.9452852 -0.91595769 3.7790003 1.98003e-38
-1.7707317 -0.91415817 3.7790003 1.98003e-38
-1.8930991 -0.87096959 3.7790003 1.98003e-38
-2.045145 -1.0152943 3.8210001 1.98003e-38
-2.0342276 -1.0225724 3.8210001 1.98003e-38
-2.0123932 -0.97162575 3.8210001 1.98003e-38
-1.8983698 -0.9764778 3.8210001 1.98003e-38
-2.048784 -0.95343053 3.8210001 1.98003e-38
-2.0175922 -0.94043398 3.8209999 1.98003e-38
-1.9905591 -0.93523526 3.8210001 1.98003e-38
-2.0615361 -1.047328 3.8640001 1.98003e-38
-2.08656 -1.0304 3.8640001 1.98003e-38
-2.0792003 -1.0193601 3.8640001 1.98003e-38
-2.0056002 -1.0230401 3.8640001 1.98003e-38
-2.0792 -0.96783996 3.8640001 1.98003e-38
-2.01296 -0.97888005 3.8640001 1.98003e-38
-1.9982401 -0.97888005 3.8640001 1.98003e-38
-1.9362059 -0.97099435 3.8640003 1.98003e-38
-2.0837336 -1.0865183 3.9070003 1.98003e-38
-2.0921054 -1.0604715 3.9070001 1.98003e-38
-2.0688496 -1.0641925 3.9070003 1.98003e-38
-2.022958 -1.0480683 3.9070003 1.98003e-38
-2.1097803 -1.0307039 3.9070003 1.98003e-38
-2.0487564 -1.0158201 3.9070003 1.98003e-38
-2.0297797 -1.0214014 3.9070001 1.98003e-38
-2.1023381 -0.97116864 3.9070003 1.98003e-38
-2.0093145 -0.97116864 3.9070003 1.98003e-38
-1.9832678 -0.97116864 3.9070003 1.98003e-38
-1.9423373 -0.96968025 3.9070003 1.98003e-38
-2.0564468 -0.94636238 3.9070003 1.98003e-38
-2.0316401 -0.94884294 3.9070003 1.98003e-38
-2.1280582 -1.0892465 3.9520001 1.98003e-38
-2.1114974 -1.0915048 3.9520001 1.98003e-38
-2.1315708 -1.0676674 3.9520004 1.98003e-38
-2.0879734 -1.0529258 3.9519999 1.98003e-38
-2.0641811 -1.0576305 3.9520001 1.98003e-38
-2.0851507 -1.0199925 3.9520001 1.98003e-38
-2.0663316 -1.0300292 3.9520004 1.98003e-38
-2.0061104 -0.98988187 3.9520001 1.98003e-38
-1.9797639 -0.97859049 3.9520001 1.98003e-38
-1.9647086 -0.95977145 3.9520001 1.98003e-38
-2.0995214 -1.0653719 3.9980004 1.98003e-38
-2.1056135 -1.03948 3.9980001 1.98003e-38
-2.1226618 -1.0902238 4.0450001 1.98003e-38
-2.1342192 -1.0555524 4.0450001 1.98003e-38
-2.0340571 -0.99776667 4.0450001 1.98003e-38
-2.1634431 -1.0719763 4.0930004 1.98003e-38
-2.0672901 -1.0148042 4.0930004 1.98003e-38
-2.1696191 -1.1242572 4.1420002 1.98003e-38
-2.2225237 -1.1597533 4.243 1.98003e-38
-2.168457 -1.0433142 4.296 1.98003e-38
-2.168457 -1.0351315 4.296 1.98003e-38
-2.2827144 -1.2262857 4.3500004 1.98003e-38
-2.2744286 -1.2262857 4.3500004 1.98003e-38
-2.179143 -1.0522858 4.3500004 1.98003e-38
-2.1750002 -1.0398573 4.3500004 1.98003e-38
-2.3079047 -1.2252877 4.4060001 1.98003e-38
-2.3675153 -1.2453896 4.4630003 1.98003e-38
-2.354764 -1.24964 4.4630003 1.98003e-38
-2.3494508 -1.2273251 4.4630008 1.98003e-38
-1.8811634 -0.85558677 3.7380002 1.98003e-38
-1.9485816 -0.98454821 3.9155002 1.98003e-38
-1.93753 -0.94607008 3.7380004 1.98003e-38
-1.9259601 -0.91492003 3.7380002 1.98003e-38
-1.9152801 -0.91492003 3.7380002 1.98003e-38
-0.26782161 -0.060161781 0.50465328 3.7014374e-39
-0.27467486 0.15872191 0.51523077 3.7014374e-39
-0.28080669 0.16254666 0.51100004 3.7014374e-39
-0.27601153 0.16234505 0.51423228 3.7014374e-39
-0.24684992 0.032470446 0.55691779 3.7014374e-39
-0.23825052 0.035879165 0.55696005 3.7014374e-39
-0.30193973 0.076616682 0.54239708 3.7014374e-39
-0.3228156 0.089017235 0.55340004 3.7014374e-39
-0.30825973 0.088576525 0.54825294 3.7014374e-39
-0.23062241 0.11808414 0.54315913 3.7014374e-39
-0.24201031 0.12989272 0.55485117 3.7014374e-39
-0.23128891 0.12862015 0.54832178 3.7014374e-39
-0.26992011 0.18248007 0.52593023 3.7014374e-39
-0.21273239 0.23101221 0.54071105 3.7014374e-39
-0.17798705 0.21518052 0.54776144 3.7014374e-39
-0.15536229 0.20790544 0.55559552 3.7014374e-39
-0.22428064 0.2449926 0.55048144 3.7014374e-39
-0.081719123 -0.081956953 0.59235728 3.7014374e-39
-0.073126256 -0.082355097 0.58597922 3.7014374e-39
-0.081305742 -0.06577231 0.5977813 3.7014374e-39
-0.075983971 -0.07040827 0.59441262 3.7014374e-39
-0.28501049 -0.00054809527 0.57550001 3.7014374e-39
-0.28812864 0.014327545 0.57410425 3.7014374e-39
-0.25809506 0.019697735 0.5653823 3.7014374e-39
-0.23481047 0.028207133 0.56324244 3.7014374e-39
-0.26682442 0.15189135 0.59101659 3.7014374e-39
-0.32064193 0.16402286 0.59800005 3.7014374e-39
-0.31611091 0.16419455 0.59788007 3.7014374e-39
-0.27302992 0.16076021 0.59900004 3.7014374e-39
-0.1686729 0.20659947 0.56189144 3.7014374e-39
-0.14987037 0.20651972 0.56152844 3.7014374e-39
-0.24010287 0.25138286 0.56400007 3.7014374e-39
-0.23669736 0.25087616 0.56394988 3.7014374e-39
-0.35177624 -0.042153411 0.63861543 3.7014374e-39
-0.25961661 -0.041991431 0.63900006 3.7014374e-39
-0.083632626 -0.062537983 0.60102129 3.7014374e-39
-0.075589806 -0.069344833 0.60288709 3.7014374e-39
-0.35094345 -0.036291357 0.63761544 3.7014374e-39
-0.26563033 -0.022129828 0.62789202 3.7014374e-39
-0.28562978 0.068931453 0.62802482 3.7014374e-39
-0.27910343 0.069266379 0.63338464 3.7014374e-39
-0.28577906 0.082281396 0.62522721 3.7014374e-39
-0.3235324 0.15772706 0.61146432 3.7014374e-39
-0.31216928 0.15765798 0.6091668 3.7014374e-39
-0.27828571 0.15874287 0.60000002 3.7014374e-39
-0.32375929 0.16259207 0.60788453 3.7014374e-39
-0.30188617 0.17124549 0.61281478 3.7014374e-39
-0.27760652 0.16392471 0.60183334 3.7014374e-39
-0.290162 -0.1439005 0.65114146 3.7014374e-39
-0.26883075 -0.14748782 0.65877718 3.7014374e-39
-0.37233829 -0.049574204 0.65045506 3.7014374e-39
-0.35675803 -0.041943174 0.64033341 3.7014374e-39
-0.25377819 -0.042118408 0.64423907 3.7014374e-39
-0.36289835 -0.038138758 0.64507693 3.7014374e-39
-0.35233188 -0.031900331 0.64392328 3.7014374e-39
-0.28650877 -0.025533341 0.65430504 3.7014374e-39
-0.26007348 -0.028681956 0.64747989 3.7014374e-39
-0.28099048 0.059936516 0.64000005 3.7014374e-39
-0.27942318 0.060168713 0.6400001 3.7014374e-39
-0.32252288 -0.17256001 0.71899998 3.7014374e-39
-0.31762356 -0.16916423 0.71414298 3.7014374e-39
-0.33105117 -0.14829679 0.70605344 3.7014374e-39
-0.30600017 -0.15127255 0.71390009 3.7014374e-39
-0.41554743 0.024574956 0.71358246 3.7014374e-39
-0.38066575 -0.28045052 0.75699997 3.7014374e-39
-0.31256455 -0.20683612 0.71727854 3.7014374e-39
-0.3793605 -0.2750743 0.75521892 3.7014374e-39
-0.33134764 -0.2788429 0.74500006 3.7014374e-39
-0.32270852 -0.17844121 0.72384 3.7014374e-39
-0.3156772 -0.17563717 0.7261644 3.7014374e-39
-0.30127427 -0.15467048 0.72100008 3.7014374e-39
-0.4163439 0.023773517 0.72390193 3.7014374e-39
-0.39630738 0.023341425 0.7252 3.7014374e-39
-0.35391524 -0.2597639 0.75076187 3.7014374e-39
-0.35167295 -0.28659272 0.76180035 3.7014374e-39
-0.20561567 -0.29754686 0.7787112 3.7014374e-39
-0.19399251 -0.28999609 0.77602869 3.7014374e-39
-0.37479711 -0.27471527 0.7635265 3.7014374e-39
-0.18541895 -0.27296153 0.78448433 3.7014374e-39
-0.40895438 -0.14648388 0.79457629 3.7014374e-39
-0.39898857 -0.13998286 0.78600001 3.7014374e-39
-0.40128005 -0.091200009 0.79800004 3.7014374e-39
-0.49873477 -0.24608187 0.83462191 3.7014374e-39
-0.29949638 -0.25623626 0.83230358 3.7014374e-39
-0.27870196 -0.26133239 0.82900012 3.7014374e-39
-0.49310824 -0.23644873 0.83573335 3.7014374e-39
-0.29521906 -0.23262335 0.81238568 3.7014374e-39
-0.40902591 -0.16158484 0.82576931 3.7014374e-39
-0.37165207 -0.16612916 0.82874483 3.7014374e-39
-0.35901201 -0.16342087 0.82366669 3.7014374e-39
-0.44070005 -0.12402001 0.81900007 3.7014374e-39
-0.4205302 -0.13494729 0.81987166 3.7014374e-39
-0.3784197 -0.14975269 0.82241821 3.7014374e-39
-0.35783494 -0.15211324 0.82752651 3.7014374e-39
-0.42229342 -0.11009341 0.81731987 3.7014374e-39
-0.49456 -0.24487145 0.84300005 3.7014374e-39
-0.30195904 -0.25229999 0.84100002 3.7014374e-39
-0.38495976 -0.17500545 0.84609103 3.7014374e-39
-0.3959375 -0.14523938 0.84100002 3.7014374e-39
-0.46273515 -0.0029673805 0.87493742 3.7014374e-39
-0.46490395 0.0017254602 0.87680012 3.7014374e-39
-0.38414815 -0.2438494 0.90786487 3.7014374e-39
-0.38093591 -0.23609321 0.90838116 3.7014374e-39
-0.28660563 -0.17451754 0.8996141 3.7014374e-39
-0.25849622 -0.16616523 0.90071428 3.7014374e-39
-0.23920065 -0.16760191 0.91333342 3.7014374e-39
-0.25883877 -0.14524017 0.90079135 3.7014374e-39
-0.25806975 -0.11385572 0.90346187 3.7014374e-39
-0.52446336 -0.015961247 0.91161543 3.7014374e-39
-0.49581504 -0.014210194 0.89992648 3.7014374e-39
-0.47565541 -0.0069144713 0.88669443 3.7014374e-39
-0.49054319 0.0019777145 0.88993341 3.7014374e-39
-0.47143605 0.0053910255 0.88457704 3.7014374e-39
-0.37146884 -0.28624865 0.94696176 3.7014374e-39
-0.35508117 -0.2876915 0.93277782 3.7014374e-39
-0.37995267 -0.26000574 0.9434858 3.7014374e-39
-0.35932288 -0.24366859 0.92700005 3.7014374e-39
-0.3729946 -0.23828793 0.927706 3.7014374e-39
-0.24095237 -0.1743619 0.92000002 3.7014374e-39
-0.2392 -0.1743619 0.92000002 3.7014374e-39
-0.27255225 -0.1090261 0.93141669 3.7014374e-39
-0.49419931 -0.022226462 0.92264295 3.7014374e-39
-0.40648976 -0.32878682 0.99490005 3.7014374e-39
-0.38968253 -0.32561445 0.98142213 3.7014374e-39
-0.60201186 -0.28540164 0.99318194 3.7014374e-39
-0.58430016 -0.29717365 0.97562033 3.7014374e-39
-0.40553257 -0.30972055 0.98644447 3.7014374e-39
-0.3821418 -0.29946446 0.9683367 3.7014374e-39
-0.5994429 -0.27861428 0.98500007 3.7014374e-39
-0.36989716 -0.27061188 0.96241665 3.7014374e-39
-0.35968858 -0.27731717 0.96100003 3.7014374e-39
-0.40717804 -0.16743657 0.99436015 3.7014374e-39
-0.39828765 -0.1670543 0.99100006 3.7014374e-39
-0.40865499 -0.15747041 0.99381262 3.7014374e-39
-0.38785341 -0.14617272 0.98659813 3.7014374e-39
-0.49123007 -0.083071806 0.98639286 3.7014374e-39
-0.47387499 -0.084245391 0.98482347 3.7014374e-39
-0.49283952 -0.074737944 0.98666227 3.7014374e-39
-0.47615492 -0.076373659 0.98353326 3.7014374e-39
-0.59087813 -0.36065477 1.0375 3.7014374e-39
-0.6009593 -0.3415207 1.0302501 3.7014374e-39
-0.58550638 -0.33775613 1.0296355 3.7014374e-39
-0.41741136 -0.33491251 1.0053115 3.7014374e-39
-0.39678621 -0.3262043 1.0015 3.7014374e-39
-0.60473871 -0.28560644 1.0148261 3.7014374e-39
-0.58932376 -0.30553886 1.0174929 3.7014374e-39
-0.42060858 -0.3151899 1.0044001 3.7014374e-39
-0.60394192 -0.16230682 1.0364287 3.7014374e-39
-0.59490693 -0.16410193 1.0318 3.7014374e-39
-0.44544566 -0.1736784 1.024103 3.7014374e-39
-0.42021778 -0.17623016 1.013191 3.7014374e-39
-0.39692539 -0.17760484 1.0025625 3.7014374e-39
-0.60371125 -0.14828132 1.0354104 3.7014374e-39
-0.5904122 -0.13793664 1.0309501 3.7014374e-39
-0.44520006 -0.15934287 1.0140002 3.7014374e-39
-0.41710669 -0.15034571 1.0112468 3.7014374e-39
-0.39622113 -0.13941349 1.0032309 3.7014374e-39
-0.60409492 -0.11884223 1.0370001 3.7014374e-39
-0.5826484 -0.11184306 1.0198097 3.7014374e-39
-0.55881429 -0.10857873 1.003 3.7014374e-39
-0.45785761 -0.087609544 1.0337549 3.7014374e-39
-0.49823159 -0.061941251 1.0267298 3.7014374e-39
-0.46604484 -0.06592191 1.0179996 3.7014374e-39
-0.57725036 -0.34479785 1.0559158 3.7014374e-39
-0.61995125 -0.1697299 1.0538752 3.7014374e-39
-0.61388999 -0.1363522 1.0599995 3.7014374e-39
-0.59594297 -0.14182325 1.0614681 3.7014374e-39
-0.64588577 -0.11900572 1.0680001 3.7014374e-39
-0.62595898 -0.11436408 1.0496168 3.7014374e-39
-0.4914307 -0.085924394 1.0698001 3.7014374e-39
-0.45758441 -0.086616702 1.0427221 3.7014374e-39
-0.49463391 -0.065692894 1.0475323 3.7014374e-39
-0.45581907 -0.078623816 1.0450001 3.7014374e-39
-0.60140002 -0.16016667 1.085 3.7014374e-39
-0.59830004 -0.16016667 1.085 3.7014374e-39
-0.65455663 -0.12266445 1.0823334 3.7014374e-39
-0.60156006 -0.15541929 1.0825001 3.7014374e-39
-0.59695935 -0.15303865 1.0825717 3.7014374e-39
-0.65357882 -0.11032572 1.0908002 3.7014374e-39
-0.66803706 -0.11804101 1.1331875 3.7014374e-39
-0.49162793 -0.12797135 0.96485245 3.7014374e-39
-0.22787204 0.032578453 1.0016277 3.7014374e-39
-0.28525546 -0.099767044 1.036262 3.7014374e-39
-0.24892989 -0.092898205 0.87541693 3.7014374e-39
-0.18486784 -0.083613083 0.87227994 3.7014374e-39
-0.24007618 -0.1743619 0.92000002 3.7014374e-39
-0.15026583 0.049233411 0.56084502 3.7014374e-39
-0.27255225 -0.1090261 0.93141669 3.7014374e-39
-0.23920065 -0.16760191 0.91333342 3.7014374e-39
-0.26418188 -0.013448253 0.88725972 3.7014374e-39
-0.33126032 0.0313657 0.95264995 3.7014374e-39
-0.43238091 -0.010468774 1.0263706 3.7014374e-39
-0.41541514 0.0090281814 1.0132312 3.7014374e-39
-2.1810286 1.7584544 4.7710004 1.4752656e-38
-2.203748 1.7766297 4.7710004 1.4752656e-38
-2.1810286 1.7675421 4.7710004 1.4752656e-38
-2.2162647 1.8015792 4.8380003 1.4752656e-38
-2.1978343 1.8015791 4.8380003 1.4752656e-38
-2.2474153 1.8362458 4.9060001 1.4752656e-38
-2.2380705 1.8362458 4.9060001 1.4752656e-38
-2.2751999 1.8723 4.9770002 1.4752656e-38
-2.2893333 1.8901429 5.0500002 1.4752656e-38
-2.2700953 1.9141905 5.0500002 1.4752656e-38
-2.2572701 1.9382381 5.0500002 1.4752656e-38
-2.3282144 1.9328573 5.1250005 1.4752656e-38
-2.3160121 1.9352977 5.1250005 1.4752656e-38
-2.298929 1.9767859 5.1250005 1.4752656e-38
-2.2794049 1.9914289 5.1250005 1.4752656e-38
-2.3681486 1.9718058 5.2020001 1.4752656e-38
-2.3532856 1.9916228 5.2020001 1.4752656e-38
-2.3314869 2.0263031 5.2020001 1.4752656e-38
-2.4129519 2.0138674 5.2820005 1.4752656e-38
-2.3995371 2.0222514 5.2820001 1.4752656e-38
-2.3794153 2.0474038 5.2820001 1.4752656e-38
-2.4929829 2.0689716 5.3640003 1.4752656e-38
-2.4521146 2.0587544 5.3640003 1.4752656e-38
-2.4265716 2.0740802 5.3640003 1.4752656e-38
-2.4163544 2.0945144 5.3640003 1.4752656e-38
-2.6409831 2.0391088 5.4480004 1.4752656e-38
-2.6202288 2.0391088 5.4480004 1.4752656e-38
-2.4957032 2.0979125 5.4480009 1.4752656e-38
-2.4749489 2.1065602 5.4480004 1.4752656e-38
-2.4645717 2.1273146 5.4480004 1.4752656e-38
-2.6620717 2.0716715 5.5350003 1.4752656e-38
-2.5671859 2.113843 5.5350003 1.4752656e-38
-2.5671859 2.1243858 5.5350003 1.4752656e-38
-2.5355573 2.1454716 5.5350003 1.4752656e-38
-2.5144715 2.1560144 5.5350003 1.4752656e-38
-2.7058382 2.1164479 5.6260004 1.4752656e-38
-2.6576154 2.1164479 5.6260004 1.4752656e-38
-2.6629734 2.1378801 5.6260004 1.4752656e-38
-2.6201088 2.1512752 5.6260004 1.4752656e-38
-2.5986762 2.1378801 5.6260004 1.4752656e-38
-2.630825 2.1807449 5.6260004 1.4752656e-38
-2.584388 2.1843171 5.6260009 1.4752656e-38
-2.7669067 2.1514335 5.7190003 1.4752656e-38
-2.7324114 2.1478024 5.7190008 1.4752656e-38
-2.7069938 2.1478024 5.7190008 1.4752656e-38
-2.7723534 2.1623268 5.7190003 1.4752656e-38
-2.7287803 2.1786668 5.7190003 1.4752656e-38
-2.7069936 2.1775777 5.7190003 1.4752656e-38
-2.6670511 2.169589 5.7190008 1.4752656e-38
-2.7396736 2.2059 5.7190003 1.4752656e-38
-2.7106247 2.2240558 5.7190008 1.4752656e-38
-2.6525266 2.22224 5.7190003 1.4752656e-38
-2.6307402 2.2276866 5.7190003 1.4752656e-38
-2.7192047 2.1487808 5.8150001 1.4752656e-38
-2.8225827 2.1949317 5.8150001 1.4752656e-38
-2.7856617 2.1986237 5.8150001 1.4752656e-38
-2.7192047 2.1764715 5.8150001 1.4752656e-38
-2.8078144 2.2263143 5.8150001 1.4752656e-38
-2.7856619 2.2223585 5.8150001 1.4752656e-38
-2.774586 2.2571695 5.8150001 1.4752656e-38
-2.7081285 2.2761571 5.8150001 1.4752656e-38
-2.7690477 2.2872334 5.8150001 1.4752656e-38
-2.7547002 2.1857333 5.9150004 1.4752656e-38
-2.7518835 2.2167168 5.9150004 1.4752656e-38
-2.8561003 2.2477002 5.9150004 1.4752656e-38
-2.8335667 2.2702334 5.9150004 1.4752656e-38
-2.8335667 2.3040338 5.9150004 1.4752656e-38
-2.791317 2.3744502 5.9150004 1.4752656e-38
-2.7885003 2.4054334 5.9150004 1.4752656e-38
-2.7912059 2.2467201 6.0180001 1.4752656e-38
-2.779743 2.355617 6.0180006 1.4752656e-38
-2.7453544 2.355617 6.0180006 1.4752656e-38
-2.8599832 2.4224839 6.0180006 1.4752656e-38
-2.8294153 2.4243944 6.0180006 1.4752656e-38
-2.84852 2.44732 6.0180001 1.4752656e-38
-2.8217733 2.4511411 6.0180006 1.4752656e-38
-2.7224286 2.4645143 6.0180001 1.4752656e-38
-2.6972103 2.4656608 6.0180001 1.4752656e-38
-2.6765771 2.4645143 6.0180001 1.4752656e-38
-2.68804 2.4989028 6.0180001 1.4752656e-38
-2.6765771 2.4989028 6.0180001 1.4752656e-38
-2.8403695 2.2629638 6.1240001 1.4752656e-38
-2.8287048 2.2571313 6.1240001 1.4752656e-38
-2.8462019 2.4087732 6.1240001 1.4752656e-38
-2.8287048 2.4087732 6.1240001 1.4752656e-38
-2.7820458 2.4087732 6.1240001 1.4752656e-38
-2.8636994 2.4587655 6.1240001 1.4752656e-38
-2.7396286 2.4660368 6.1240001 1.4752656e-38
-2.7120571 2.4670973 6.1240001 1.4752656e-38
-2.7843788 2.5044243 6.1240001 1.4752656e-38
-2.7447186 2.4927597 6.1240001 1.4752656e-38
-2.7120571 2.496259 6.1240001 1.4752656e-38
-2.7470515 2.5341697 6.1240001 1.4752656e-38
-2.8562241 2.4619346 6.2350001 1.4752656e-38
-2.8229706 2.4714353 6.2350001 1.4752656e-38
-2.9007595 2.502907 6.2350001 1.4752656e-38
-2.8585994 2.4999382 6.2350001 1.4752656e-38
-2.8239887 2.4982414 6.2350001 1.4752656e-38
-2.9037285 2.5415049 6.2350001 1.4752656e-38
-2.8637815 2.544204 6.2350001 1.4752656e-38
-2.8235645 2.5266595 6.2350001 1.4752656e-38
-2.8235641 2.5801024 6.2350001 1.4752656e-38
-2.9084468 2.5093668 6.3490005 1.4752656e-38
-2.9810069 2.5214601 6.3490005 1.4752656e-38
-2.9366646 2.541616 6.3490005 1.4752656e-38
-2.9084468 2.5214601 6.3490005 1.4752656e-38
-2.9447269 2.5778959 6.3490005 1.4752656e-38
-2.9084468 2.5698335 6.3490005 1.4752656e-38
-2.943383 2.6195505 6.349 1.4752656e-38
-2.8987722 2.6254628 6.3490005 1.4752656e-38
-2.8963535 2.6423936 6.3490005 1.4752656e-38
-2.9876001 2.4270401 6.4680004 1.4752656e-38
-3.0492001 2.5564001 6.4680004 1.4752656e-38
-3.0245605 2.5564001 6.4680004 1.4752656e-38
-3.0492001 2.5687201 6.4680004 1.4752656e-38
-3.0184002 2.5687201 6.4680004 1.4752656e-38
-2.9876001 2.5687203 6.4680004 1.4752656e-38
-2.97528 2.618 6.4680004 1.4752656e-38
-2.97528 2.6796 6.4680004 1.4752656e-38
-2.97528 2.69192 6.4680004 1.4752656e-38
-3.0448763 2.4421792 6.5920005 1.4752656e-38
-3.0982401 2.5897143 6.5920005 1.4752656e-38
-3.0511546 2.6054096 6.5920005 1.4752656e-38
-3.0911999 2.4895999 6.7200003 1.4752656e-38
0.73924977 -0.52676111 1.7460001 6.2382641e-39
0.73392743 -0.51469857 1.7402173 6.2382641e-39
0.69748574 -0.5658524 1.7950001 6.2382641e-39
0.74449766 -0.56499767 1.7950001 6.2382641e-39
0.6949265 -0.55064541 1.7913995 6.2382641e-39
0.73814398 -0.53713864 1.7905 6.2382641e-39
0.76415718 -0.5214048 1.7950001 6.2382641e-39
0.75129271 -0.51159716 1.78075 6.2382641e-39
0.77043569 -0.51370728 1.7937145 6.2382641e-39
0.7158125 -0.57285017 1.8160002 6.2382641e-39
0.73637468 -0.56649017 1.8175777 6.2382641e-39
0.76696366 -0.56593084 1.8182504 6.2382641e-39
0.70317912 -0.53829861 1.8194374 6.2382641e-39
0.73979938 -0.54941952 1.808417 6.2382641e-39
0.78212565 -0.5245111 1.8121822 6.2382641e-39
0.70455348 -0.51488429 1.8260669 6.2382641e-39
0.75768012 -0.5068382 1.8040003 6.2382641e-39
0.78224009 -0.51217598 1.817077 6.2382641e-39
0.80213439 -0.50981998 1.827 6.2382641e-39
0.71789241 -0.57922858 1.8430001 6.2382641e-39
0.72315812 -0.57396287 1.8430001 6.2382641e-39
0.76820922 -0.56577176 1.8430002 6.2382641e-39
0.70029342 -0.53135937 1.8585998 6.2382641e-39
0.75299716 -0.5476343 1.8430001 6.2382641e-39
0.70286268 -0.5081566 1.8681433 6.2382641e-39
0.79736292 -0.50481808 1.8730001 6.2382641e-39
0.80806571 -0.50344592 1.8730006 6.2382641e-39
0.69741714 -0.46133721 1.8698756 6.2382641e-39
0.79803336 -0.52186006 1.8830001 6.2382641e-39
0.81506884 -0.52323109 1.8958 6.2382641e-39
0.6573531 -0.48799932 1.9150002 6.2382641e-39
0.7018041 -0.49797016 1.8882314 6.2382641e-39
0.72271341 -0.51648003 1.8830001 6.2382641e-39
0.79659867 -0.51038271 1.8830003 6.2382641e-39
0.81215441 -0.51074076 1.8870742 6.2382641e-39
0.63650954 -0.47601432 1.9150001 6.2382641e-39
0.65110004 -0.46993494 1.9150001 6.2382641e-39
0.69572002 -0.45900336 1.8937501 6.2382641e-39
0.81381148 -0.64785606 1.9536002 6.2382641e-39
0.81863046 -0.56502289 1.9580001 6.2382641e-39
0.82958335 -0.53350002 1.9250001 6.2382641e-39
0.86156386 -0.53432584 1.9508824 6.2382641e-39
0.63983333 -0.48216668 1.9250001 6.2382641e-39
0.65889126 -0.48761627 1.9278384 6.2382641e-39
0.69882262 -0.48754731 1.9440668 6.2382641e-39
0.63773817 -0.47221428 1.9250002 6.2382641e-39
0.65713108 -0.47227728 1.9257854 6.2382641e-39
0.70494914 -0.47528177 1.9404 6.2382641e-39
0.79593956 -0.69037861 1.9805001 6.2382641e-39
0.8102954 -0.6821506 1.9786253 6.2382641e-39
0.84992003 -0.68107432 1.9920001 6.2382641e-39
0.81700504 -0.66709882 1.9744129 6.2382641e-39
0.84271091 -0.67272681 1.9920002 6.2382641e-39
0.82322955 -0.57194763 1.9690001 6.2382641e-39
0.8612988 -0.58402103 1.9845002 6.2382641e-39
0.86448479 -0.53256762 1.9690001 6.2382641e-39
0.70206046 -0.48741776 1.9690001 6.2382641e-39
0.69721359 -0.47518542 1.9690001 6.2382641e-39
0.78872859 -0.72348106 2.0150001 6.2382641e-39
0.9028374 -0.72938532 2.0157056 6.2382641e-39
0.78969574 -0.70680171 2.0113258 6.2382641e-39
0.80754143 -0.70311564 2.0255001 6.2382641e-39
0.86781061 -0.69211626 2.0212858 6.2382641e-39
0.89682031 -0.70398039 2.0167141 6.2382641e-39
0.92240477 -0.68743432 2.039 6.2382641e-39
0.86110294 -0.67363626 2.0193639 6.2382641e-39
0.88994962 -0.67759717 2.0270002 6.2382641e-39
0.87395442 -0.6080848 2.0270002 6.2382641e-39
0.88372147 -0.60641909 2.0150001 6.2382641e-39
0.83490133 -0.58818257 2.003 6.2382641e-39
0.8615905 -0.59414667 2.006 6.2382641e-39
0.71917236 -0.53413332 2.003 6.2382641e-39
0.72782171 -0.52775246 2.0220587 6.2382641e-39
0.71940768 -0.50895238 2.0090001 6.2382641e-39
0.72906673 -0.51477551 2.0225003 6.2382641e-39
0.65713108 -0.47227728 1.9257854 6.2382641e-39
0.8139922 -0.70092726 2.0531821 6.2382641e-39
0.90536475 -0.68828094 2.0590384 6.2382641e-39
0.92550141 -0.68721503 2.0585389 6.2382641e-39
0.87569147 -0.67586291 2.0570002 6.2382641e-39
0.88980615 -0.67292559 2.06075 6.2382641e-39
0.92646855 -0.67125243 2.0704288 6.2382641e-39
0.8770467 -0.61530006 2.0510001 6.2382641e-39
0.88321859 -0.62109482 2.0540001 6.2382641e-39
0.91291016 -0.68332487 2.0935717 6.2382641e-39
0.9291786 -0.68727946 2.0917144 6.2382641e-39
0.9131608 -0.65110934 2.1036 6.2382641e-39
0.92235059 -0.67196721 2.0937779 6.2382641e-39
0.86335808 -0.72811711 2.1514707 6.2382641e-39
0.86518717 -0.70891845 2.1464999 6.2382641e-39
0.88375527 -0.71151531 2.1530001 6.2382641e-39
0.91879785 -0.65730506 2.1367502 6.2382641e-39
0.92562932 -0.66779751 2.1486669 6.2382641e-39
0.91246194 -0.6253953 2.1530001 6.2382641e-39
0.86336035 -0.72233337 2.1670001 6.2382641e-39
0.88124669 -0.72439712 2.1670001 6.2382641e-39
0.86060858 -0.71511 2.1670001 6.2382641e-39
0.93773621 -0.68888158 2.1896667 6.2382641e-39
0.93157661 -0.67252135 2.1785715 6.2382641e-39
0.94137919 -0.68623245 2.2080002 6.2382641e-39
0.93997723 -0.67922294 2.2080002 6.2382641e-39
0.93301648 -0.74310416 2.2660003 6.2382641e-39
0.95222324 -0.76163089 2.3270001 6.2382641e-39
0.98239297 -0.76778722 2.3470001 6.2382641e-39
0.9683134 -0.75712675 2.3590002 6.2382641e-39
0.98899609 -0.77109408 2.3832729 6.2382641e-39
1.0123912 -0.7704072 2.3909333 6.2382641e-39
0.99450421 -0.75664014 2.3786669 6.2382641e-39
1.0152712 -0.75748581 2.3813338 6.2382641e-39
0.99285984 -0.77456671 2.4132502 6.2382641e-39
1.0038301 -0.78280956 2.4175 6.2382641e-39
0.99534798 -0.7840867 2.4430001 6.2382641e-39
1.0032114 -0.78954285 2.46 6.2382641e-39
0.94137919 -0.68623245 2.2080002 6.2382641e-39
