# .PCD v0.7 - Point Cloud Data file format
VERSION 0.7
FIELDS x y z rgb
SIZE 4 4 4 4
TYPE F F F F
COUNT 1 1 1 1
WIDTH 284
HEIGHT 1
VIEWPOINT 0 0 0 1 0 0 0
POINTS 284
DATA ascii
-0.0071235131 -0.056247514 0.59630883 5.7183319e-39
0.0058408049 -0.055739757 0.59673941 4.8871475e-39
-0.063776277 -0.12182541 0.62468565 2.1478346e-38
0.010373228 -0.12076689 0.61655563 2.0832975e-38
-0.080855563 -0.10638952 0.63833338 2.1571262e-38
-0.056527559 -0.10600808 0.61828655 2.0558196e-38
-0.022659302 -0.094431788 0.61534315 1.3557837e-38
0.017853295 -0.096332207 0.61434191 1.300142e-38
0.064176999 -0.084541634 0.62041068 1.9726633e-38
0.081477925 -0.081909962 0.62363642 1.9724466e-38
-0.016346715 -0.069776475 0.61590046 6.7440389e-39
0.022833204 -0.060182475 0.62442333 7.0152098e-39
0.058520038 -0.062359285 0.62394434 1.0605423e-38
0.081892692 -0.072448842 0.61969715 1.9081263e-38
-0.0018109205 -0.036820073 0.63373333 6.8257514e-39
0.029305631 -0.031893391 0.62078172 1.5119017e-38
0.050829824 -0.026973637 0.60208976 1.9633709e-38
0.097493172 -0.015222612 0.6386801 2.0093248e-38
-0.084118962 -0.11264389 0.64403397 2.1570902e-38
-0.079847619 -0.11276191 0.64000005 2.1662374e-38
-0.034949023 -0.081563137 0.65729409 6.1937602e-39
0.035617001 -0.081742719 0.64384621 4.250085e-39
-0.040980957 -0.077548578 0.66200006 4.253315e-39
-0.026312934 -0.062288933 0.66427261 5.2627586e-39
0.024603706 -0.066217676 0.6427778 6.3673293e-39
0.072830781 -0.04438138 0.64420694 8.2065335e-39
0.083975121 -0.041464873 0.64752948 1.1885686e-38
-0.057450224 -0.0077697798 0.67547286 1.1877015e-38
-0.010438292 -0.018601803 0.66978824 1.3261041e-38
0.010466193 -0.020458756 0.66519296 1.8158586e-38
0.072667941 -0.022376852 0.6448589 2.0647502e-38
0.097354427 -0.017956879 0.64283395 2.0001052e-38
-0.056682441 0.019361556 0.67144227 1.4824398e-38
-0.020510472 0.01909427 0.67277479 1.5196785e-38
0.0047282381 0.013409459 0.67628545 2.0736094e-38
0.099780098 0.0020390647 0.64115238 2.0093608e-38
-0.056381717 0.046395861 0.67736977 1.3258156e-38
-0.030686656 0.043548297 0.67819798 1.4733642e-38
0.19078688 0.27053571 0.67442334 9.572487e-39
0.21932116 0.26670384 0.6709525 1.2245083e-38
0.25316799 0.27055737 0.67361325 1.7315838e-38
0.18644589 0.29078126 0.67225498 8.6519698e-39
0.21901873 0.28901434 0.66422766 1.0219296e-38
0.25991309 0.2903868 0.67046243 1.574851e-38
0.28199768 0.2950018 0.67827296 1.7407669e-38
-0.05105814 -0.053639039 0.68976623 7.0054007e-39
-0.032529976 -0.053004 0.69882429 6.1782058e-39
-0.0566127 -0.025407132 0.68569094 1.1231289e-38
-0.028438428 -0.021136947 0.69923091 1.169155e-38
0.019606292 -0.0042514093 0.68227088 2.1477983e-38
-0.0804381 0.038584765 0.68666673 1.1234519e-38
-0.076429576 0.025522389 0.68236154 1.1877741e-38
-0.010855611 0.031476103 0.68186885 1.9076568e-38
0.012043802 0.014145426 0.6826967 2.1478343e-38
-0.084630199 0.065684453 0.69155467 1.049588e-38
-0.060629472 0.064765789 0.68378061 1.3443626e-38
-0.02558239 0.060131177 0.68886346 1.8058455e-38
-0.089814626 0.10198887 0.69676602 9.4817305e-39
-0.060068998 0.099884078 0.69146562 1.4364859e-38
-0.03215782 0.098319799 0.70486075 1.824213e-38
-0.095295846 0.1415665 0.70202005 9.2973407e-39
-0.059855647 0.13993077 0.69815493 1.4640368e-38
-0.036022175 0.13481955 0.7153753 1.7131461e-38
-0.097623713 0.1796502 0.70539862 9.3898992e-39
-0.059896965 0.17968796 0.70462 1.4363786e-38
-0.038933616 0.16854925 0.71899998 1.7771772e-38
-0.09400627 0.21729654 0.71179169 8.5605029e-39
-0.063081816 0.21821328 0.71140081 1.2153251e-38
0.19458848 0.23791239 0.7144286 1.1784091e-38
0.22089899 0.23555508 0.71060073 1.344289e-38
0.2512393 0.23616911 0.71217 1.639207e-38
-0.086054601 0.24445795 0.71798092 7.824014e-39
-0.070866011 0.2453559 0.71748656 9.0211195e-39
0.15281639 0.27115723 0.70952904 1.0678466e-38
0.1786477 0.25792119 0.69726866 1.0955052e-38
0.22006184 0.2471794 0.69034761 1.353509e-38
0.26246136 0.25360966 0.69309223 1.8328545e-38
0.29460281 0.26580378 0.70245767 2.0819271e-38
0.32177889 0.27762875 0.71683335 2.0817473e-38
0.1446183 0.29786792 0.70353782 9.2966176e-39
0.16692747 0.29242328 0.68466902 9.020751e-39
0.27953428 0.28147906 0.68099999 1.9346301e-38
0.30250004 0.29424497 0.6904853 1.8789884e-38
0.33613151 0.3028335 0.70797384 1.7592422e-38
0.36086956 0.31019717 0.71900004 1.7778618e-38
0.12793049 0.32085556 0.71833342 8.6519642e-39
0.35644221 0.32088637 0.71333337 1.5748519e-38
-0.11707995 0.15087789 0.7222144 1.4181209e-38
-0.033172399 0.14466561 0.72208464 1.8062788e-38
-0.12289928 0.18772633 0.72676814 1.1689399e-38
-0.11804809 0.18089083 0.7212593 9.9430674e-39
-0.04067678 0.19251709 0.72015399 1.8048364e-38
-0.033332754 0.18177953 0.72904468 1.5931109e-38
0.21630071 0.19996762 0.75800008 1.4363049e-38
-0.12263194 0.21852769 0.73178875 9.2980637e-39
-0.11181718 0.22522318 0.72393674 9.0221999e-39
-0.044655588 0.22560734 0.72350341 1.5561966e-38
-0.029524153 0.22232626 0.73733264 1.5376849e-38
0.0034032655 0.23853795 0.75800002 1.1507511e-38
0.15119982 0.22861661 0.75263298 1.1599702e-38
0.18108159 0.22338602 0.74271655 1.2336185e-38
0.21905817 0.21699047 0.73918843 1.3994266e-38
0.25948706 0.22146752 0.73868966 1.7312946e-38
0.29434073 0.23097725 0.74543375 1.9710395e-38
-0.12407966 0.25857374 0.7513057 9.2033584e-39
-0.099966846 0.26096612 0.73228282 7.9162139e-39
-0.057869185 0.26230145 0.72908884 1.0310419e-38
-0.019929066 0.26010796 0.74954456 1.058556e-38
0.01132334 0.25981605 0.75596929 1.1047256e-38
0.11792489 0.2766611 0.75675011 9.1122277e-39
0.14018342 0.25988767 0.73980165 1.0678107e-38
0.1674927 0.24538843 0.7270326 1.1598975e-38
0.27862859 0.24114287 0.72000003 1.869984e-38
0.3064822 0.25094035 0.73125309 2.0910023e-38
0.3378115 0.26424354 0.74450099 1.9436694e-38
0.36819676 0.27282104 0.75316757 1.5565915e-38
-0.12091905 0.28298667 0.75800002 8.4701093e-39
-0.096338294 0.29275918 0.7480222 7.0875364e-39
-0.058688205 0.29813945 0.74302828 7.823298e-39
-0.02218839 0.29531133 0.74944139 8.7434522e-39
0.0069139735 0.28486872 0.75564182 9.2040674e-39
0.11182441 0.30378371 0.74547696 8.8352793e-39
0.12668112 0.2955991 0.72899973 9.5724842e-39
0.34845868 0.29009527 0.7291429 1.8146315e-38
0.36620322 0.29139271 0.73791951 1.5841784e-38
-0.060102772 0.32278731 0.75745445 6.2581317e-39
0.10442732 0.32665801 0.74423897 7.9147635e-39
0.12287684 0.32183242 0.72283334 8.4675828e-39
0.15656002 0.15833335 0.79800004 1.4270138e-38
0.16735201 0.15868804 0.79799998 1.5005903e-38
-0.011465587 0.19484772 0.79180491 1.2058526e-38
0.021948528 0.18922363 0.78785688 1.2887926e-38
0.059651691 0.18758531 0.78826928 1.4361978e-38
0.096849963 0.1911145 0.79330724 1.3717326e-38
0.14273697 0.18336597 0.78761023 1.2427669e-38
0.17975281 0.18098924 0.78051406 1.4361974e-38
0.21891858 0.18382119 0.77894354 1.5836022e-38
0.25627998 0.19006076 0.7841323 1.7955441e-38
0.2898902 0.19675261 0.79388726 1.8325303e-38
-0.014520947 0.21879525 0.77148497 1.0859622e-38
0.019896109 0.21973798 0.76769149 1.1783019e-38
0.059564371 0.2195313 0.77199107 1.2981565e-38
0.099968955 0.22021988 0.7838878 1.0955059e-38
0.13564934 0.21708438 0.77361679 1.0770663e-38
0.17453146 0.20382743 0.76219338 1.2980837e-38
0.22886641 0.2016855 0.76056004 1.5468314e-38
0.26541936 0.2046704 0.76668948 1.8417494e-38
0.302219 0.21405113 0.77735543 1.915614e-38
0.33727315 0.22704951 0.78162175 1.9801875e-38
0.37303025 0.23575032 0.79104334 1.8881713e-38
0.40052003 0.23940001 0.79800004 1.8237063e-38
-0.13090429 0.2730608 0.76927787 1.630745e-38
0.029964669 0.2591528 0.76110214 1.0310051e-38
0.059797142 0.2594341 0.77049112 9.0200321e-39
0.10239978 0.26051122 0.78031564 7.1779202e-39
0.12508075 0.2506308 0.76495349 9.0203908e-39
0.34873882 0.24825107 0.7657544 1.9158666e-38
0.37731695 0.25301936 0.77426565 1.7592058e-38
0.4000181 0.24061811 0.79700005 1.8421094e-38
-0.1281285 0.29080671 0.77056485 1.3264645e-38
-0.10373776 0.30854812 0.76355845 7.0875378e-39
-0.077198483 0.31792003 0.7604 6.2584946e-39
-0.012365899 0.31315741 0.76318294 6.6243933e-39
0.020944314 0.29946876 0.77048075 6.808423e-39
0.057240661 0.2959123 0.78514898 5.6105987e-39
0.095742263 0.29853082 0.77822244 6.4407153e-39
-0.090020984 0.32350856 0.76806968 6.4428901e-39
-0.061091114 0.32512408 0.76242626 6.0741048e-39
0.078261681 0.34177399 0.79497969 5.4287241e-39
0.08644934 0.33196664 0.7751112 6.4414369e-39
0.38927749 -0.0040320982 0.83618337 6.724516e-39
0.41039655 -0.0092776511 0.83577287 1.0406579e-38
0.3587724 0.036756195 0.83900005 1.1323489e-38
0.38325596 0.022985036 0.83318269 1.0034553e-38
0.40781611 0.024568342 0.82683223 9.8548458e-39
0.35344839 0.066320904 0.83253694 1.0310772e-38
0.37865108 0.059193715 0.8210178 1.1324931e-38
0.40599799 0.058843203 0.81973678 1.1508604e-38
0.35193598 0.098703697 0.83023 7.7329002e-39
0.37904161 0.10066501 0.81595546 7.4592e-39
0.40493837 0.097815 0.81540591 1.0220391e-38
0.066123843 0.15622151 0.83200753 1.4086102e-38
0.10280412 0.14873846 0.82532316 1.3809159e-38
0.14059864 0.14376073 0.82014269 1.4546724e-38
0.17900246 0.14434759 0.81767237 1.6297714e-38
0.21669583 0.15160619 0.82306397 1.657394e-38
0.24587406 0.15760368 0.83233345 1.6020404e-38
0.35543627 0.12817764 0.83352083 6.719107e-39
0.379987 0.1372305 0.82167339 6.3528496e-39
0.404614 0.13757901 0.81551689 7.6461248e-39
-0.013156937 0.18732917 0.80723131 9.0243677e-39
0.021073215 0.17314269 0.813914 1.4087199e-38
0.059665956 0.16769724 0.8130421 1.4453809e-38
0.1014794 0.17204916 0.80587089 1.3256348e-38
0.13018627 0.16700725 0.80270612 1.2980123e-38
0.19450784 0.16171969 0.80055565 1.6481393e-38
0.22358693 0.16389325 0.80579585 1.6573227e-38
0.26229838 0.1722983 0.81635505 1.685053e-38
0.29850546 0.18351699 0.81884354 1.7404784e-38
0.33121824 0.19299491 0.8304283 1.9894428e-38
0.36196861 0.19896287 0.83900011 1.8511137e-38
0.31614032 0.20257397 0.80266678 1.9524566e-38
0.34460628 0.20872648 0.81592423 1.9617122e-38
0.37998214 0.21960521 0.8189621 1.8880637e-38
0.40843305 0.22513761 0.82587439 1.7682816e-38
0.07634145 0.31374842 0.81266671 3.1260054e-39
0.082869306 0.30383602 0.80322254 3.3103925e-39
0.072430164 0.33871797 0.81374252 3.8642837e-39
0.070056878 0.36195293 0.81357151 4.6933199e-39
0.38898525 -0.052344449 0.8711713 3.7760608e-39
0.41385761 -0.055742659 0.85948879 3.6838707e-39
0.35518065 -0.0067684874 0.87391156 4.146288e-39
0.37879264 -0.020243607 0.85955161 6.26174e-39
0.41139042 -0.029431574 0.8477878 1.0127461e-38
0.34944215 0.024173418 0.86161083 9.1147543e-39
0.36779708 0.012354315 0.84688205 1.0955421e-38
0.33843556 0.058647808 0.85677588 9.7590405e-39
0.1461076 0.11709639 0.85862041 1.4915508e-38
0.17282054 0.11703926 0.85794526 1.5561963e-38
0.31581336 0.11122376 0.87564844 1.1600059e-38
0.33301184 0.10045379 0.85777009 8.8374415e-39
0.037482858 0.15929525 0.84333336 2.009432e-38
0.06457635 0.15037344 0.85011113 1.4455251e-38
0.099096775 0.13489039 0.85080403 1.4362693e-38
0.13745797 0.1241547 0.8484683 1.5008418e-38
0.18220749 0.12500624 0.8493697 1.6113682e-38
0.21750213 0.14037558 0.84850973 1.5284279e-38
0.26199907 0.15427342 0.8589893 1.3902066e-38
0.30511171 0.14499854 0.86901265 1.1876643e-38
0.33840227 0.14031941 0.85711485 9.8494284e-39
0.36480558 0.15327892 0.85074621 9.8479837e-39
0.038445715 0.16099143 0.84100002 1.6391743e-38
0.044261903 0.16014762 0.84500003 1.4731449e-38
0.27378044 0.16226953 0.84621418 1.463927e-38
0.30356076 0.16622134 0.85033548 1.4639991e-38
0.34210587 0.17676872 0.85285264 1.7405863e-38
0.37521973 0.18262552 0.86234635 1.8881352e-38
0.40458432 0.18763857 0.86570007 1.7041413e-38
0.3895162 0.20383777 0.84832543 1.8880634e-38
0.41793603 0.20901172 0.85906452 1.7590619e-38
0.44083336 0.20750001 0.87500006 1.6945611e-38
-0.043485407 0.37582067 0.87417936 5.3361824e-39
-0.019351466 0.37642175 0.86872166 2.4842415e-39
0.013476265 0.38237697 0.8735829 1.0123527e-39
0.35183045 -0.047042564 0.90012395 3.0395803e-39
0.37370831 -0.057509158 0.88768446 3.2239716e-39
0.31862336 -0.004687415 0.9080714 1.0489773e-38
0.34273365 -0.019493546 0.89657521 4.9713627e-39
0.36265144 -0.032531668 0.88144988 3.223966e-39
0.31453401 0.02268252 0.90520376 1.1230209e-38
0.3334586 0.016735628 0.89309281 1.012602e-38
0.31517115 0.062699847 0.90367168 1.1692622e-38
0.32374308 0.05865933 0.88712692 1.1230565e-38
0.30679581 0.10092741 0.89683199 1.1969202e-38
0.32143572 0.085524946 0.88166672 1.1324194e-38
0.23438081 0.14358312 0.90894455 1.3441813e-38
0.26118422 0.14198585 0.89723516 1.3258502e-38
0.2929801 0.13241707 0.89151621 1.2245425e-38
0.39700544 0.18921956 0.88684213 1.9708946e-38
0.41554889 0.1939625 0.89618731 1.768173e-38
0.45187899 0.19895722 0.91164875 1.5102776e-38
0.43010196 0.20259434 0.889889 1.6760495e-38
0.44659287 0.2032951 0.89490741 1.602365e-38
0.0083809523 0.35954288 0.88000005 4.8755588e-39
-0.0080000013 0.36645073 0.8799997 4.9670369e-39
0.023578238 0.37543598 0.89005995 1.7477569e-39
0.042842593 0.38453007 0.89966667 1.4733336e-39
0.3381719 -0.043464135 0.92133337 3.7757048e-39
0.33102319 -0.026766337 0.92698687 3.5920324e-39
0.31255281 0.028343532 0.93854207 6.4475676e-39
0.31022492 0.058004439 0.93050569 8.749929e-39
0.27769417 0.11800179 0.92637503 1.2795722e-38
0.29680887 0.10139018 0.92661339 1.1602227e-38
0.22791527 0.13360219 0.92924964 1.3811335e-38
0.25958762 0.13012026 0.92754483 1.3074835e-38
0.2843706 0.12399773 0.92386675 1.242946e-38
0.43349674 0.19228737 0.92759985 1.6759415e-38
0.4497152 0.19513515 0.92319274 1.5102416e-38
-0.086054601 0.24445795 0.71798092 7.824014e-39
0.035137754 0.22122101 0.90539575 1.4646855e-38
-0.10226537 0.1917643 0.95611852 1.5386586e-38
-0.082176007 0.15556692 0.99815387 1.4835213e-38
-0.081342131 0.0632594 1.0645516 1.1886402e-38
0.074297346 0.22469011 0.69156897 1.1511122e-38
