# .PCD v0.7 - Point Cloud Data file format
VERSION 0.7
FIELDS x y z rgb
SIZE 4 4 4 4
TYPE F F F F
COUNT 1 1 1 1
WIDTH 300
HEIGHT 1
VIEWPOINT 0 0 0 1 0 0 0
POINTS 300
DATA ascii
-0.29529688 0.15611419 0.53861696 1.2349178e-38
-0.32154649 0.18235439 0.53299993 9.3077957e-39
-0.29882336 0.18545026 0.53842586 1.0045005e-38
-0.2686716 0.19337389 0.55261868 1.0781128e-38
-0.32549864 0.21691917 0.54694194 8.5709482e-39
-0.30193689 0.21244323 0.54217964 8.2943669e-39
-0.27012762 0.20928539 0.55303842 8.5705978e-39
-0.062306959 -0.12718746 0.59685695 1.0153463e-38
-0.12326588 -0.083453275 0.58339995 4.1459769e-39
-0.1124066 -0.085347176 0.58535486 1.060471e-38
-0.062278319 -0.11387175 0.59650004 6.7429501e-39
-0.12699622 -0.061154995 0.58858895 6.7249014e-39
-0.10541054 -0.066459857 0.58618224 6.9168681e-39
-0.0683873 -0.056180555 0.58206916 5.5321414e-39
-0.13275084 -0.026091451 0.59472108 5.0679094e-39
-0.093859516 -0.010336849 0.59085441 5.532856e-39
-0.07806506 -0.0078912163 0.5931111 8.9462621e-39
-0.092482492 0.0050625037 0.59302723 4.6080131e-39
-0.079158098 0.0018402382 0.59475005 1.0410197e-38
-0.24979067 0.19554722 0.56495422 1.2532845e-38
-0.23526157 0.19825707 0.57334685 1.28098e-38
-0.28387791 0.23059542 0.56019574 6.3589789e-39
-0.2563917 0.22140306 0.56908423 8.754629e-39
-0.22482783 0.22229722 0.58378178 9.9528162e-39
-0.24606284 0.24055809 0.57800001 9.5894203e-39
-0.23084113 0.24136887 0.58366668 7.0011141e-39
-0.063809521 -0.13250792 0.59999996 1.7156327e-38
-0.088635989 -0.091920957 0.60831803 7.1106508e-39
-0.068235248 -0.097045183 0.60772437 8.4017498e-39
-0.1243168 -0.048805185 0.61785126 7.1985052e-39
-0.099159695 -0.058118373 0.60527384 5.0816197e-39
-0.072737895 -0.077299692 0.61267346 1.3105864e-38
-0.16818929 -0.005213446 0.63094115 1.27997e-38
-0.13978904 -0.010120711 0.60925615 8.3797354e-39
-0.10156466 -0.025556693 0.61013097 5.9052497e-39
-0.074010678 -0.023138616 0.63061953 1.5839646e-38
-0.16727725 0.0018807882 0.62979317 1.1141615e-38
-0.13578753 0.019266447 0.61264169 7.3836182e-39
-0.11478617 0.0087785609 0.61509788 5.8180973e-39
-0.14557104 0.0506269 0.62209934 9.9629224e-39
-0.08154802 -0.0046150875 0.65415788 8.189568e-39
-0.067348011 -0.0093032233 0.64775091 1.5196072e-38
-0.16945384 0.018511575 0.6575914 1.2709298e-38
-0.13082206 0.027445583 0.66358477 1.0218584e-38
-0.098183915 0.024449499 0.65868664 9.2080359e-39
-0.070338994 0.017147489 0.6612823 1.6579e-38
-0.1331957 0.062494382 0.66103762 1.160152e-38
-0.10323132 0.057406403 0.66520375 1.3720932e-38
-0.077556945 0.045697503 0.66685307 1.8150286e-38
-0.13471363 0.089530446 0.6755144 1.0772834e-38
-0.11337094 0.086095177 0.67640948 1.2982648e-38
0.19777036 0.23913418 0.67862499 1.1507865e-38
0.21784064 0.23910126 0.67796582 1.3811674e-38
0.15946801 0.27716133 0.67900002 9.5735688e-39
0.18378997 0.26332211 0.66891468 9.6654001e-39
0.21947888 0.25898612 0.66200304 1.2337993e-38
0.25752521 0.26275173 0.66780919 1.7500584e-38
0.28626946 0.27403075 0.67534018 1.9805839e-38
0.15904616 0.29342347 0.67893958 8.4682961e-39
0.17875116 0.28950742 0.66683334 8.2839048e-39
0.21951456 0.28705192 0.6547612 9.482448e-39
0.26047444 0.28841925 0.66103417 1.4273737e-38
0.29428005 0.29191214 0.6737352 1.66701e-38
-0.089273199 0.071892172 0.6861276 1.6763031e-38
-0.13743876 0.10815908 0.6843881 1.0772472e-38
-0.10036086 0.1020032 0.69279355 1.491767e-38
-0.13756986 0.13988523 0.69509304 9.8515962e-39
-0.10334514 0.13962221 0.70222622 1.5193537e-38
-0.13697143 0.1794529 0.70662522 9.2062296e-39
-0.10445088 0.17961599 0.70750529 1.3627657e-38
-0.13074893 0.21315445 0.71380687 8.5615819e-39
-0.10712276 0.21488327 0.71400136 1.0772118e-38
0.15818 0.23898192 0.71900004 1.2243264e-38
0.18525529 0.23255742 0.70464879 1.1876643e-38
0.2203092 0.22809893 0.69864678 1.3719476e-38
0.2575568 0.22983731 0.70230591 1.7222191e-38
0.28720006 0.23463751 0.71303982 1.9895867e-38
0.14759368 0.26420176 0.70195013 1.0863215e-38
0.17121735 0.2492132 0.68997926 1.1231636e-38
0.23702857 0.24026667 0.68000001 1.5839615e-38
0.26661441 0.24546139 0.68546677 1.8790598e-38
0.29947844 0.25942135 0.69670552 2.1004018e-38
0.33051315 0.27303159 0.71100986 1.9898392e-38
0.11811253 0.31283146 0.71732426 8.7441669e-39
0.13794701 0.29593769 0.69812196 9.1125851e-39
0.31358373 0.29180264 0.68433976 1.713072e-38
0.33792439 0.29459411 0.69851363 1.6763378e-38
0.11687588 0.3205578 0.71766675 8.3775368e-39
-0.084218234 0.14488664 0.727171 1.5746715e-38
-0.078238398 0.15530489 0.73726094 1.4828385e-38
-0.15522528 0.19107379 0.72145462 9.3906223e-39
-0.084703267 0.18077755 0.72576743 1.6851619e-38
-0.074313775 0.18409145 0.74382353 1.5561234e-38
0.15521954 0.19866124 0.75770015 1.2888642e-38
0.1843244 0.1950015 0.75330937 1.3349257e-38
0.2198599 0.19361275 0.75047857 1.4547078e-38
0.25292954 0.19587192 0.75223619 1.7220029e-38
-0.14369765 0.22555688 0.72681206 9.2065926e-39
-0.091306657 0.22433223 0.72534972 1.2798617e-38
-0.071524702 0.22061695 0.74318165 1.4824393e-38
0.14542221 0.2245165 0.74526721 1.1968485e-38
0.17758842 0.2152369 0.73528433 1.2521294e-38
0.21868579 0.20912375 0.73048371 1.3994982e-38
0.26120171 0.2105366 0.73373419 1.7405139e-38
0.29943329 0.22222891 0.74015039 1.9618917e-38
0.33472604 0.23259167 0.75167376 1.9620002e-38
0.36023048 0.23895048 0.75800002 1.7684252e-38
-0.13394693 0.25764805 0.73811412 8.5615847e-39
-0.099275276 0.25942147 0.73387557 8.5612218e-39
-0.070389226 0.25801849 0.74854249 1.1047977e-38
0.11479121 0.26796696 0.74865359 9.7579517e-39
0.13209458 0.25523233 0.73433208 1.095577e-38
0.31388 0.24497724 0.72480601 2.1188049e-38
0.34306243 0.25694942 0.7342391 1.8515095e-38
0.36743525 0.25750586 0.74461848 1.5657752e-38
-0.12679814 0.28483179 0.75253499 7.6407074e-39
-0.097609088 0.29176593 0.75078499 7.0871721e-39
-0.074965 0.29038984 0.75559068 8.0073263e-39
0.10676333 0.30093914 0.73844045 9.1125837e-39
0.12180603 0.28693199 0.72222215 9.9423429e-39
0.3578319 0.28252599 0.72208345 1.7133235e-38
0.36244568 0.28233761 0.72506255 1.611909e-38
0.097050451 0.32627928 0.74343663 7.822928e-39
0.14845945 0.15601529 0.79477996 1.4177941e-38
0.17793986 0.15492582 0.79341418 1.5468676e-38
0.20999216 0.1575072 0.79545605 1.6020771e-38
-0.0056210794 0.19762011 0.79726696 1.2334755e-38
0.022313504 0.19390222 0.79343486 1.2980841e-38
0.060674034 0.19104035 0.79251444 1.3717685e-38
0.10334173 0.18686381 0.79447049 1.1507869e-38
0.1401837 0.18015923 0.78004926 1.2889003e-38
0.17927043 0.17585526 0.77337635 1.417794e-38
0.21990281 0.17409058 0.77621579 1.5652347e-38
0.26012316 0.18205878 0.77912271 1.7587733e-38
0.29714623 0.19104359 0.78526241 1.7957957e-38
0.32662839 0.19733976 0.79287505 1.9247976e-38
-0.054049511 0.22426148 0.78011841 1.1229842e-38
-0.018845474 0.22177477 0.78485274 1.1138367e-38
0.019985544 0.21961036 0.77930707 1.1599706e-38
0.059987087 0.21989319 0.77887481 1.1600427e-38
0.10158992 0.22024241 0.78409618 9.4817263e-39
0.12989058 0.21260673 0.76640612 1.1600062e-38
0.27903333 0.20075905 0.76100004 1.8143428e-38
0.30489904 0.20534402 0.76786011 1.8788073e-38
0.3419652 0.21568994 0.77547896 1.9249777e-38
0.37539089 0.22489978 0.77943099 1.8328903e-38
0.40018544 0.22097462 0.79733342 1.8327819e-38
-0.050781302 0.26108158 0.77133995 8.7438081e-39
-0.020094601 0.2597515 0.76849198 9.9419884e-39
0.019563558 0.25935742 0.77107853 9.0203922e-39
0.059687868 0.25941333 0.77693927 7.8225679e-39
0.099264987 0.258903 0.77824283 7.1786376e-39
0.12087619 0.2417524 0.76000005 9.8497872e-39
0.37549961 0.2424738 0.76051432 1.6579346e-38
-0.1247219 0.29800901 0.76310354 7.4566791e-39
-0.099872202 0.31123918 0.76548839 6.627996e-39
-0.056734379 0.30041668 0.76470602 7.5467083e-39
-0.020173725 0.29870391 0.76903898 6.9013403e-39
0.019978961 0.29860914 0.78081369 5.6120378e-39
0.059734896 0.29686606 0.78937805 4.8748343e-39
0.089212447 0.29729316 0.77577943 6.9942464e-39
-0.0958362 0.32690346 0.77858323 8.7466934e-39
-0.060983278 0.32695106 0.77409959 6.6283575e-39
-0.022819517 0.32592443 0.78448802 2.9437777e-39
0.01405184 0.32246616 0.79427475 1.8395924e-39
0.075280271 0.3362256 0.78740096 5.5212785e-39
0.083294176 0.33049211 0.76535428 6.8102181e-39
0.39667007 -0.041436329 0.83900011 9.4838843e-39
0.41163552 -0.051677857 0.83635211 5.524175e-39
0.38522437 -0.015510017 0.82642925 8.4722659e-39
0.40695381 -0.02387777 0.82667106 1.0958304e-38
0.35294756 0.028055806 0.83493614 1.0955424e-38
0.37946165 0.019775523 0.82317752 1.0587726e-38
0.40516812 0.021561131 0.81829232 9.5778974e-39
0.34785226 0.061302878 0.82896501 9.8508746e-39
0.37880859 0.06028172 0.81335771 1.0865391e-38
0.40356779 0.058751136 0.8122474 9.6661288e-39
0.13983335 0.1190581 0.83900005 1.5286077e-38
0.34677693 0.099150233 0.82697457 7.0886098e-39
0.37890419 0.10072108 0.80975807 7.4595601e-39
0.40299469 0.096790694 0.80969429 1.0405857e-38
0.068895526 0.15410659 0.82929283 1.3902431e-38
0.10198795 0.14492212 0.82155734 1.3994269e-38
0.13907148 0.13811342 0.81741703 1.4823667e-38
0.17909247 0.13751614 0.81758779 1.6482462e-38
0.21940558 0.1487392 0.81769866 1.6021485e-38
0.25731853 0.15463792 0.82690853 1.5377194e-38
0.28962058 0.15796381 0.83460885 1.4732907e-38
0.35115796 0.12914951 0.83179814 6.9031368e-39
0.37850741 0.13436121 0.8184607 6.3528524e-39
0.40434024 0.13353208 0.81488609 8.936858e-39
-0.013434988 0.1919494 0.81308955 1.2888647e-38
0.020911332 0.17885859 0.81503129 1.3901715e-38
0.058794949 0.17138168 0.81351215 1.3993907e-38
0.095759273 0.1693752 0.80447227 1.2889003e-38
0.12266667 0.16076192 0.80000007 1.3257423e-38
0.23679297 0.16157201 0.80100006 1.6297719e-38
0.26330662 0.16538103 0.80819827 1.6575019e-38
0.30123222 0.17181751 0.81632704 1.7037439e-38
0.33863315 0.18527213 0.8224588 1.9065743e-38
0.37522346 0.19319312 0.82832891 1.8512574e-38
0.40429014 0.19825703 0.83687496 1.8511133e-38
-0.049394254 0.21209922 0.8110072 1.1230206e-38
-0.031181691 0.20413034 0.80703259 1.2150719e-38
0.3527596 0.20247735 0.80451071 1.8972827e-38
0.38341364 0.20711535 0.8103506 1.8696963e-38
0.408564 0.20801201 0.82411319 1.7959401e-38
0.066127762 0.31172031 0.80309755 2.9437735e-39
0.079999998 0.30095237 0.80000001 3.7710063e-39
-0.016780952 0.33642 0.801 9.2051857e-40
0.021491999 0.32510951 0.8002001 1.1041882e-39
0.067792699 0.33806977 0.80983317 3.2207164e-39
0.066602387 0.3607443 0.80850005 3.0359734e-39
0.38692707 -0.08290422 0.86885715 3.9629772e-39
0.41561303 -0.085744143 0.86133337 5.1604441e-39
0.35445827 -0.050410818 0.87313282 2.9473833e-39
0.38138568 -0.058556683 0.85821539 3.9604506e-39
0.40930751 -0.0688245 0.84669584 3.4090831e-39
0.34897846 -0.017477849 0.86476254 4.6969338e-39
0.37068996 -0.025853785 0.84875947 6.1702605e-39
0.3175011 0.035598852 0.87573695 1.1874138e-38
0.33755159 0.019236939 0.85659319 9.7593992e-39
0.3620517 0.002651795 0.84176928 1.141675e-38
0.31674141 0.064373896 0.87233835 1.0771385e-38
0.32845265 0.058458507 0.85337764 9.4831696e-39
0.1172749 0.11928798 0.84487504 1.5284645e-38
0.14335488 0.11529121 0.85093659 1.5192813e-38
0.17259982 0.1167663 0.85054636 1.5654872e-38
0.31120998 0.10213942 0.86749572 1.1323474e-38
0.32758754 0.10035077 0.84955221 8.469738e-39
0.039573334 0.15910096 0.84800005 1.473219e-38
0.060847182 0.14932036 0.8501597 1.436305e-38
0.10006081 0.12864631 0.84993315 1.4732553e-38
0.1280634 0.12112179 0.84100002 1.5009494e-38
0.18419361 0.12310751 0.84682965 1.5930004e-38
0.22017001 0.13813858 0.84849113 1.4824023e-38
0.26375952 0.14551547 0.86052328 1.3350695e-38
0.30175829 0.13988078 0.85909325 1.2245425e-38
0.33638683 0.1419722 0.85015804 1.077102e-38
0.3676033 0.15463179 0.85482478 1.2337615e-38
0.032880701 0.16394833 0.84333342 1.4455963e-38
0.040848572 0.16099143 0.84100002 1.454708e-38
0.31877905 0.16099143 0.84100002 1.6670082e-38
0.34624302 0.16848733 0.84803253 1.7314026e-38
0.379448 0.1766219 0.85630172 1.8973909e-38
0.41821569 0.19397545 0.85877913 1.7775727e-38
0.44083336 0.19416668 0.87500006 1.7499498e-38
0.42226318 0.20164336 0.84353858 1.7959767e-38
-0.011560636 0.35765409 0.85588902 1.1041882e-39
0.0083534224 0.35718137 0.86453122 7.3648324e-40
-0.043193098 0.37344161 0.86355561 2.4860422e-39
-0.018872088 0.37009883 0.85137135 1.104907e-39
0.018649673 0.37236577 0.86122239 7.3648464e-40
0.044952724 0.38458052 0.87359554 9.208773e-40
0.37841979 -0.089820758 0.89505798 3.7764321e-39
0.34093156 -0.053450663 0.893372 3.1321305e-39
0.36795154 -0.073299557 0.889534 3.3165259e-39
0.31410399 -0.013362812 0.90466237 9.4810159e-39
0.32973054 -0.022197945 0.89027011 6.1684584e-39
0.30972925 0.020874228 0.89529973 1.1138731e-38
0.32503065 0.010187088 0.8893019 1.0310051e-38
0.30803522 0.06009113 0.89654148 1.1693701e-38
0.27735728 0.11886798 0.91437501 1.2246871e-38
0.29596689 0.10082773 0.89596677 1.224543e-38
0.10476191 0.1232 0.88000005 1.8437311e-38
0.22717217 0.13503702 0.9041118 1.3535089e-38
0.26106057 0.13223276 0.8953163 1.3351055e-38
0.2852191 0.1253508 0.88890022 1.2613847e-38
0.39748946 0.1734024 0.88264292 1.9434524e-38
0.4168717 0.18403226 0.88782686 1.7775725e-38
0.44805083 0.1904079 0.90550542 1.6301318e-38
0.030154288 0.35898325 0.884 1.1967411e-39
0.032523043 0.36690953 0.88433784 9.208773e-40
0.057846013 0.38108134 0.89977258 1.4733294e-39
0.32686725 -0.043487299 0.93180025 3.7767796e-39
0.31974286 -0.038971432 0.93000007 3.4033308e-39
0.32263184 -0.038260385 0.92560005 4.0526448e-39
0.30479598 0.021848593 0.92959762 5.8025611e-39
0.30126083 0.061255496 0.92400002 8.8417687e-39
0.27676386 0.11567603 0.9266538 1.2337623e-38
0.29004782 0.097460747 0.92343581 1.187845e-38
0.23077323 0.12703782 0.9213261 1.3441464e-38
0.25365707 0.12451212 0.92167228 1.3258869e-38
0.44400001 0.18588097 0.92500007 1.6298079e-38
0.061745875 0.37121657 0.92146444 2.1186946e-39
-0.1651243 0.17169981 1.1202564 1.363667e-38
-0.18289639 0.22381224 1.0467532 1.658188e-38
-0.0092945378 -0.027806442 1.2163104 1.4097641e-38
-0.0064611407 0.12587564 1.1878624 1.400545e-38
-0.30839777 0.18970671 1.1056319 1.6122345e-38
-0.054751251 0.080522142 0.87207657 1.335864e-38
-0.14174232 0.05391407 1.0095713 1.2901992e-38
-0.095625915 0.1044853 0.90486366 1.3080615e-38
-0.14215243 0.10513027 0.62845069 1.2065737e-38
-0.32549864 0.21691917 0.54694194 8.5709482e-39
0.091888286 0.14391579 0.65620232 1.3359008e-38
-0.085147917 0.04698883 1.1149315 1.3727781e-38
0.064328305 0.26730689 0.76790965 9.206224e-39
0.14415197 0.15071042 0.77862114 1.068353e-38
0.023351552 0.21483013 0.7363447 6.7212748e-39
