# .PCD v0.7 - Point Cloud Data file format
VERSION 0.7
FIELDS x y z rgb
SIZE 4 4 4 4
TYPE F F F F
COUNT 1 1 1 1
WIDTH 284
HEIGHT 1
VIEWPOINT 0 0 0 1 0 0 0
POINTS 284
DATA ascii
-0.31495881 0.23111506 0.5185883 9.6776573e-39
-0.12816676 -0.1225431 0.54220229 1.1718989e-38
-0.11702052 -0.1218078 0.54524994 1.7432209e-38
-0.13204497 -0.098501816 0.54340655 7.2932358e-39
-0.1149764 -0.10131752 0.54767257 1.3380317e-38
-0.16263156 -0.042184766 0.55522221 7.8485578e-39
-0.13730307 -0.060091883 0.54772913 7.1084704e-39
-0.10219529 -0.054112505 0.53298306 8.2123054e-39
-0.078334287 -0.0430387 0.52663642 1.0609036e-38
-0.16986072 -0.015070712 0.54590213 9.5807939e-39
-0.1399809 -0.019759646 0.54301357 5.8141261e-39
-0.10254856 -0.019787248 0.54145867 7.1066838e-39
-0.077954479 -0.011609327 0.53732896 7.0076428e-39
-0.17733899 0.014892975 0.54958457 9.4838997e-39
-0.13943106 0.01949504 0.54007018 9.4842613e-39
-0.10283311 0.017688537 0.54459238 9.027267e-39
-0.076977529 0.0060302396 0.53907365 9.4918801e-39
-0.16637354 0.050564501 0.55342072 9.5757296e-39
-0.13957112 0.059459057 0.55019021 1.1139814e-38
-0.10604458 0.055958077 0.54979056 1.0319085e-38
-0.1310887 0.084754594 0.55710936 1.0588441e-38
-0.099231474 0.088674009 0.55846137 8.5792817e-39
-0.30272621 0.13891946 0.54668111 1.2441377e-38
-0.32257381 0.18403497 0.53622961 9.0319305e-39
-0.29931507 0.18581063 0.54227144 1.0044287e-38
-0.2725094 0.19410765 0.55388135 1.0228313e-38
-0.32267162 0.20625263 0.54219449 8.6645801e-39
-0.29680976 0.21822235 0.53583729 9.3070811e-39
-0.27338398 0.205011 0.54122144 8.4784064e-39
-0.29366559 0.24113013 0.53455377 9.6758594e-39
-0.17155394 -0.052252539 0.56732661 1.1159968e-38
-0.15784536 -0.056551933 0.56419063 1.2361416e-38
-0.08607167 -0.064090535 0.57247049 1.2354251e-38
-0.077965483 -0.057849277 0.57450539 1.4752056e-38
-0.20188129 -0.016976848 0.58168757 1.6862075e-38
-0.18837141 -0.027052121 0.57328391 9.7630174e-39
-0.091516078 -0.01826176 0.57034123 1.3468544e-38
-0.074802183 -0.0099621434 0.58371353 1.3828661e-38
-0.18034147 0.024000244 0.56468511 8.7474137e-39
-0.14172897 0.030570764 0.57265615 5.527398e-39
-0.088136122 0.031899884 0.56500477 7.8460593e-39
-0.075404942 0.016127335 0.57717043 1.3100474e-38
-0.17385998 0.060772639 0.56670451 1.4002551e-38
-0.12958957 0.061372153 0.57591569 1.0402609e-38
-0.099817127 0.061137911 0.57029086 8.2961942e-39
-0.075970501 0.060061183 0.56461513 1.3748731e-38
-0.13202593 0.09929911 0.56813234 9.7604726e-39
-0.10580723 0.097725913 0.57075858 1.1790967e-38
-0.078780003 0.082906894 0.56330776 1.9357132e-38
-0.12380911 0.12574363 0.59590018 8.0998849e-39
-0.11088456 0.12680219 0.59559369 1.077212e-38
-0.25558653 0.19468871 0.56442952 1.2163346e-38
-0.23517744 0.19870807 0.57641935 1.2348109e-38
-0.28086105 0.20931819 0.56453848 9.3099593e-39
-0.25408235 0.21713357 0.57256317 9.3992795e-39
-0.2274618 0.22246502 0.58434862 9.6755091e-39
-0.2415324 0.24356826 0.58718187 7.6461192e-39
-0.22596948 0.24209121 0.58656174 7.0014743e-39
-0.093675382 0.11215799 0.60932332 1.9065037e-38
-0.12532064 0.14435388 0.60882491 9.1136781e-39
-0.098392919 0.14231607 0.61472499 1.4826202e-38
-0.079681277 0.15753843 0.63866675 1.8233832e-38
-0.12523638 0.17803787 0.62955827 7.6407102e-39
-0.09989766 0.17867135 0.62791383 1.0772119e-38
-0.21560903 0.2356391 0.60000008 1.0596036e-38
-0.12110572 0.20022002 0.63900006 7.4581084e-39
-0.10337082 0.20341422 0.63705236 8.2846377e-39
0.19717218 0.27224687 0.63783336 8.8356492e-39
0.21894971 0.26671281 0.63508064 1.0678839e-38
0.24876077 0.27170286 0.63707393 1.4920192e-38
0.19588146 0.28299662 0.63687241 8.0069662e-39
0.21949923 0.28212926 0.63256311 9.2980637e-39
0.25241575 0.28284147 0.63670796 1.3721648e-38
-0.086617678 0.11755133 0.64100009 1.8327115e-38
-0.082972601 0.13810228 0.64548987 1.8234194e-38
-0.076660119 0.15085869 0.65561473 1.7496632e-38
-0.12942091 0.19545837 0.64261377 7.5485174e-39
-0.082040861 0.19109307 0.6415084 1.491768e-38
-0.072081842 0.18191892 0.65638149 1.7405155e-38
-0.12847301 0.21820395 0.6546092 8.4701107e-39
-0.098377109 0.2222904 0.64637053 8.8370912e-39
-0.068023421 0.21979645 0.66221535 1.5286101e-38
0.19274946 0.2368744 0.67420954 1.1692614e-38
0.22025542 0.23408543 0.66788805 1.3166666e-38
0.25553665 0.2345942 0.67136049 1.666902e-38
0.28187764 0.23899224 0.67883337 1.9526731e-38
-0.1242841 0.25035506 0.66777772 7.6407144e-39
-0.098514616 0.25866783 0.6633938 7.271206e-39
-0.069095232 0.25703004 0.67045081 1.0771397e-38
0.15414034 0.27039009 0.67211974 1.0310405e-38
0.18035538 0.25942928 0.65695012 1.0402243e-38
0.2199678 0.2472768 0.64819151 1.2429108e-38
0.26176369 0.25583738 0.6510185 1.7684979e-38
0.29446894 0.26353568 0.66556841 2.0636324e-38
0.32144284 0.27693295 0.67871433 2.072815e-38
-0.093116865 0.28274348 0.67687684 6.442167e-39
-0.076288067 0.28150979 0.67846668 7.1786488e-39
0.1487937 0.28979671 0.66954565 8.8360038e-39
0.17395563 0.28549966 0.64988852 8.376106e-39
0.2718592 0.28474477 0.6433208 1.6209849e-38
0.30170962 0.28854576 0.66053712 1.8514379e-38
0.32686841 0.29564977 0.67655265 1.7315115e-38
-0.058662858 0.19752714 0.68449998 1.6759063e-38
0.22340357 0.19926573 0.71899992 1.4178301e-38
0.24035144 0.19926573 0.71900004 1.5286081e-38
-0.050511248 0.22359474 0.69620746 1.5561599e-38
-0.038693957 0.23508132 0.71155012 1.3625128e-38
0.15226719 0.23082291 0.71333075 1.1507505e-38
0.18046896 0.22274642 0.70291477 1.2060317e-38
0.21936291 0.21511483 0.70009065 1.3442173e-38
0.25958362 0.2174343 0.69998646 1.6668299e-38
0.29557493 0.22853802 0.70408851 1.9895871e-38
0.32274622 0.23721063 0.71715397 2.0451929e-38
-0.12075207 0.27461559 0.68166673 7.2701382e-39
-0.11706051 0.2770614 0.68129414 7.6399927e-39
-0.049925271 0.26111722 0.6911869 1.2245084e-38
-0.036019333 0.26072386 0.71088523 1.2061045e-38
0.11872651 0.27847254 0.7178334 9.7565153e-39
0.14186589 0.2602075 0.7001192 1.0771022e-38
0.1665127 0.24490301 0.68599957 1.1323474e-38
0.30926567 0.25095856 0.69073755 2.0820351e-38
0.33584782 0.26504794 0.70578194 2.0175703e-38
-0.096955553 0.29883403 0.69192213 6.8120299e-39
-0.058454722 0.29830462 0.69797909 7.36268e-39
-0.035260439 0.29955122 0.71554989 8.1909945e-39
0.11301088 0.30215687 0.71083432 8.6512496e-39
0.12933691 0.29311502 0.69263762 9.2040618e-39
0.33968103 0.28930181 0.68997192 1.8975359e-38
-0.042394284 0.3207067 0.71800005 5.8889862e-39
-0.034922857 0.32115337 0.71900004 6.4396503e-39
0.10271429 0.32115334 0.71900004 7.5459922e-39
0.18223657 0.15842576 0.75763977 1.509882e-38
0.034216151 0.19706337 0.75559574 1.2980483e-38
0.061021645 0.19443749 0.75375468 1.3349265e-38
0.098054595 0.19453089 0.75584298 1.2796447e-38
0.14296211 0.18391649 0.74819827 1.2243995e-38
0.17983399 0.18063112 0.73957735 1.380952e-38
0.21947384 0.18174531 0.73856676 1.5099537e-38
0.25769457 0.18747593 0.74089581 1.7588098e-38
0.29453826 0.19475429 0.75171244 1.8787e-38
-0.015854692 0.23013948 0.75073642 1.0859982e-38
0.020866785 0.22120401 0.7452172 1.1229845e-38
0.059895322 0.21987259 0.74159074 1.1784099e-38
0.099799626 0.21963769 0.74699265 1.0402604e-38
0.13698317 0.21769473 0.73431957 1.0678469e-38
0.17457438 0.20361431 0.72228456 1.2704969e-38
0.20877813 0.20077811 0.72033334 1.3625844e-38
0.27020645 0.203159 0.72600007 1.7957599e-38
0.30304441 0.21085583 0.7339114 1.9433808e-38
0.33788246 0.22375402 0.74212104 1.9988428e-38
0.36810553 0.23202886 0.75114405 1.8974634e-38
-0.041148573 0.24039428 0.75800002 9.848704e-39
-0.017375944 0.25911865 0.73466164 9.3873741e-39
0.019973079 0.25998202 0.73259097 9.3884545e-39
0.060147487 0.25961405 0.73522657 8.5594141e-39
0.10234071 0.26059896 0.74300194 6.9935289e-39
0.12591566 0.25375351 0.72727424 9.1125879e-39
0.34871686 0.25151667 0.72695976 1.897572e-38
0.36494839 0.25189313 0.73636401 1.7409113e-38
-0.015810261 0.29904822 0.72318923 7.6374634e-39
0.019289622 0.29879287 0.73124695 6.9928114e-39
0.057490062 0.29793155 0.74513197 5.1507023e-39
0.097885542 0.2984733 0.73897308 6.8091376e-39
-0.014236808 0.32249105 0.72581804 5.7949955e-39
0.018160917 0.32525146 0.74120545 3.4947879e-39
0.044402741 0.3213006 0.74887508 2.3924074e-39
0.088149399 0.32596046 0.74305797 5.9804574e-39
0.38546312 -0.015492345 0.79374754 7.1833376e-39
0.35684291 0.030591689 0.79717582 1.0679198e-38
0.37773213 0.02213905 0.79135144 1.0955071e-38
0.35181811 0.06207709 0.79290175 9.4824564e-39
0.3748813 0.059837393 0.78341043 1.0404776e-38
0.35132146 0.097770579 0.79274678 6.3521294e-39
0.37513256 0.099973172 0.78306735 6.5383283e-39
0.074749529 0.15526228 0.7956965 1.3902073e-38
0.10376819 0.1481567 0.78672636 1.3625129e-38
0.14076783 0.14166474 0.78011507 1.4270497e-38
0.17881495 0.14128216 0.77756882 1.5929293e-38
0.21756642 0.14904001 0.77885622 1.6389553e-38
0.25541773 0.1545804 0.7885974 1.6205879e-38
0.28233391 0.15870418 0.7963751 1.5837819e-38
0.35683203 0.12362227 0.79538721 6.3517664e-39
0.37737742 0.13034767 0.79147673 5.9844287e-39
-0.0025045937 0.19764073 0.78417653 1.3165597e-38
0.023056982 0.18784188 0.77660388 1.3440739e-38
0.060459904 0.17571446 0.77565968 1.3993551e-38
0.10021932 0.17514554 0.76774365 1.298048e-38
0.13171078 0.16824882 0.76282138 1.261206e-38
0.16350789 0.1614396 0.76014298 1.417758e-38
0.22718576 0.1620861 0.76249987 1.6204805e-38
0.26337287 0.1682869 0.7711367 1.7219317e-38
0.30038545 0.17809573 0.7778241 1.7866124e-38
0.33583993 0.19003457 0.78443319 1.9802954e-38
0.36962613 0.19677962 0.79501671 1.8696608e-38
-0.043235738 0.23131914 0.76755363 1.0492644e-38
-0.019057501 0.21576536 0.76964402 1.1874495e-38
0.0070973099 0.20367084 0.76367509 1.2242555e-38
0.11942859 0.20194286 0.76000011 8.0973597e-39
0.12087619 0.20049526 0.76000005 7.6381851e-39
0.34779078 0.2068948 0.76842028 1.9708963e-38
0.37763199 0.2129305 0.77886271 1.9157947e-38
0.40014359 0.20804359 0.79725003 1.8697684e-38
-0.044707622 0.24436271 0.77166677 1.3163425e-38
0.075795807 0.31442773 0.76786214 2.4831569e-39
0.08680784 0.30430123 0.76270437 3.3107526e-39
0.073487662 0.33436027 0.77818322 3.4033098e-39
0.080438972 0.32997975 0.7609092 4.6911647e-39
0.38749897 -0.084806338 0.82609612 3.8700627e-39
0.40654126 -0.084603898 0.82442105 3.6860329e-39
0.3562896 -0.049743481 0.83554959 3.1317717e-39
0.38126439 -0.05829392 0.82223278 4.512544e-39
0.40396467 -0.064597793 0.81469214 4.3281555e-39
0.35059783 -0.016679933 0.82566041 5.4330598e-39
0.37379268 -0.023473946 0.80928147 7.7347037e-39
0.40089375 -0.037142854 0.80240005 1.095794e-38
0.34273717 0.020755786 0.81707686 9.7590433e-39
0.36906278 0.0052145119 0.80181003 1.0587366e-38
0.40100002 0.0068742866 0.80200005 8.1157756e-39
0.31863058 0.068115816 0.83539236 9.8512305e-39
0.33286285 0.058773674 0.81611198 9.2069457e-39
0.11779868 0.11842077 0.82240003 1.4364132e-38
0.14298534 0.11364934 0.8159917 1.482403e-38
0.17769846 0.1130328 0.81766099 1.5469036e-38
0.20197618 0.11664191 0.82200003 1.4178301e-38
0.31577855 0.10226965 0.8355543 1.0770662e-38
0.33253011 0.10086889 0.81555218 8.0087626e-39
0.066404909 0.15025295 0.81583053 1.399427e-38
0.097958423 0.13304986 0.8150115 1.4270496e-38
0.13017887 0.12258255 0.80441791 1.4731831e-38
0.18724754 0.12296142 0.80522907 1.6666492e-38
0.22131212 0.13355467 0.81031924 1.5468312e-38
0.26224259 0.1439352 0.81682777 1.408682e-38
0.30269229 0.1427618 0.82525408 1.2797881e-38
0.33957645 0.13935505 0.82200593 1.1047611e-38
0.37393275 0.14763765 0.81957853 1.2155042e-38
0.40123427 0.14625144 0.80400002 1.6779951e-38
0.037572291 0.16915941 0.81147629 1.417938e-38
0.048814937 0.16357014 0.80690539 1.4270138e-38
0.30847895 0.16311586 0.8032679 1.6760854e-38
0.34384036 0.17276505 0.81253898 1.8789161e-38
0.37753108 0.1820059 0.81884688 1.9250141e-38
0.40857676 0.19318713 0.82647067 1.823635e-38
0.39371768 0.20178179 0.80288899 1.9065391e-38
0.40354961 0.20237058 0.80857152 1.8512579e-38
0.066263646 0.34050304 0.80283332 2.8523024e-39
0.35382095 -0.082467586 0.86862081 3.408723e-39
0.36937508 -0.083092138 0.85293335 3.133571e-39
0.3439959 -0.05805482 0.858486 3.0399377e-39
0.36704522 -0.074272722 0.84717935 3.1324948e-39
0.31373835 -0.011543655 0.86993116 1.0676318e-38
0.33321077 -0.021442942 0.85547101 6.6279974e-39
0.31247491 0.020194616 0.86105275 1.141424e-38
0.32655567 0.014857653 0.84993768 1.09547e-38
0.31121734 0.06115447 0.85964864 1.1601145e-38
0.32105768 0.042829528 0.84399998 1.123236e-38
0.21322857 0.11539429 0.87800002 1.3070904e-38
0.27185288 0.11816667 0.87329745 1.2890438e-38
0.29986027 0.10095218 0.85693485 1.1876646e-38
0.06782382 0.14479068 0.84180003 1.4268333e-38
0.10652667 0.12254572 0.84100002 1.4545286e-38
0.22953728 0.12700577 0.86585003 1.3442534e-38
0.26092887 0.12894975 0.85704541 1.3074831e-38
0.29009897 0.12702693 0.84689701 1.2061398e-38
0.38770565 0.15522549 0.84173679 1.8516165e-38
0.39417389 0.17249161 0.84915245 1.9341611e-38
0.41541582 0.18267874 0.85643488 1.777465e-38
0.44150859 0.18814285 0.87800002 1.6945965e-38
0.35030288 -0.08516477 0.88100004 3.6838749e-39
0.32627863 -0.047748756 0.88793838 3.5920282e-39
0.31111786 -0.014300858 0.90020001 3.7739084e-39
0.32204631 -0.03561702 0.89135474 3.7760594e-39
0.30708265 0.021579644 0.89698666 6.9063836e-39
0.30286962 0.060386389 0.893071 9.7622803e-39
0.22669548 0.1153174 0.89036405 1.3813131e-38
0.26180589 0.11344649 0.89159167 1.2798608e-38
0.28845671 0.095761478 0.88993818 1.2061759e-38
0.22238368 0.12112398 0.8811667 1.3074472e-38
0.24742498 0.12086582 0.88199997 1.3167745e-38
0.42859232 0.17900167 0.88479251 1.722111e-38
0.44790924 0.1831529 0.89500022 1.59311e-38
0.10544696 0.15518528 0.6589886 1.3814212e-38
-0.064962119 0.11672022 0.78759086 1.215973e-38
0.0688283 0.25108889 0.94460344 1.3538342e-38
-0.15818875 0.080825768 0.56554389 9.1252304e-39
