# .PCD v0.7 - Point Cloud Data file format
VERSION 0.7
FIELDS x y z rgb
SIZE 4 4 4 4
TYPE F F F F
COUNT 1 1 1 1
WIDTH 286
HEIGHT 1
VIEWPOINT 0 0 0 1 0 0 0
POINTS 286
DATA ascii
-0.1286104 -0.010081756 0.51439595 3.966252e-39
-0.10587191 -0.012454844 0.51616889 5.8130569e-39
-0.077158123 -0.016448556 0.5178411 4.9872493e-39
-0.1265775 0.0022255057 0.51493758 4.5183328e-39
-0.11778959 0.0026907832 0.51764518 9.1245101e-39
-0.31494597 0.23035863 0.51900005 1.0414135e-38
-0.12809744 -0.052112982 0.53473955 7.5597151e-39
-0.11198867 -0.049932923 0.53841901 1.2181405e-38
-0.16490379 -0.0031389536 0.55632794 9.3164754e-39
-0.13231829 -0.024315843 0.54596585 6.73789e-39
-0.10166776 -0.018394692 0.53586221 7.1124529e-39
-0.073450349 -0.0098776072 0.5245294 1.0153073e-38
-0.16742611 0.011523254 0.55467629 3.9640842e-39
-0.1555182 0.0098968558 0.55603039 8.3934457e-39
-0.10255241 0.0034225343 0.54209793 8.8601958e-39
-0.30149329 0.14015765 0.54443574 1.3270416e-38
-0.32320884 0.1851386 0.53715187 9.1234045e-39
-0.29892454 0.18573484 0.54171288 1.0044645e-38
-0.27026895 0.19418645 0.55543828 1.0688932e-38
-0.32736379 0.20475188 0.54214817 8.3894366e-39
-0.29577997 0.21899112 0.5358367 9.9528078e-39
-0.27206427 0.21480183 0.54043275 7.0954636e-39
-0.29310945 0.24101013 0.53403932 1.004356e-38
-0.17330071 -0.044622924 0.58700961 1.253613e-38
-0.15134172 -0.044531066 0.56927419 1.6317201e-38
-0.16881603 -0.022948997 0.5764305 6.0856627e-39
-0.15112917 -0.02909172 0.57246357 7.1019852e-39
-0.08085864 -0.0026670748 0.56014287 8.4068141e-39
-0.063566849 -0.004908938 0.56746274 1.2547588e-38
-0.17851578 0.0078502381 0.56255001 5.2616683e-39
-0.13921285 0.014028536 0.56799328 6.6391994e-39
-0.098470189 0.022350388 0.57490587 1.2620718e-38
-0.069055922 0.017137185 0.58617985 1.5855834e-38
-0.091923118 0.055515997 0.5937736 1.1602594e-38
-0.074561968 0.048204578 0.59473765 1.7224003e-38
-0.25469673 0.19458291 0.56431752 1.2164064e-38
-0.23582911 0.19894747 0.57600003 1.2164435e-38
-0.28121269 0.2130294 0.56530553 9.4929115e-39
-0.25350699 0.21763201 0.57139903 9.3996368e-39
-0.2281709 0.22182487 0.58428615 9.9524547e-39
-0.24188164 0.24394521 0.58738464 7.6454059e-39
-0.22994724 0.24187142 0.58638453 7.7383204e-39
-0.20026857 -0.00057714287 0.60600001 1.3375611e-38
-0.18374713 -0.011142437 0.60168821 6.9150702e-39
-0.20501609 0.017924538 0.61717528 7.1059425e-39
-0.1844357 0.021572087 0.62144029 6.5466338e-39
-0.14687262 0.032241281 0.62824667 6.2595764e-39
-0.16303939 0.047559932 0.63011336 9.5746492e-39
-0.13832082 0.058487121 0.62020826 9.021474e-39
-0.10601252 0.066583678 0.6081146 1.0036705e-38
-0.072721153 0.064249389 0.60613322 1.8887134e-38
-0.13209629 0.095828332 0.62551069 1.0218938e-38
-0.10122784 0.097782351 0.62471706 1.1509676e-38
-0.07790117 0.08853554 0.62631714 1.6489704e-38
-0.1920729 0.030089926 0.64786011 1.0045725e-38
-0.13916297 0.11348237 0.64184844 1.0127107e-38
-0.088441707 0.11441565 0.64409393 1.3996433e-38
-0.07821922 0.11134207 0.65030456 1.2337302e-38
-0.13321459 0.13994427 0.65307081 8.9303616e-39
-0.099834517 0.13982484 0.65593082 1.2522386e-38
-0.077710137 0.13443987 0.66709435 1.344399e-38
-0.13143894 0.17775862 0.66936904 8.4693863e-39
-0.10302674 0.17839779 0.67001754 1.2245803e-38
-0.12498921 0.20372227 0.67707318 8.2849936e-39
-0.108159 0.20673838 0.67698789 9.8508802e-39
0.19566163 0.23808894 0.6766572 1.196848e-38
0.221393 0.23624423 0.67392516 1.3535447e-38
0.25177374 0.23669973 0.6755203 1.6761211e-38
0.15635976 0.27393815 0.67606252 9.9430618e-39
0.18202938 0.26119989 0.6619696 1.0126015e-38
0.21970128 0.25837511 0.65109301 1.1877015e-38
0.25903216 0.25922081 0.65771741 1.740839e-38
0.29177859 0.26645899 0.67021298 2.063632e-38
0.1538505 0.29131544 0.67432803 8.6523286e-39
0.17730898 0.28710437 0.65647888 8.2839048e-39
0.21937746 0.28448814 0.64293694 9.2984155e-39
0.26130396 0.28573957 0.64899606 1.464288e-38
0.30090246 0.29026634 0.66713297 1.7776446e-38
0.32278135 0.3000626 0.67832255 1.4826188e-38
-0.080952384 0.15996191 0.68000001 1.5560877e-38
-0.076361202 0.15378609 0.68424541 1.3811688e-38
-0.14534619 0.18947695 0.68428558 9.2991455e-39
-0.084663786 0.18615678 0.68319046 1.5286091e-38
-0.073500492 0.18282916 0.69789714 1.5560876e-38
-0.13417272 0.22107898 0.69101614 8.4693891e-39
-0.097074769 0.22232525 0.68770891 1.1232733e-38
-0.070635989 0.22009312 0.70658898 1.491695e-38
0.15616646 0.23655756 0.71684986 1.1692611e-38
0.18311222 0.22905597 0.70380104 1.196848e-38
0.21973589 0.22158806 0.70007312 1.3442889e-38
0.2594381 0.22366776 0.69994986 1.6945242e-38
0.29253554 0.23132589 0.70786202 1.9895868e-38
-0.12912531 0.25447774 0.70705897 7.8247385e-39
-0.098867424 0.2587589 0.70431197 8.1927994e-39
-0.072473355 0.25519404 0.71282876 1.1416761e-38
0.14500213 0.26221916 0.70123416 1.0955769e-38
0.16815135 0.24662498 0.68983692 1.1415667e-38
0.27701229 0.24232227 0.68237495 1.9251934e-38
0.30481419 0.25357455 0.69345158 2.0912185e-38
0.33416426 0.26747617 0.70789176 1.9990949e-38
-0.098298721 0.28121117 0.7178846 6.7198287e-39
0.11564888 0.30436981 0.71414512 8.9281924e-39
0.13314547 0.29438981 0.69558066 9.2044206e-39
0.31769273 0.28351092 0.68138897 2.0541603e-38
0.33682758 0.29186726 0.69100273 1.7684975e-38
0.10925715 0.32026002 0.71700001 8.0995163e-39
-0.064457141 0.19268572 0.72000003 1.4455953e-38
0.14910196 0.19066936 0.75296742 1.2612775e-38
0.18096086 0.1869105 0.74707383 1.371732e-38
0.21920043 0.1868165 0.7436381 1.4823306e-38
0.25719431 0.19134983 0.74558771 1.7588452e-38
0.28865194 0.19685897 0.75453514 1.8510769e-38
-0.055704061 0.22468062 0.73542809 1.3809879e-38
0.024660815 0.23665018 0.75728565 1.0494438e-38
0.04630851 0.23633245 0.75722921 1.0678825e-38
0.11814298 0.23503877 0.75550014 8.8374373e-39
0.14096327 0.2208672 0.7393145 1.1507867e-38
0.17666143 0.21071827 0.72803158 1.2704968e-38
0.21868394 0.20438457 0.72414654 1.3994622e-38
0.2620295 0.20573442 0.72729295 1.7312946e-38
0.30186775 0.21504661 0.73703033 1.9618197e-38
0.33686224 0.22651966 0.74591655 1.9988065e-38
0.36873356 0.2339263 0.75408471 1.8422179e-38
-0.12808493 0.2739639 0.72094464 8.0091214e-39
-0.11762175 0.27803636 0.72083342 7.1804523e-39
-0.055462703 0.26229036 0.73503041 1.0771388e-38
-0.017918319 0.26333284 0.75464523 9.4806501e-39
0.019339567 0.25910333 0.75566995 9.1122277e-39
0.04957775 0.25288197 0.75681412 8.8359982e-39
0.11450162 0.26503369 0.74518698 9.1129424e-39
0.12913908 0.25420818 0.73010468 1.0311123e-38
0.31930003 0.24170573 0.72100008 2.1740861e-38
0.34585774 0.25269425 0.7291081 1.8791683e-38
0.36553261 0.25304362 0.73881453 1.6671904e-38
-0.123097 0.287698 0.73075783 8.5644461e-39
-0.097230516 0.29866597 0.73285687 6.811667e-39
-0.059052803 0.29925504 0.74368215 7.3626758e-39
-0.021722887 0.29695398 0.75268048 7.5459866e-39
0.010381978 0.28811231 0.75598735 7.4537882e-39
0.10311045 0.30055311 0.73833406 8.5597686e-39
0.12045716 0.28091431 0.72000003 1.0034897e-38
-0.090452902 0.32322037 0.7449584 1.26236e-38
-0.058896795 0.32560951 0.75507951 5.6127651e-39
-0.035774909 0.32279837 0.75721753 5.5198506e-39
0.093501016 0.32641184 0.74266863 7.1782775e-39
0.38655281 -0.0052422178 0.79404694 5.2515566e-39
0.38580754 0.027049666 0.79537112 1.114018e-38
0.35868537 0.071256995 0.79792327 1.0034547e-38
0.37752596 0.060764112 0.79074746 1.0681e-38
0.35792467 0.097230174 0.79779661 6.7205518e-39
0.37627667 0.099648111 0.78964436 6.8149124e-39
0.10843603 0.15357697 0.79498112 1.3441097e-38
0.14172468 0.14723714 0.78705978 1.41783e-38
0.17893869 0.1470208 0.78338897 1.57449e-38
0.21750002 0.15182889 0.78537005 1.6297714e-38
0.24864495 0.15647638 0.79272729 1.6389911e-38
0.38160542 0.12864396 0.79359895 5.1564673e-39
-0.0059299185 0.19707642 0.79471761 1.2703536e-38
0.02295224 0.19045278 0.78738934 1.3164512e-38
0.061091632 0.1845942 0.78258818 1.3625128e-38
0.10023263 0.17989475 0.78271747 1.2336189e-38
0.13674028 0.17595667 0.76913399 1.2612418e-38
0.179161 0.16676532 0.76478887 1.4454168e-38
0.22183274 0.16680203 0.76655507 1.6020412e-38
0.26138678 0.17221062 0.77607948 1.7402985e-38
0.29911068 0.18298905 0.77962095 1.7958317e-38
0.33407339 0.19317895 0.78828514 1.9802588e-38
0.36780018 0.19905739 0.79775012 1.869768e-38
-0.04606444 0.22461636 0.77810037 9.8479921e-39
-0.019181343 0.22097847 0.77585506 1.1413514e-38
0.019304119 0.21732046 0.76707661 1.1599345e-38
0.060677502 0.21854922 0.76320612 1.1600066e-38
0.10024609 0.21959232 0.768354 9.5735632e-39
0.12385761 0.20786279 0.76440227 1.0403315e-38
0.31479901 0.20193592 0.76204175 1.8788079e-38
0.34494817 0.20898168 0.77182031 1.9617482e-38
0.37587598 0.21587262 0.77949625 1.9066108e-38
0.4000181 0.21481049 0.79700005 1.8327466e-38
-0.043176975 0.25227219 0.76587903 6.9917324e-39
-0.027958442 0.24689773 0.76149237 9.5721241e-39
0.036985539 0.27647826 0.76004779 7.3612352e-39
0.065032862 0.26250353 0.76165313 7.6378165e-39
0.097164251 0.25898567 0.76785696 6.4410726e-39
-0.008343067 0.31524819 0.7619493 5.518766e-39
0.023275258 0.30226865 0.7670188 5.6113189e-39
0.059958991 0.29787171 0.77525896 4.6908032e-39
0.08871983 0.2971943 0.77120644 5.5205596e-39
-0.057566866 0.33531967 0.76219302 7.0878923e-39
-0.020382483 0.32808194 0.76565599 3.679898e-39
0.011666228 0.32502407 0.77829176 2.6671881e-39
0.075266413 0.33513179 0.7855109 4.6922409e-39
0.082528397 0.33035114 0.76393652 6.1648486e-39
0.39721096 -0.080559529 0.83750004 4.2384836e-39
0.40827501 -0.081700005 0.82714289 4.607269e-39
0.38802195 -0.054682538 0.83099908 4.0526476e-39
0.40520883 -0.061279636 0.82197523 4.5125454e-39
0.35532889 -0.0067095947 0.83452994 5.2493888e-39
0.37945214 -0.020615714 0.81966865 6.9067437e-39
0.40280893 -0.029101251 0.81050009 1.0129621e-38
0.34922311 0.022408377 0.82589322 9.2991427e-39
0.37425619 0.015809761 0.80797464 1.0403328e-38
0.40115616 0.0075701592 0.80333328 6.9121625e-39
0.34364533 0.060891215 0.81859511 9.666842e-39
0.36393604 0.047340695 0.80320513 1.0219661e-38
0.11761662 0.11797091 0.83011115 1.4916583e-38
0.14362234 0.113367 0.82619578 1.5192449e-38
0.17547633 0.1130309 0.82816541 1.5837816e-38
0.20294817 0.11749724 0.83677787 1.3812029e-38
0.34077936 0.10027027 0.81887209 8.0091214e-39
0.36156616 0.11758731 0.80000007 6.0751753e-39
0.066525765 0.15178309 0.82202524 1.4178299e-38
0.099407561 0.1388675 0.81486285 1.4086462e-38
0.13732031 0.12757586 0.80739003 1.4824027e-38
0.18162198 0.12718722 0.80934089 1.6666852e-38
0.21830085 0.13658637 0.81456333 1.5929287e-38
0.26058677 0.14897145 0.81723756 1.5008052e-38
0.30279267 0.14944124 0.82893032 1.3350333e-38
0.34008503 0.1386897 0.82837772 1.0218568e-38
0.37525219 0.14324649 0.81187332 8.3779095e-39
0.40123451 0.14389348 0.80200011 9.1226856e-39
-0.010695916 0.1950295 0.80306667 1.2982644e-38
0.022152081 0.17647846 0.81308156 1.3994629e-38
0.055896439 0.1654676 0.80842072 1.4178297e-38
0.082539685 0.16101587 0.80000007 1.353257e-38
0.27793771 0.16104682 0.80142862 1.6114041e-38
0.30394635 0.16523732 0.80762303 1.6484264e-38
0.34255514 0.17590792 0.81658822 1.8420734e-38
0.37635568 0.18513995 0.82170856 1.8789161e-38
0.40903249 0.19511679 0.8285799 1.8236347e-38
-0.048051517 0.21386231 0.80475551 1.3074855e-38
-0.025267513 0.20252447 0.80111122 1.261602e-38
0.39213073 0.20517968 0.80356002 1.8974273e-38
0.40504971 0.20548639 0.81158698 1.8420022e-38
0.071677461 0.31591696 0.80240005 2.3909585e-39
0.068054095 0.33131668 0.80648381 2.4853191e-39
-0.016780002 0.3739543 0.83900005 8.290362e-40
0.38700804 -0.082716063 0.85285181 3.7785817e-39
0.40127715 -0.082498096 0.84100002 4.6076263e-39
0.35099593 -0.054383658 0.86629343 3.0402964e-39
0.37464723 -0.063836105 0.85143948 3.1324948e-39
0.31858858 -0.001672381 0.87800002 1.0768519e-38
0.34151495 -0.019157939 0.86081237 6.536522e-39
0.36310339 -0.031865228 0.8439523 3.6838651e-39
0.31639341 0.020707307 0.86906058 1.1783019e-38
0.33211288 0.017971547 0.85755998 1.0862503e-38
0.31565145 0.065255105 0.86732304 1.1969206e-38
0.32509694 0.056709792 0.85145319 1.0679908e-38
0.11189461 0.11888107 0.8453334 1.4455248e-38
0.14905787 0.10647453 0.84375006 1.4914772e-38
0.1843873 0.1097154 0.84318179 1.4730393e-38
0.30840531 0.10290305 0.85960627 1.2060675e-38
0.3221373 0.094574325 0.84423864 1.0679183e-38
0.066837862 0.1431407 0.84257132 1.436269e-38
0.09832333 0.12568587 0.84994793 1.4454888e-38
0.23214206 0.13321432 0.86693829 1.3811674e-38
0.26283324 0.13412361 0.86147207 1.3351055e-38
0.29720697 0.13141987 0.85206503 1.2153591e-38
0.32118189 0.12094381 0.84100002 1.1323475e-38
0.38155907 0.15824637 0.84422737 1.5658088e-38
0.035180956 0.16731939 0.84600008 1.4270497e-38
0.38810089 0.17027481 0.84777015 1.9434889e-38
0.41559955 0.18503885 0.8578912 1.7683532e-38
0.026857827 0.35894763 0.86928588 2.5746337e-39
-0.04138286 0.37812576 0.85200006 2.578242e-39
-0.016690049 0.3722249 0.8460741 1.1971013e-39
0.021342658 0.37257293 0.86161059 9.2051576e-40
0.046843205 0.38432971 0.87349969 1.1049098e-39
0.33883205 -0.049173355 0.89397597 3.5005529e-39
0.31767696 -0.0070303455 0.88172406 1.0857469e-38
0.33183014 -0.032114543 0.89380699 4.2355998e-39
0.31360787 0.024010023 0.90048987 7.8272567e-39
0.3208867 0.029633334 0.88900006 1.2152165e-38
0.30961171 0.06047231 0.89106923 1.1050853e-38
0.22462125 0.11717569 0.90445346 1.4459231e-38
0.26500484 0.11648555 0.90422231 1.2982637e-38
0.29395509 0.10028588 0.89390802 1.2246149e-38
0.22849502 0.12450533 0.8906737 1.3442893e-38
0.25746939 0.12374024 0.88731253 1.3443609e-38
0.28108096 0.12082191 0.88100004 1.2983348e-38
0.42944083 0.17887191 0.89556938 1.7316544e-38
0.44584978 0.18520589 0.89739686 1.6116925e-38
0.038954671 0.37081942 0.88533342 1.4729721e-39
0.058314823 0.37957051 0.89642781 1.8417532e-39
0.31097966 0.014322538 0.92066669 5.4276521e-39
0.23569523 0.11302858 0.91999996 1.8712102e-38
-0.054555316 0.16481622 0.8990283 1.1333587e-38
