# .PCD v0.7 - Point Cloud Data file format
VERSION 0.7
FIELDS x y z rgb
SIZE 4 4 4 4
TYPE F F F F
COUNT 1 1 1 1
WIDTH 1018
HEIGHT 1
VIEWPOINT 0 0 0 1 0 0 0
POINTS 1018
DATA ascii
-0.32560208 0.16976772 1.9271997 1.5841433e-38
-0.30711496 0.16961692 1.9258143 1.5841433e-38
-0.89827794 -0.52042091 1.9030824 1.5841433e-38
-0.88607407 -0.58982903 1.9319414 1.5841433e-38
-0.72196579 0.060525484 1.7440001 1.5841433e-38
-0.46380118 0.34857729 1.758763 1.5841433e-38
-0.6462335 0.32748419 1.65029 1.5841433e-38
-0.86126667 0.26125029 1.5401427 1.5841433e-38
-0.64035428 -0.20222093 1.73083 1.5841433e-38
-0.15657674 -0.39685383 1.8406444 1.5841433e-38
-0.11681622 -0.46200258 1.8499483 1.5841433e-38
-0.0051461533 -0.40555316 1.8162746 1.5841433e-38
0.6657483 -0.76656437 1.9785001 1.5841433e-38
0.69582719 -0.76832533 1.9800454 1.5841433e-38
0.72368002 -0.76272768 1.9840001 1.5841433e-38
0.82715815 -0.76332045 1.9712002 1.5841433e-38
0.99437076 -0.76925558 1.9697334 1.5841433e-38
-0.96731031 -0.7560336 1.9690001 1.5841433e-38
-0.93799424 -0.74250579 1.9736654 1.5841433e-38
-0.91106111 -0.73405808 1.9848006 1.5841433e-38
-0.85561144 -0.72552168 1.9920003 1.5841433e-38
0.59064382 -0.75379813 1.9920003 1.5841433e-38
0.62227285 -0.75211036 1.9900837 1.5841433e-38
0.65847421 -0.75408071 1.9843206 1.5841433e-38
0.69994789 -0.7519328 1.9895391 1.5841433e-38
0.74076325 -0.74844319 1.9845165 1.5841433e-38
0.78099304 -0.74535871 1.9827405 1.5841433e-38
0.82182276 -0.74177575 1.9828011 1.5841433e-38
0.86002052 -0.73506826 1.9800301 1.5841433e-38
0.8998692 -0.73129511 1.9795431 1.5841433e-38
0.93986911 -0.73797131 1.9760215 1.5841433e-38
0.9794848 -0.73754132 1.9766526 1.5841433e-38
1.0112242 -0.74585783 1.988093 1.5841433e-38
-0.92894614 -0.70872283 1.9690008 1.5841433e-38
-0.90044332 -0.69886529 1.9798011 1.5841433e-38
-0.85624814 -0.6947881 1.9897993 1.5841433e-38
0.82525718 -0.71901715 1.9920001 1.5841433e-38
0.86120087 -0.71816409 1.9911433 1.5841433e-38
0.89582676 -0.71892381 1.9900001 1.5841433e-38
0.94857144 -0.71711999 1.9920001 1.5841433e-38
0.97932261 -0.71622092 1.9861819 1.5841433e-38
1.0099125 -0.71901721 1.9920001 1.5841433e-38
-0.89118367 -0.66728604 1.9724233 1.5841433e-38
-0.85848969 -0.65929633 1.9765334 1.5841433e-38
-0.83067143 -0.65013868 1.9844337 1.5841433e-38
-0.85871041 -0.62618053 1.9690014 1.5841433e-38
-0.81934738 -0.61919743 1.9771827 1.5841433e-38
-0.79616773 -0.60392392 1.9920003 1.5841433e-38
-0.85323334 -0.57757336 1.9690001 1.5841433e-38
-0.80951369 -0.58388835 1.9726737 1.5841433e-38
-0.78710896 -0.57641602 1.9848565 1.5841433e-38
-0.77827305 -0.54194069 1.9764328 1.5841433e-38
-0.75456005 -0.52351677 1.9885715 1.5841433e-38
-0.76768094 -0.50116253 1.9708343 1.5841433e-38
-0.74821067 -0.49795958 1.9814708 1.5841433e-38
-0.76447219 -0.46068352 1.9690002 1.5841433e-38
-0.73771149 -0.46280578 1.9737072 1.5841433e-38
-0.70620275 -0.45136163 1.9896252 1.5841433e-38
-0.72571725 -0.42427266 1.9690006 1.5841433e-38
-0.69976515 -0.41955462 1.9813406 1.5841433e-38
-0.66854608 -0.41461521 1.9919991 1.5841433e-38
-0.6951974 -0.3834866 1.9737889 1.5841433e-38
-0.66423166 -0.3771432 1.9889182 1.5841433e-38
-0.63807237 -0.36741337 1.9920001 1.5841433e-38
-0.6919629 -0.34879431 1.9690002 1.5841433e-38
-0.65517825 -0.34381703 1.9748974 1.5841433e-38
-0.6236676 -0.33514857 1.988624 1.5841433e-38
-0.64316213 -0.31078404 1.9717501 1.5841433e-38
-0.61719453 -0.3030405 1.979431 1.5841433e-38
-0.59002465 -0.29265961 1.9910769 1.5841433e-38
-0.60699338 -0.27491719 1.9710001 1.5841433e-38
-0.57803482 -0.26201177 1.9831108 1.5841433e-38
-0.54228359 -0.25320476 1.9911773 1.5841433e-38
-0.5120827 -0.24473144 1.9920005 1.5841433e-38
-0.56913698 -0.23242232 1.9723006 1.5841433e-38
-0.53938353 -0.22024733 1.9805954 1.5841433e-38
-0.50709468 -0.21806 1.9867194 1.5841433e-38
-0.53325814 -0.19205552 1.9705719 1.5841433e-38
-0.49708846 -0.18144636 1.9797469 1.5841433e-38
-0.46847865 -0.1716142 1.9915193 1.5841433e-38
1.0268593 -0.17786154 1.9856473 1.5841433e-38
-0.49001598 -0.14575392 1.9735842 1.5841433e-38
-0.45950904 -0.13964844 1.9824024 1.5841433e-38
-0.43088862 -0.13256289 1.9920005 1.5841433e-38
-0.45087343 -0.10117234 1.9715793 1.5841433e-38
-0.42641842 -0.099529184 1.986681 1.5841433e-38
-0.44193113 -0.075634606 1.9690002 1.5841433e-38
-0.41777194 -0.060269661 1.983327 1.5841433e-38
-0.38146886 -0.050564896 1.9908568 1.5841433e-38
-0.35856 -0.045531429 1.9920001 1.5841433e-38
-0.41118205 -0.028470427 1.9749793 1.5841433e-38
-0.37979084 -0.020471122 1.9811524 1.5841433e-38
-0.35013351 -0.015341302 1.9887275 1.5841433e-38
-0.40317622 0.0037504763 1.9690001 1.5841433e-38
-0.37619102 0.011366051 1.9709423 1.5841433e-38
-0.34143081 0.021800516 1.9803401 1.5841433e-38
-0.31365335 0.030626673 1.9890002 1.5841433e-38
-0.36192098 0.04313048 1.9690001 1.5841433e-38
-0.33456525 0.057115842 1.9745377 1.5841433e-38
-0.30458286 0.065422781 1.9868054 1.5841433e-38
-0.27762002 0.071757145 1.9830002 1.5841433e-38
-0.32713205 0.091240034 1.9690007 1.5841433e-38
-0.30267775 0.091288492 1.9732596 1.5841433e-38
-0.75240606 0.13279973 1.6916685 1.5841433e-38
-0.61422426 0.10756025 1.7839851 1.5841433e-38
-0.56928539 0.045910034 1.8367066 1.5841433e-38
-0.69652587 -0.30096322 1.9337428 1.5841433e-38
-0.6590032 -0.27935752 1.9417446 1.5841433e-38
-0.38854223 -0.38893881 1.978024 1.5841433e-38
-0.28339788 -0.31042191 1.9785353 1.5841433e-38
-0.20407137 -0.29207262 1.9738903 1.5841433e-38
-0.37906551 -0.28554633 1.8692694 1.5841433e-38
-0.23232339 -0.53325361 1.8738978 1.5841433e-38
-0.23537706 -0.56482279 1.9164959 1.5841433e-38
-0.10792594 -0.40534806 1.8732035 1.5841433e-38
-0.69326138 0.13667008 1.7269927 1.5841433e-38
-0.55844796 0.22799966 1.7620624 1.5841433e-38
-0.53325421 0.33683407 1.7307591 1.5841433e-38
-0.833534 -0.53659433 1.947992 1.5841433e-38
-0.88176793 -0.73824584 2.0140746 1.5841433e-38
-0.85853589 -0.77802742 2.0276515 1.5841433e-38
-0.83696097 -0.77093619 2.039 1.5841433e-38
-0.072196715 -0.74549377 2.0334728 1.5841433e-38
-0.14887971 -0.61126888 1.9568843 1.5841433e-38
0.00854149 -0.77433789 2.0275426 1.5841433e-38
0.06082046 -0.7954818 2.0390003 1.5841433e-38
0.06726864 -0.76196676 2.0232644 1.5841433e-38
0.069499485 -0.7069003 2.0044582 1.5841433e-38
0.006652968 -0.66583753 1.9978418 1.5841433e-38
0.13277009 -0.74423206 2.0265038 1.5841433e-38
0.14657493 -0.66222578 2.0050204 1.5841433e-38
0.15462781 -0.58904731 1.9862114 1.5841433e-38
0.16833276 -0.54537684 1.969758 1.5841433e-38
0.22871529 -0.66134822 1.9861485 1.5841433e-38
0.41856042 -0.77211028 2.0136814 1.5841433e-38
0.45896685 -0.77251846 2.0168066 1.5841433e-38
0.50014049 -0.77130806 2.0179007 1.5841433e-38
0.54010046 -0.77163547 2.0183873 1.5841433e-38
0.573138 -0.77020115 2.0142829 1.5841433e-38
0.62043399 -0.76480263 2.0029993 1.5841433e-38
0.64897203 -0.76419222 2.003 1.5841433e-38
0.68919551 -0.76168501 2.0030003 1.5841433e-38
1.0358372 -0.76266611 2.003 1.5841433e-38
1.0434676 -0.76304758 2.003 1.5841433e-38
-0.89446241 -0.74217838 2.0097499 1.5841433e-38
-0.85628033 -0.74237925 2.0152421 1.5841433e-38
-0.82201874 -0.73221129 2.033793 1.5841433e-38
-0.79618096 -0.72238857 2.039 1.5841433e-38
0.37790453 -0.75872338 2.0374999 1.5841433e-38
0.42616105 -0.75771904 2.0312002 1.5841433e-38
0.44469619 -0.75928485 2.039 1.5841433e-38
0.48935714 -0.75802386 2.0150001 1.5841433e-38
0.58463889 -0.74831146 2.0208981 1.5841433e-38
0.62098283 -0.7509892 2.0268524 1.5841433e-38
0.66153532 -0.73968565 2.0243869 1.5841433e-38
0.70040727 -0.74069244 2.0249355 1.5841433e-38
0.73950571 -0.73597348 2.0250003 1.5841433e-38
0.77907228 -0.72948962 2.020591 1.5841433e-38
0.81551784 -0.72724265 2.0230625 1.5841433e-38
0.85980612 -0.72369581 2.0211935 1.5841433e-38
0.90089452 -0.72367984 2.0132859 1.5841433e-38
0.9417854 -0.72394294 2.0064287 1.5841433e-38
0.96334761 -0.72489524 2.003 1.5841433e-38
1.0299671 -0.73506343 2.0068564 1.5841433e-38
1.0463297 -0.73079067 2.0149999 1.5841433e-38
-0.88783777 -0.71156436 2.003571 1.5841433e-38
-0.8587451 -0.70407951 2.0034697 1.5841433e-38
-0.81969726 -0.69898176 2.0161731 1.5841433e-38
-0.79181474 -0.69218522 2.0347426 1.5841433e-38
0.65053809 -0.71656287 2.039 1.5841433e-38
0.7919088 -0.71267903 2.039 1.5841433e-38
0.82273984 -0.71065962 2.0324199 1.5841433e-38
0.86272019 -0.70541292 2.0317738 1.5841433e-38
0.90114117 -0.70063114 2.0238597 1.5841433e-38
0.93976015 -0.70194143 2.0168142 1.5841433e-38
0.97949332 -0.70127559 2.0207424 1.5841433e-38
1.0187235 -0.69786274 2.0256038 1.5841433e-38
1.0484796 -0.70563507 2.0290003 1.5841433e-38
-0.84126008 -0.67338955 2.003 1.5841433e-38
-0.81642556 -0.66334754 2.0088453 1.5841433e-38
-0.78131932 -0.6581431 2.0243711 1.5841433e-38
-0.75928479 -0.6583057 2.039 1.5841433e-38
0.92855912 -0.67759717 2.0270002 1.5841433e-38
0.98739314 -0.67613727 2.0358 1.5841433e-38
1.018028 -0.67616481 2.0384002 1.5841433e-38
1.0428028 -0.67772478 2.039 1.5841433e-38
-0.80798262 -0.63184583 2.0029998 1.5841433e-38
-0.78006935 -0.62161481 2.0131621 1.5841433e-38
-0.74842757 -0.61297405 2.0314007 1.5841433e-38
-0.71489835 -0.6128096 2.039 1.5841433e-38
-0.76953065 -0.58261383 2.0044107 1.5841433e-38
-0.7402944 -0.5791325 2.0222204 1.5841433e-38
-0.70749915 -0.5768531 2.0381281 1.5841433e-38
-0.76475441 -0.5488922 2.0029998 1.5841433e-38
-0.7377345 -0.54037476 2.0110006 1.5841433e-38
-0.69991434 -0.53826416 2.0293541 1.5841433e-38
-0.67772478 -0.53014004 2.039 1.5841433e-38
-0.73108268 -0.50352424 2.0072851 1.5841433e-38
-0.69929707 -0.49851039 2.0152013 1.5841433e-38
-0.65965253 -0.49575225 2.0369008 1.5841433e-38
-0.69972795 -0.46410236 2.0043962 1.5841433e-38
-0.65979224 -0.45969236 2.0203452 1.5841433e-38
-0.63194132 -0.45569015 2.0375009 1.5841433e-38
-0.70391142 -0.43684477 2.003 1.5841433e-38
-0.65276766 -0.42377466 2.004874 1.5841433e-38
-0.62137479 -0.4186534 2.0266838 1.5841433e-38
-0.59422284 -0.41013026 2.0389998 1.5841433e-38
-0.64773536 -0.38540486 2.0029993 1.5841433e-38
-0.61845499 -0.38061845 2.0141554 1.5841433e-38
-0.58483696 -0.37507284 2.0375011 1.5841433e-38
-0.54084665 -0.37331808 2.0390007 1.5841433e-38
1.0549397 -0.3665345 2.0389998 1.5841433e-38
-0.60993832 -0.34846804 2.0073895 1.5841433e-38
-0.57908833 -0.33926269 2.0195558 1.5841433e-38
-0.53909856 -0.3392005 2.0323048 1.5841433e-38
-0.51198435 -0.33166879 2.037236 1.5841433e-38
1.038919 -0.32235616 2.039 1.5841433e-38
1.0519687 -0.34061003 2.0390003 1.5841433e-38
-0.57647341 -0.30425569 2.0052104 1.5841433e-38
-0.53977484 -0.29864091 2.0126207 1.5841433e-38
-0.50524879 -0.29860327 2.0327072 1.5841433e-38
-0.47091195 -0.28837287 2.0390005 1.5841433e-38
1.0377669 -0.29834634 2.0307896 1.5841433e-38
1.0440608 -0.29916346 2.0238423 1.5841433e-38
-0.5627476 -0.27660474 2.003 1.5841433e-38
-0.53503156 -0.26982889 2.0054538 1.5841433e-38
-0.49770993 -0.26219386 2.0185084 1.5841433e-38
-0.46383792 -0.25788182 2.0343165 1.5841433e-38
-0.43692857 -0.2427381 2.039 1.5841433e-38
1.0320256 -0.25410816 2.0350006 1.5841433e-38
1.0460912 -0.26128641 2.0277662 1.5841433e-38
-0.48878124 -0.22250879 2.008672 1.5841433e-38
-0.45935658 -0.21988317 2.0229011 1.5841433e-38
-0.42951882 -0.21453433 2.0387454 1.5841433e-38
1.0283785 -0.22003748 2.0285006 1.5841433e-38
1.0452975 -0.22093992 2.02473 1.5841433e-38
-0.48517114 -0.19521302 2.003 1.5841433e-38
-0.4544481 -0.1846713 2.0104201 1.5841433e-38
-0.42103821 -0.1780162 2.0321579 1.5841433e-38
-0.38510293 -0.17076193 2.0375009 1.5841433e-38
0.99347109 -0.17960325 2.0366001 1.5841433e-38
1.028206 -0.1859332 2.0243528 1.5841433e-38
1.0428028 -0.17282952 2.039 1.5841433e-38
-0.44322759 -0.15666191 2.006 1.5841433e-38
-0.4164817 -0.14222826 2.0162699 1.5841433e-38
-0.38267094 -0.13878269 2.0313628 1.5841433e-38
-0.35536858 -0.12622383 2.039 1.5841433e-38
-0.40663466 -0.10159538 2.0072851 1.5841433e-38
-0.37958643 -0.10000826 2.0191441 1.5841433e-38
-0.34503132 -0.096589088 2.0330827 1.5841433e-38
-0.40441525 -0.076304764 2.003 1.5841433e-38
-0.3787277 -0.068210386 2.0093632 1.5841433e-38
-0.33996183 -0.06021601 2.0245612 1.5841433e-38
-0.3128311 -0.050074439 2.0350003 1.5841433e-38
-0.26798287 -0.066024765 2.039 1.5841433e-38
-0.33359617 -0.021522515 2.0106359 1.5841433e-38
-0.3023428 -0.018112613 2.0286772 1.5841433e-38
-0.27032253 -0.01301826 2.0328288 1.5841433e-38
-0.32662681 0.0048750266 2.003 1.5841433e-38
-0.29876643 0.017343119 2.0149992 1.5841433e-38
-0.27483362 0.013619928 2.0243335 1.5841433e-38
-0.29429853 0.051611755 2.0076659 1.5841433e-38
-0.27881432 0.049979053 2.0190003 1.5841433e-38
-0.02395016 0.35795778 2.039 1.5841433e-38
-0.010668335 0.38636887 2.0367506 1.5841433e-38
0.0079169963 0.38554275 2.0389998 1.5841433e-38
-0.0038838095 0.40197429 2.039 1.5841433e-38
-0.48669618 0.26750016 1.7837145 1.5841433e-38
-0.7135604 -0.56771541 1.9749997 1.5841433e-38
-0.79027569 -0.8063255 2.0760002 1.5841433e-38
-0.80423743 -0.41838932 1.9082383 1.5841433e-38
-0.80183494 -0.38007241 1.8957711 1.5841433e-38
-0.57889175 -0.45620206 1.9953572 1.5841433e-38
-0.54504234 -0.4652389 1.9988106 1.5841433e-38
-0.50517476 -0.5543254 2.0258393 1.5841433e-38
-0.30144423 -0.054366291 1.9396544 1.5841433e-38
-0.2811141 -0.44979662 1.9201043 1.5841433e-38
-0.25224173 -0.60428238 1.866806 1.5841433e-38
-0.29863971 -0.79706788 2.0483885 1.5841433e-38
-0.32785389 -0.78880221 2.0468729 1.5841433e-38
-0.39834508 -0.77081847 2.0501015 1.5841433e-38
-0.35209274 -0.75160676 2.0468698 1.5841433e-38
-0.354745 -0.68863291 2.0264685 1.5841433e-38
-0.25271651 -0.70292538 2.0365932 1.5841433e-38
-0.22592251 -0.67125678 2.0295055 1.5841433e-38
-0.17350867 -0.65545005 2.0327756 1.5841433e-38
-0.073575556 -0.80412221 2.0510001 1.5841433e-38
-0.029300002 -0.80282003 2.0510004 1.5841433e-38
-0.84449112 -0.79370451 2.0510004 1.5841433e-38
-0.82098079 -0.78052658 2.0595148 1.5841433e-38
-0.79090965 -0.77783132 2.0716686 1.5841433e-38
-0.36181718 -0.79678869 2.0760002 1.5841433e-38
-0.34005031 -0.79710752 2.0745556 1.5841433e-38
-0.29901886 -0.79579282 2.0750003 1.5841433e-38
-0.25610337 -0.79726696 2.0738335 1.5841433e-38
-0.21676424 -0.793576 2.0639434 1.5841433e-38
-0.18465066 -0.79503953 2.0653033 1.5841433e-38
-0.14047474 -0.79296815 2.0671961 1.5841433e-38
-0.099403314 -0.79285461 2.0684144 1.5841433e-38
-0.058678359 -0.78371024 2.0589769 1.5841433e-38
-0.021302741 -0.78931057 2.0604651 1.5841433e-38
0.022714946 -0.78108168 2.0620139 1.5841433e-38
0.057660799 -0.78190553 2.0607564 1.5841433e-38
0.098352581 -0.77197909 2.06197 1.5841433e-38
0.1418473 -0.76894867 2.065557 1.5841433e-38
0.18067716 -0.77052826 2.0677814 1.5841433e-38
0.21970908 -0.76625806 2.0624762 1.5841433e-38
0.25904089 -0.76539814 2.0596898 1.5841433e-38
0.29972959 -0.76564801 2.0570011 1.5841433e-38
0.33721891 -0.76409364 2.0560906 1.5841433e-38
0.38800058 -0.76311713 2.0563333 1.5841433e-38
0.40941638 -0.76302755 2.0582001 1.5841433e-38
0.46925077 -0.76645803 2.0510006 1.5841433e-38
0.49900156 -0.76465487 2.0510006 1.5841433e-38
0.53872132 -0.76379645 2.0520005 1.5841433e-38
0.56373209 -0.76531601 2.0510004 1.5841433e-38
-0.84384012 -0.75594008 2.0510004 1.5841433e-38
-0.81711257 -0.74990034 2.0524638 1.5841433e-38
-0.77877754 -0.73748803 2.0618711 1.5841433e-38
-0.74795145 -0.72719973 2.0749168 1.5841433e-38
0.1146743 -0.75724578 2.0760002 1.5841433e-38
0.13905907 -0.75658691 2.0760002 1.5841433e-38
0.17992003 -0.75555116 2.0760002 1.5841433e-38
0.22202154 -0.75538492 2.0760002 1.5841433e-38
0.2667931 -0.74759257 2.0714524 1.5841433e-38
0.29746854 -0.75027472 2.0706053 1.5841433e-38
0.34001175 -0.75402796 2.0668502 1.5841433e-38
0.37949342 -0.75291699 2.0649207 1.5841433e-38
0.42218772 -0.74467349 2.0630538 1.5841433e-38
0.4600462 -0.74224359 2.0597615 1.5841433e-38
0.50011599 -0.7456767 2.0631616 1.5841433e-38
0.54028976 -0.74691653 2.0632319 1.5841433e-38
0.57881474 -0.74061328 2.0591359 1.5841433e-38
0.6204958 -0.73084837 2.0554686 1.5841433e-38
0.65329957 -0.72946405 2.0579066 1.5841433e-38
0.70298064 -0.72694153 2.0546503 1.5841433e-38
0.74073768 -0.72521895 2.0572455 1.5841433e-38
0.77494478 -0.72168827 2.0576818 1.5841433e-38
-0.77608651 -0.70257783 2.0544887 1.5841433e-38
-0.74054128 -0.69764322 2.0707297 1.5841433e-38
-0.71421385 -0.69700116 2.0760002 1.5841433e-38
0.59937388 -0.71333385 2.0635002 1.5841433e-38
0.62403542 -0.71558458 2.0727501 1.5841433e-38
0.66802001 -0.71670359 2.0639524 1.5841433e-38
0.6984067 -0.71511292 2.0599999 1.5841433e-38
0.74152219 -0.70981365 2.0701613 1.5841433e-38
0.77912867 -0.70767069 2.0678093 1.5841433e-38
0.81757063 -0.70273191 2.0642135 1.5841433e-38
0.86114758 -0.69132918 2.0569761 1.5841433e-38
0.89633167 -0.68428713 2.0658147 1.5841433e-38
0.93911576 -0.68658108 2.063879 1.5841433e-38
0.97467405 -0.68786263 2.0674827 1.5841433e-38
1.0681968 -0.69456422 2.0652056 1.5841433e-38
1.0814974 -0.68606865 2.0760002 1.5841433e-38
-0.76583689 -0.6653055 2.0510006 1.5841433e-38
-0.74144781 -0.66049272 2.0553396 1.5841433e-38
-0.70080137 -0.65541017 2.0657344 1.5841433e-38
-0.67646539 -0.64765561 2.0760002 1.5841433e-38
0.90967995 -0.6768415 2.064286 1.5841433e-38
0.94081616 -0.67051637 2.0720735 1.5841433e-38
0.98187017 -0.66485125 2.0702679 1.5841433e-38
1.0166205 -0.66670167 2.0651262 1.5841433e-38
1.0556631 -0.6761831 2.0706315 1.5841433e-38
1.0814973 -0.67618293 2.0760002 1.5841433e-38
-0.73386741 -0.62448078 2.0510011 1.5841433e-38
-0.69971716 -0.6218847 2.0587914 1.5841433e-38
-0.67435902 -0.61717111 2.0712335 1.5841433e-38
-0.72663999 -0.59967339 2.0510001 1.5841433e-38
-0.69069177 -0.58281302 2.0510008 1.5841433e-38
-0.66831267 -0.57917768 2.065521 1.5841433e-38
-0.68353641 -0.54029208 2.0510006 1.5841433e-38
-0.65968418 -0.54055291 2.0573783 1.5841433e-38
-0.62880969 -0.53447682 2.0730429 1.5841433e-38
1.0743796 -0.52552462 2.0760002 1.5841433e-38
-0.68562007 -0.51568007 2.0510004 1.5841433e-38
-0.6563201 -0.50857711 2.0509999 1.5841433e-38
-0.62300706 -0.49878722 2.0613379 1.5841433e-38
-0.59534967 -0.48972359 2.075278 1.5841433e-38
-0.55755436 -0.48044574 2.0760002 1.5841433e-38
1.0724024 -0.5116846 2.0760002 1.5841433e-38
-0.61471409 -0.46247473 2.0523336 1.5841433e-38
-0.58915728 -0.45630553 2.0709412 1.5841433e-38
-0.55301845 -0.45334733 2.0760005 1.5841433e-38
1.0667992 -0.45694733 2.0723615 1.5841433e-38
-0.60699838 -0.43608171 2.0510004 1.5841433e-38
-0.58011311 -0.41971567 2.0577166 1.5841433e-38
-0.54137391 -0.41758576 2.06655 1.5841433e-38
-0.51702291 -0.41025716 2.0760002 1.5841433e-38
1.0603353 -0.41769361 2.068372 1.5841433e-38
-0.5719437 -0.38350439 2.0510008 1.5841433e-38
-0.53478491 -0.38338146 2.0567665 1.5841433e-38
-0.50292957 -0.37821156 2.0757072 1.5841433e-38
-0.47649145 -0.36379433 2.0760002 1.5841433e-38
1.0340257 -0.37564927 2.071667 1.5841433e-38
1.0544569 -0.38192374 2.0644343 1.5841433e-38
-0.56255996 -0.35550669 2.0510001 1.5841433e-38
-0.55670011 -0.35355335 2.0510001 1.5841433e-38
-0.49517307 -0.34173831 2.0632918 1.5841433e-38
-0.46822342 -0.33210012 2.0760005 1.5841433e-38
1.0360461 -0.33877575 2.071125 1.5841433e-38
1.04989 -0.34142163 2.0601397 1.5841433e-38
-0.4902685 -0.3102603 2.052846 1.5841433e-38
-0.45749071 -0.30095029 2.0658915 1.5841433e-38
-0.43096495 -0.28630415 2.0751336 1.5841433e-38
1.0294509 -0.30054772 2.0705354 1.5841433e-38
1.0425607 -0.30150887 2.0616193 1.5841433e-38
-0.4485251 -0.26738265 2.0560317 1.5841433e-38
-0.42255154 -0.25824782 2.0683932 1.5841433e-38
-0.38735878 -0.25434798 2.0743341 1.5841433e-38
1.0242745 -0.26128802 2.0681498 1.5841433e-38
1.0419937 -0.26615936 2.0527146 1.5841433e-38
-0.41277605 -0.22269483 2.062001 1.5841433e-38
-0.3792145 -0.22018668 2.0689199 1.5841433e-38
-0.35346329 -0.21079573 2.0746317 1.5841433e-38
0.9945029 -0.20924765 2.0760002 1.5841433e-38
1.016782 -0.21955061 2.0619516 1.5841433e-38
-0.40322384 -0.19338003 2.0510004 1.5841433e-38
-0.37540066 -0.18587267 2.0564928 1.5841433e-38
-0.34374234 -0.18007889 2.0695815 1.5841433e-38
-0.31357488 -0.16093946 2.0760002 1.5841433e-38
0.99554896 -0.18166003 2.0510001 1.5841433e-38
1.0194193 -0.1854106 2.0617831 1.5841433e-38
1.0538733 -0.16969596 2.0640557 1.5841433e-38
-0.36462229 -0.14432965 2.0510001 1.5841433e-38
-0.33940151 -0.14094897 2.0587566 1.5841433e-38
-0.30574635 -0.13987073 2.075799 1.5841433e-38
-0.27284575 -0.12258287 2.0760002 1.5841433e-38
-0.33009276 -0.10882194 2.0542006 1.5841433e-38
-0.30035135 -0.098879464 2.0642474 1.5841433e-38
-0.27356228 -0.10001568 2.0590415 1.5841433e-38
-0.29708117 -0.060872603 2.0567222 1.5841433e-38
-0.27254847 -0.05432535 2.0551248 1.5841433e-38
-0.28714001 -0.029300004 2.0510006 1.5841433e-38
-0.27045777 -0.030921403 2.0517063 1.5841433e-38
-0.0039542862 0.31634289 2.0760002 1.5841433e-38
0.0019771431 0.31832001 2.0760002 1.5841433e-38
-0.01143391 0.34153578 2.0532722 1.5841433e-38
0.016963059 0.34357944 2.0636206 1.5841433e-38
0.041520007 0.35127243 2.0760002 1.5841433e-38
-0.011416256 0.37006503 2.054379 1.5841433e-38
0.01990843 0.37405384 2.0554934 1.5841433e-38
0.043836333 0.37338465 2.0651431 1.5841433e-38
0.0039066668 0.40238667 2.0510001 1.5841433e-38
-0.7268846 -0.21134233 1.8617376 1.5841433e-38
-0.60355115 -0.47473976 1.9961374 1.5841433e-38
-0.61248678 -0.62436002 2.0534911 1.5841433e-38
-0.57743198 -0.67978758 2.0790417 1.5841433e-38
-0.62017602 -0.65675718 2.0745313 1.5841433e-38
-0.54365611 -0.59067434 2.0708523 1.5841433e-38
-0.57732463 -0.73818445 2.080106 1.5841433e-38
-0.53850985 -0.80715972 2.0984457 1.5841433e-38
-0.49995026 -0.81066519 2.097791 1.5841433e-38
-0.46101481 -0.80896831 2.0987294 1.5841433e-38
-0.42261308 -0.8079989 2.0964253 1.5841433e-38
-0.38001254 -0.80315059 2.0957041 1.5841433e-38
-0.3329086 -0.8017894 2.0932002 1.5841433e-38
-0.28613621 -0.80238193 2.1010001 1.5841433e-38
-0.26590145 -0.80164129 2.0912502 1.5841433e-38
-0.77140361 -0.78062433 2.0890307 1.5841433e-38
-0.74080217 -0.78092611 2.0981512 1.5841433e-38
-0.71178168 -0.77913779 2.108041 1.5841433e-38
-0.56853241 -0.79562259 2.1114001 1.5841433e-38
-0.5446164 -0.79519916 2.1130364 1.5841433e-38
-0.49948972 -0.79782921 2.1140003 1.5841433e-38
-0.45269051 -0.79874456 2.1125557 1.5841433e-38
-0.41043386 -0.79164147 2.1085 1.5841433e-38
-0.38244411 -0.79353315 2.1087995 1.5841433e-38
-0.33935636 -0.79305017 2.106158 1.5841433e-38
-0.29869771 -0.78864092 2.1034923 1.5841433e-38
-0.26016793 -0.7892583 2.1062951 1.5841433e-38
-0.22154495 -0.77851552 2.1026947 1.5841433e-38
-0.17877977 -0.77975851 2.1017141 1.5841433e-38
-0.14001778 -0.77444261 2.1007066 1.5841433e-38
-0.10000101 -0.77584249 2.1023135 1.5841433e-38
-0.060740642 -0.7698155 2.0967405 1.5841433e-38
-0.01919337 -0.77339977 2.0940769 1.5841433e-38
0.017567392 -0.76861578 2.0959313 1.5841433e-38
0.061209023 -0.76771063 2.094882 1.5841433e-38
0.091667064 -0.76655293 2.09426 1.5841433e-38
0.16505143 -0.76361144 2.0880001 1.5841433e-38
0.24724571 -0.76294863 2.0880001 1.5841433e-38
-0.7617709 -0.75222075 2.0906003 1.5841433e-38
-0.73994648 -0.74187624 2.092587 1.5841433e-38
-0.70278037 -0.7392326 2.1011417 1.5841433e-38
-0.16930304 -0.75609815 2.1140003 1.5841433e-38
-0.14611049 -0.75730103 2.1140003 1.5841433e-38
-0.054439973 -0.75325906 2.1088684 1.5841433e-38
-0.022442205 -0.75347793 2.1092973 1.5841433e-38
0.020301733 -0.75744134 2.1116362 1.5841433e-38
0.06295304 -0.75263852 2.1068807 1.5841433e-38
0.10244477 -0.74955809 2.1046314 1.5841433e-38
0.13995153 -0.74892247 2.0993278 1.5841433e-38
0.18000966 -0.74660766 2.0969582 1.5841433e-38
0.21890959 -0.7462545 2.0972846 1.5841433e-38
0.25787264 -0.74000716 2.0977991 1.5841433e-38
0.30094418 -0.736251 2.1035268 1.5841433e-38
0.33864528 -0.73757744 2.1035719 1.5841433e-38
0.38020244 -0.73942161 2.1053843 1.5841433e-38
0.41770446 -0.73092502 2.1036398 1.5841433e-38
0.45883551 -0.72538072 2.0970998 1.5841433e-38
0.50026262 -0.72709358 2.0965083 1.5841433e-38
0.54213011 -0.72856796 2.0974994 1.5841433e-38
0.57814521 -0.72747403 2.097517 1.5841433e-38
0.60701144 -0.72433716 2.0880001 1.5841433e-38
0.65424001 -0.72185153 2.0880001 1.5841433e-38
0.71058291 -0.72450292 2.0879998 1.5841433e-38
0.73298752 -0.72264683 2.0880001 1.5841433e-38
-0.73776001 -0.71177614 2.0879998 1.5841433e-38
-0.69708449 -0.70061064 2.0948408 1.5841433e-38
-0.66765761 -0.69487697 2.1104035 1.5841433e-38
0.4282065 -0.71403289 2.1119473 1.5841433e-38
0.45650387 -0.712744 2.1120212 1.5841433e-38
0.5028441 -0.71514815 2.1106451 1.5841433e-38
0.53880566 -0.71410573 2.1118329 1.5841433e-38
0.58902031 -0.71137559 2.1057267 1.5841433e-38
0.61874151 -0.70754099 2.0987647 1.5841433e-38
0.66073656 -0.71109116 2.1029685 1.5841433e-38
0.69883525 -0.7093994 2.0981314 1.5841433e-38
0.73941046 -0.70353639 2.09794 1.5841433e-38
0.78153956 -0.69209051 2.0962718 1.5841433e-38
0.82103848 -0.69290537 2.0965989 1.5841433e-38
0.85791743 -0.69100744 2.0949841 1.5841433e-38
0.88979656 -0.68317527 2.0936873 1.5841433e-38
1.0744915 -0.68605721 2.0880001 1.5841433e-38
-0.69007647 -0.67349803 2.0901668 1.5841433e-38
-0.65825915 -0.65978116 2.098727 1.5841433e-38
-0.63554227 -0.64829338 2.1140003 1.5841433e-38
0.83897954 -0.67840815 2.1075001 1.5841433e-38
0.85992539 -0.6769892 2.1098402 1.5841433e-38
0.90227264 -0.671987 2.0958538 1.5841433e-38
0.93848664 -0.65883976 2.1002665 1.5841433e-38
0.97672516 -0.651452 2.1014397 1.5841433e-38
1.0231764 -0.65079802 2.104872 1.5841433e-38
1.0602828 -0.66178054 2.1004274 1.5841433e-38
1.0900407 -0.65725124 2.1074994 1.5841433e-38
-0.65732002 -0.62272704 2.0949523 1.5841433e-38
-0.62937492 -0.61785918 2.106571 1.5841433e-38
0.99092227 -0.63745224 2.1088002 1.5841433e-38
1.0197263 -0.63756847 2.1118336 1.5841433e-38
1.0675395 -0.62109852 2.1065717 1.5841433e-38
1.0870594 -0.61994058 2.1061065 1.5841433e-38
-0.65125722 -0.58554411 2.0879996 1.5841433e-38
-0.62240607 -0.5794524 2.0986109 1.5841433e-38
-0.5856207 -0.56737506 2.1098638 1.5841433e-38
1.0926348 -0.58203697 2.1111102 1.5841433e-38
-0.61455214 -0.54296303 2.0902333 1.5841433e-38
-0.5834403 -0.53949189 2.1077945 1.5841433e-38
-0.55447203 -0.52306408 2.1140001 1.5841433e-38
1.0717995 -0.53193146 2.1030967 1.5841433e-38
1.0852921 -0.54803407 2.0981116 1.5841433e-38
-0.611552 -0.51610059 2.0879998 1.5841433e-38
-0.58007282 -0.50208026 2.0940113 1.5841433e-38
-0.5423944 -0.49685556 2.1034672 1.5841433e-38
-0.51608443 -0.48252892 2.1140001 1.5841433e-38
1.03284 -0.49326667 2.1140001 1.5841433e-38
1.0676709 -0.49863398 2.10461 1.5841433e-38
1.0837716 -0.49117717 2.0880001 1.5841433e-38
-0.57763678 -0.46705496 2.0879996 1.5841433e-38
-0.53659272 -0.46385774 2.0909986 1.5841433e-38
-0.50881904 -0.45437932 2.1056037 1.5841433e-38
1.0320709 -0.45057586 2.1124399 1.5841433e-38
1.0539622 -0.46038625 2.1033204 1.5841433e-38
-0.52816457 -0.43629256 2.0880001 1.5841433e-38
-0.49953866 -0.42078552 2.0946844 1.5841433e-38
-0.46592754 -0.40949589 2.1111112 1.5841433e-38
1.0324997 -0.41673097 2.1101584 1.5841433e-38
1.0480094 -0.422692 2.0963564 1.5841433e-38
-0.48734924 -0.39127526 2.0886502 1.5841433e-38
-0.46113238 -0.3792339 2.0985613 1.5841433e-38
-0.4222967 -0.36390999 2.1140001 1.5841433e-38
-0.39461333 -0.36038667 2.1140001 1.5841433e-38
1.0263975 -0.37867957 2.1034923 1.5841433e-38
1.0433486 -0.39273375 2.0935717 1.5841433e-38
-0.45661622 -0.34438178 2.0904841 1.5841433e-38
-0.42310148 -0.33538422 2.1018012 1.5841433e-38
-0.38896385 -0.33434206 2.1128926 1.5841433e-38
1.0257102 -0.34030026 2.1039066 1.5841433e-38
1.0452095 -0.34386039 2.1000004 1.5841433e-38
-0.44504234 -0.31300116 2.0880001 1.5841433e-38
-0.41867554 -0.30186144 2.0924339 1.5841433e-38
-0.38024712 -0.29851109 2.1051586 1.5841433e-38
-0.35636002 -0.29883623 2.1140003 1.5841433e-38
1.0180132 -0.30024794 2.1009994 1.5841433e-38
-0.4085094 -0.27072987 2.0879998 1.5841433e-38
-0.37403366 -0.26474467 2.0966659 1.5841433e-38
-0.34802926 -0.25556028 2.1098204 1.5841433e-38
-0.2953282 -0.25342548 2.113409 1.5841433e-38
-0.27985334 -0.24361333 2.1140001 1.5841433e-38
0.99680835 -0.25730827 2.1125557 1.5841433e-38
1.0077575 -0.26010609 2.1009994 1.5841433e-38
-0.36390856 -0.23663999 2.0880001 1.5841433e-38
-0.33659258 -0.22248645 2.1007161 1.5841433e-38
-0.30405077 -0.22133407 2.1137626 1.5841433e-38
-0.27985334 -0.23757334 2.1140001 1.5841433e-38
0.99120724 -0.21809334 2.1006663 1.5841433e-38
1.0039933 -0.22797659 2.0961852 1.5841433e-38
-0.3245956 -0.18450205 2.0933185 1.5841433e-38
-0.30155253 -0.18000244 2.1060543 1.5841433e-38
-0.27733669 -0.16811332 2.1140001 1.5841433e-38
0.99641943 -0.19705372 2.0984001 1.5841433e-38
1.0026991 -0.19448191 2.099143 1.5841433e-38
-0.28767774 -0.13977621 2.0918999 1.5841433e-38
-0.26414126 -0.14063536 2.1082635 1.5841433e-38
-0.28834286 -0.11732572 2.0880001 1.5841433e-38
0.022482682 0.26667848 2.1059828 1.5841433e-38
0.047564998 0.27255502 2.1140001 1.5841433e-38
-0.0043773334 0.31099376 2.0906 1.5841433e-38
0.021811975 0.3006469 2.0972433 1.5841433e-38
0.047974981 0.30207932 2.110486 1.5841433e-38
-0.0099428575 0.32016 2.0880001 1.5841433e-38
0.026461154 0.32708997 2.0883942 1.5841433e-38
0.056715354 0.34183732 2.0994327 1.5841433e-38
0.083888888 0.35233337 2.1140001 1.5841433e-38
0.06157732 0.36703131 2.0986791 1.5841433e-38
0.084559999 0.36038667 2.1140001 1.5841433e-38
-0.69435376 -0.80502433 2.1316123 1.5841433e-38
-0.65894419 -0.80528563 2.1356661 1.5841433e-38
-0.62020701 -0.80542666 2.1357667 1.5841433e-38
-0.58897644 -0.80218291 2.1270001 1.5841433e-38
-0.52384967 -0.80177778 2.1270001 1.5841433e-38
-0.49720034 -0.80195779 2.1270001 1.5841433e-38
-0.46462524 -0.8012622 2.1270003 1.5841433e-38
-0.43147716 -0.80015719 2.1270001 1.5841433e-38
-0.69551301 -0.78350711 2.1364918 1.5841433e-38
-0.65916407 -0.77851057 2.143451 1.5841433e-38
-0.62221813 -0.788414 2.1496949 1.5841433e-38
-0.57805508 -0.78464758 2.1414855 1.5841433e-38
-0.54010886 -0.78489953 2.1387358 1.5841433e-38
-0.4994562 -0.78731346 2.1383746 1.5841433e-38
-0.46055162 -0.78862792 2.1416712 1.5841433e-38
-0.42103407 -0.78003806 2.1380496 1.5841433e-38
-0.38033947 -0.77529103 2.1368909 1.5841433e-38
-0.34165165 -0.7745356 2.1377053 1.5841433e-38
-0.30089331 -0.77427256 2.1387732 1.5841433e-38
-0.26100072 -0.77076077 2.1372736 1.5841433e-38
-0.21783093 -0.76377654 2.1375811 1.5841433e-38
-0.19285691 -0.76310819 2.1349998 1.5841433e-38
-0.12743914 -0.76176333 2.1423638 1.5841433e-38
-0.10016607 -0.76274079 2.1383226 1.5841433e-38
-0.077807762 -0.76259506 2.1418571 1.5841433e-38
-0.68597758 -0.74454051 2.1284442 1.5841433e-38
-0.65982944 -0.74059469 2.1419566 1.5841433e-38
-0.62468731 -0.73486644 2.1527174 1.5841433e-38
-0.36498478 -0.75662571 2.1530001 1.5841433e-38
-0.35268193 -0.75662571 2.1530001 1.5841433e-38
-0.24312268 -0.75467008 2.1452 1.5841433e-38
-0.219629 -0.7544626 2.1485171 1.5841433e-38
-0.17925565 -0.75346309 2.1450868 1.5841433e-38
-0.14077532 -0.75260472 2.1448429 1.5841433e-38
-0.10204066 -0.75240159 2.1478 1.5841433e-38
-0.059329163 -0.74018586 2.143934 1.5841433e-38
-0.019593475 -0.73851252 2.1416624 1.5841433e-38
0.020263257 -0.74093753 2.1398792 1.5841433e-38
0.060235813 -0.73830116 2.1410222 1.5841433e-38
0.099963009 -0.73398566 2.1373618 1.5841433e-38
0.13905379 -0.7319321 2.1338708 1.5841433e-38
0.17878379 -0.73160303 2.1339056 1.5841433e-38
0.22047414 -0.73156965 2.1350753 1.5841433e-38
0.25477195 -0.73043454 2.1336379 1.5841433e-38
0.30048099 -0.72498065 2.1270001 1.5841433e-38
0.34172243 -0.72411501 2.1270003 1.5841433e-38
0.37948382 -0.72672504 2.1269999 1.5841433e-38
0.40446764 -0.72453058 2.1270003 1.5841433e-38
-0.68266571 -0.71102571 2.1270001 1.5841433e-38
-0.65487528 -0.70713651 2.1308513 1.5841433e-38
-0.62085152 -0.70069879 2.1464999 1.5841433e-38
-0.58515471 -0.69126683 2.1530001 1.5841433e-38
-0.051261909 -0.7197172 2.1530001 1.5841433e-38
0.019479524 -0.7197172 2.1530001 1.5841433e-38
0.11072572 -0.71869195 2.1530001 1.5841433e-38
0.1387611 -0.71697456 2.1500001 1.5841433e-38
0.18083487 -0.71759486 2.1495335 1.5841433e-38
0.21600336 -0.71794116 2.14975 1.5841433e-38
0.26431942 -0.71278507 2.1438234 1.5841433e-38
0.29918045 -0.71409494 2.1407087 1.5841433e-38
0.34070998 -0.71236676 2.1362538 1.5841433e-38
0.3819361 -0.71021163 2.1424265 1.5841433e-38
0.42013827 -0.70942783 2.1392233 1.5841433e-38
0.45999369 -0.6991486 2.1443331 1.5841433e-38
0.49989489 -0.70733178 2.1451998 1.5841433e-38
0.5400486 -0.70406801 2.14065 1.5841433e-38
0.57894468 -0.70508116 2.1434207 1.5841433e-38
0.62103724 -0.69477659 2.1394579 1.5841433e-38
0.659711 -0.69251108 2.1374316 1.5841433e-38
0.70033747 -0.6923247 2.138555 1.5841433e-38
0.73754448 -0.69066119 2.1376553 1.5841433e-38
0.77611667 -0.68704718 2.1361272 1.5841433e-38
0.81808805 -0.68553948 2.1275415 1.5841433e-38
0.84067142 -0.68266571 2.1270001 1.5841433e-38
-0.64215147 -0.66510957 2.1270001 1.5841433e-38
-0.61857104 -0.66108155 2.1402359 1.5841433e-38
-0.57897228 -0.65875429 2.148726 1.5841433e-38
-0.55841309 -0.6518237 2.1530001 1.5841433e-38
0.66591269 -0.67427868 2.1529999 1.5841433e-38
0.70342726 -0.67267007 2.1530001 1.5841433e-38
0.73722047 -0.67535132 2.1524091 1.5841433e-38
0.78463131 -0.6728887 2.1420524 1.5841433e-38
0.81980169 -0.66724873 2.1396902 1.5841433e-38
0.85965985 -0.66569632 2.1373329 1.5841433e-38
0.90124738 -0.66408062 2.1371663 1.5841433e-38
0.93623435 -0.64958632 2.1362853 1.5841433e-38
0.97721809 -0.64516491 2.1291666 1.5841433e-38
1.022251 -0.64213252 2.1286252 1.5841433e-38
1.0679135 -0.64834249 2.1295998 1.5841433e-38
1.0837572 -0.64215147 2.1270001 1.5841433e-38
-0.61150527 -0.62190032 2.1367497 1.5841433e-38
-0.57848811 -0.61919367 2.1391785 1.5841433e-38
-0.55126125 -0.61249065 2.1517813 1.5841433e-38
0.95059347 -0.63595319 2.1434667 1.5841433e-38
0.98442441 -0.63086241 2.1433089 1.5841433e-38
1.0177506 -0.63247919 2.14325 1.5841433e-38
1.0625459 -0.61987704 2.1360996 1.5841433e-38
1.0843505 -0.61000931 2.1356668 1.5841433e-38
-0.60601646 -0.59385467 2.1296003 1.5841433e-38
-0.57794571 -0.58287418 2.1315768 1.5841433e-38
-0.54109341 -0.57725936 2.1401489 1.5841433e-38
-0.51561123 -0.57206774 2.1455715 1.5841433e-38
1.0658742 -0.57696766 2.1492181 1.5841433e-38
1.0852284 -0.58146912 2.1366858 1.5841433e-38
-0.57130706 -0.54549074 2.1274812 1.5841433e-38
-0.53897232 -0.53917634 2.1298385 1.5841433e-38
-0.50300139 -0.53707093 2.1413162 1.5841433e-38
-0.47366005 -0.52738255 2.1530001 1.5841433e-38
1.0376563 -0.52929586 2.1416252 1.5841433e-38
1.0579911 -0.54166287 2.1373718 1.5841433e-38
1.0832477 -0.55549717 2.1313334 1.5841433e-38
-0.52705413 -0.50863844 2.1270001 1.5841433e-38
-0.49932778 -0.50067747 2.1369102 1.5841433e-38
-0.46674362 -0.49831474 2.1491895 1.5841433e-38
1.0302742 -0.49685571 2.1348848 1.5841433e-38
1.0518628 -0.49983409 2.1269994 1.5841433e-38
-0.49285921 -0.46335033 2.1290519 1.5841433e-38
-0.46029794 -0.46020463 2.140419 1.5841433e-38
-0.42238614 -0.44873312 2.1487837 1.5841433e-38
-0.39984292 -0.44495338 2.1530004 1.5841433e-38
1.0229393 -0.46172562 2.1342218 1.5841433e-38
1.0432429 -0.47199148 2.1270001 1.5841433e-38
-0.48009431 -0.42742574 2.1270003 1.5841433e-38
-0.45660156 -0.42506608 2.1294847 1.5841433e-38
-0.42118844 -0.41996923 2.1428735 1.5841433e-38
-0.39537141 -0.41823462 2.151 1.5841433e-38
1.0182618 -0.41975027 2.1353195 1.5841433e-38
1.0452687 -0.43350285 2.1270001 1.5841433e-38
-0.44531953 -0.38724908 2.1270003 1.5841433e-38
-0.42177337 -0.3813718 2.1294177 1.5841433e-38
-0.38044778 -0.38021237 2.136168 1.5841433e-38
-0.35080877 -0.36804596 2.1475263 1.5841433e-38
1.0158552 -0.38061777 2.1345394 1.5841433e-38
-0.4152714 -0.35146147 2.1269999 1.5841433e-38
-0.37182212 -0.34358898 2.1283214 1.5841433e-38
-0.34695712 -0.33903244 2.1427255 1.5841433e-38
0.99043357 -0.32634121 2.1460669 1.5841433e-38
1.0124172 -0.34008944 2.1370158 1.5841433e-38
-0.36665428 -0.31803715 2.1270003 1.5841433e-38
-0.34001696 -0.299788 2.1306927 1.5841433e-38
-0.31597611 -0.29037523 2.1320004 1.5841433e-38
0.98584217 -0.29909807 2.1377866 1.5841433e-38
1.010347 -0.29799467 2.1272821 1.5841433e-38
-0.33100179 -0.26410818 2.1269994 1.5841433e-38
-0.31207252 -0.25625283 2.1269996 1.5841433e-38
0.98988295 -0.25957593 2.139837 1.5841433e-38
1.0047543 -0.27752286 2.1270001 1.5841433e-38
-0.29126152 -0.21726526 2.1273091 1.5841433e-38
-0.26897752 -0.21371621 2.1437552 1.5841433e-38
0.95994294 -0.20177144 2.1400001 1.5841433e-38
0.9788354 -0.21952285 2.1398835 1.5841433e-38
1.004781 -0.20177144 2.1400001 1.5841433e-38
-0.28427523 -0.1910924 2.1270001 1.5841433e-38
-0.25960475 -0.17948718 2.1359017 1.5841433e-38
0.95710504 -0.19096437 2.136286 1.5841433e-38
0.97955626 -0.19181047 2.1407025 1.5841433e-38
1.0064777 -0.18926811 2.1421669 1.5841433e-38
-0.25726572 -0.15598002 2.1270001 1.5841433e-38
0.05741334 0.1988962 2.1530001 1.5841433e-38
0.032121528 0.22530706 2.1414855 1.5841433e-38
0.058562405 0.22362876 2.1478 1.5841433e-38
0.02774575 0.24861372 2.1313331 1.5841433e-38
0.062839538 0.25912714 2.1417928 1.5841433e-38
0.097423911 0.26478431 2.1527593 1.5841433e-38
0.068798609 0.30032343 2.1369045 1.5841433e-38
0.10020734 0.30060199 2.1473534 1.5841433e-38
0.12948757 0.30449572 2.1530001 1.5841433e-38
0.073073536 0.33115283 2.1286957 1.5841433e-38
0.098394006 0.33798409 2.1347632 1.5841433e-38
0.13282751 0.33206722 2.1509473 1.5841433e-38
-0.64184475 -0.77392858 2.1670001 1.5841433e-38
-0.61967951 -0.77632415 2.182467 1.5841433e-38
-0.58063579 -0.76998436 2.1783397 1.5841433e-38
-0.53941369 -0.77171868 2.1812406 1.5841433e-38
-0.49958012 -0.77078456 2.1768725 1.5841433e-38
-0.46114689 -0.77143669 2.178576 1.5841433e-38
-0.42394218 -0.76591265 2.1756501 1.5841433e-38
-0.38400617 -0.76457274 2.1670003 1.5841433e-38
-0.3322733 -0.766159 2.1670001 1.5841433e-38
-0.30042031 -0.76557672 2.1692104 1.5841433e-38
-0.2678825 -0.76402235 2.1670003 1.5841433e-38
-0.61126453 -0.74518716 2.1720681 1.5841433e-38
-0.57852322 -0.73993862 2.1821723 1.5841433e-38
-0.54808253 -0.74143028 2.1937294 1.5841433e-38
-0.49816704 -0.75603896 2.194 1.5841433e-38
-0.46000168 -0.75547469 2.19348 1.5841433e-38
-0.41428486 -0.7549541 2.1891482 1.5841433e-38
-0.37864819 -0.75017375 2.1828256 1.5841433e-38
-0.34175888 -0.74782979 2.1811185 1.5841433e-38
-0.29942816 -0.74880856 2.1836417 1.5841433e-38
-0.25841177 -0.74760717 2.1804709 1.5841433e-38
-0.21897535 -0.7381503 2.1776202 1.5841433e-38
-0.18029903 -0.73734647 2.1780014 1.5841433e-38
-0.14120233 -0.73957574 2.1794095 1.5841433e-38
-0.098721415 -0.73694277 2.179296 1.5841433e-38
-0.066327646 -0.72827548 2.1779714 1.5841433e-38
-0.017707674 -0.72308809 2.1714866 1.5841433e-38
0.021531256 -0.72222775 2.173697 1.5841433e-38
0.060686596 -0.72397137 2.1794047 1.5841433e-38
0.093380764 -0.72378755 2.1758573 1.5841433e-38
0.14678714 -0.72039425 2.1705 1.5841433e-38
0.16716857 -0.72026956 2.1670001 1.5841433e-38
0.23045874 -0.72026956 2.1670003 1.5841433e-38
0.24146572 -0.72026956 2.1670001 1.5841433e-38
-0.60056859 -0.70375907 2.1670001 1.5841433e-38
-0.57879639 -0.70233697 2.1708007 1.5841433e-38
-0.54470593 -0.69751906 2.1875653 1.5841433e-38
-0.51100469 -0.68791765 2.194 1.5841433e-38
-0.051902674 -0.71404171 2.1877143 1.5841433e-38
-0.021939462 -0.71230531 2.1905653 1.5841433e-38
0.017440783 -0.71474332 2.1907501 1.5841433e-38
0.06204978 -0.71325427 2.194 1.5841433e-38
0.10408317 -0.70466971 2.1861758 1.5841433e-38
0.14000694 -0.70381945 2.1838195 1.5841433e-38
0.17989555 -0.70210785 2.1829669 1.5841433e-38
0.21935689 -0.70303369 2.1817803 1.5841433e-38
0.258448 -0.69816065 2.1840117 1.5841433e-38
0.30122662 -0.69560307 2.1781204 1.5841433e-38
0.34032282 -0.695081 2.1780014 1.5841433e-38
0.37932369 -0.69326681 2.180872 1.5841433e-38
0.42103419 -0.69283772 2.1781271 1.5841433e-38
0.4611541 -0.68658322 2.1681666 1.5841433e-38
0.49875405 -0.69091719 2.1670001 1.5841433e-38
0.54004771 -0.68941462 2.171541 1.5841433e-38
0.57790208 -0.68851477 2.1678486 1.5841433e-38
0.6141755 -0.68627566 2.1752999 1.5841433e-38
0.64459652 -0.68449688 2.1670003 1.5841433e-38
-0.57910496 -0.67610401 2.1670001 1.5841433e-38
-0.53927112 -0.66039395 2.1805053 1.5841433e-38
-0.50790906 -0.65154451 2.194 1.5841433e-38
0.27372763 -0.67909521 2.194 1.5841433e-38
0.30274874 -0.67723787 2.194 1.5841433e-38
0.34280485 -0.6768828 2.194 1.5841433e-38
0.38516891 -0.67770225 2.194 1.5841433e-38
0.42448911 -0.67703676 2.1914001 1.5841433e-38
0.46139809 -0.67596006 2.1853266 1.5841433e-38
0.49870518 -0.67483765 2.1785333 1.5841433e-38
0.54496258 -0.67761368 2.1886365 1.5841433e-38
0.57956219 -0.67422223 2.181911 1.5841433e-38
0.62450218 -0.67177802 2.1843817 1.5841433e-38
0.65771073 -0.66993225 2.1834073 1.5841433e-38
0.69895655 -0.66578716 2.1864512 1.5841433e-38
0.74280226 -0.66662586 2.1917386 1.5841433e-38
0.78263128 -0.6653415 2.186229 1.5841433e-38
0.81858569 -0.65022933 2.1819851 1.5841433e-38
0.85974628 -0.65063107 2.1765788 1.5841433e-38
0.90069079 -0.65000021 2.1776981 1.5841433e-38
0.93477494 -0.646501 2.1791291 1.5841433e-38
1.0463514 -0.64184475 2.1670001 1.5841433e-38
-0.53566962 -0.62315005 2.1749198 1.5841433e-38
-0.50076389 -0.61915559 2.191128 1.5841433e-38
-0.4758144 -0.61342448 2.1940002 1.5841433e-38
0.82085478 -0.63233429 2.1925142 1.5841433e-38
0.86131948 -0.62610012 2.1902153 1.5841433e-38
0.8999238 -0.62800664 2.192143 1.5841433e-38
0.93988365 -0.63047343 2.1862643 1.5841433e-38
0.98071718 -0.6223672 2.1810553 1.5841433e-38
1.0210001 -0.6131466 2.1778715 1.5841433e-38
1.0492224 -0.61588627 2.1715817 1.5841433e-38
1.0835 -0.6026324 2.1670001 1.5841433e-38
-0.52420765 -0.59644097 2.1670001 1.5841433e-38
-0.49760941 -0.58196563 2.1784942 1.5841433e-38
-0.4644185 -0.57727617 2.1903136 1.5841433e-38
0.99670279 -0.5996933 2.194 1.5841433e-38
1.0232267 -0.58306247 2.1891236 1.5841433e-38
1.0524364 -0.58073688 2.1717656 1.5841433e-38
1.0835 -0.59644097 2.1670001 1.5841433e-38
-0.49072552 -0.55238575 2.1708183 1.5841433e-38
-0.45827353 -0.5422402 2.1817589 1.5841433e-38
-0.4258965 -0.53449982 2.1908801 1.5841433e-38
1.0203698 -0.5385685 2.1852984 1.5841433e-38
1.0440372 -0.54620999 2.1749129 1.5841433e-38
-0.44922924 -0.50262415 2.17225 1.5841433e-38
-0.4203777 -0.49915799 2.1792278 1.5841433e-38
-0.38203841 -0.4958477 2.1881502 1.5841433e-38
-0.35730857 -0.48476952 2.194 1.5841433e-38
1.0196183 -0.50002933 2.176667 1.5841433e-38
-0.44578284 -0.47467619 2.1670001 1.5841433e-38
-0.41703093 -0.46943474 2.1728113 1.5841433e-38
-0.37918925 -0.4614428 2.1794953 1.5841433e-38
-0.35237837 -0.45427063 2.1902258 1.5841433e-38
0.99304473 -0.44933143 2.1842499 1.5841433e-38
1.0131845 -0.46028459 2.1746626 1.5841433e-38
-0.37671503 -0.42298359 2.1709445 1.5841433e-38
-0.34325895 -0.42016193 2.1841753 1.5841433e-38
0.98786753 -0.4205482 2.1814225 1.5841433e-38
1.010003 -0.42028537 2.1732037 1.5841433e-38
-0.36254257 -0.3934997 2.1670001 1.5841433e-38
-0.34710762 -0.38428769 2.1682727 1.5841433e-38
0.98986065 -0.37796882 2.1850784 1.5841433e-38
1.0106914 -0.38088879 2.1740639 1.5841433e-38
-0.34052858 -0.35703906 2.1670003 1.5841433e-38
0.98451859 -0.34156057 2.1770597 1.5841433e-38
1.0065006 -0.35020867 2.1677368 1.5841433e-38
0.97393435 -0.30089068 2.1758749 1.5841433e-38
0.95421576 -0.25039461 2.1940002 1.5841433e-38
0.97342587 -0.2621938 2.1742291 1.5841433e-38
-0.28686953 -0.2373381 2.1670001 1.5841433e-38
-0.26033485 -0.2137517 2.1670001 1.5841433e-38
0.95658392 -0.21104191 2.194 1.5841433e-38
0.96463174 -0.2203217 2.1809998 1.5841433e-38
0.95700192 -0.19850476 2.194 1.5841433e-38
0.96553874 -0.19602731 2.1896667 1.5841433e-38
1.0236495 -0.19193429 2.1670001 1.5841433e-38
0.03921238 0.20431715 2.1670001 1.5841433e-38
0.063978098 0.21532413 2.1670003 1.5841433e-38
0.10148823 0.22729239 2.1818709 1.5841433e-38
0.13267045 0.22929522 2.1901002 1.5841433e-38
0.16089334 0.23611619 2.194 1.5841433e-38
0.10580735 0.25051159 2.1689446 1.5841433e-38
0.13945395 0.25934547 2.186451 1.5841433e-38
0.16631065 0.2655243 2.194 1.5841433e-38
0.14617282 0.29733676 2.1758001 1.5841433e-38
0.17555755 0.30347294 2.1916001 1.5841433e-38
0.20477332 0.31342858 2.194 1.5841433e-38
0.14852881 0.3308633 2.169625 1.5841433e-38
0.17487243 0.32576591 2.1816316 1.5841433e-38
-0.53140289 -0.76005429 2.223 1.5841433e-38
-0.50678861 -0.76333719 2.2080002 1.5841433e-38
-0.53400487 -0.74165142 2.2168243 1.5841433e-38
-0.50193101 -0.74125028 2.224416 1.5841433e-38
-0.46174759 -0.74497408 2.2266667 1.5841433e-38
-0.41930437 -0.74020702 2.2246828 1.5841433e-38
-0.38104552 -0.73229313 2.2231438 1.5841433e-38
-0.33871335 -0.73209792 2.2244861 1.5841433e-38
-0.30086753 -0.73249042 2.2252002 1.5841433e-38
-0.26321128 -0.73220801 2.2218313 1.5841433e-38
-0.22416459 -0.72443438 2.2080002 1.5841433e-38
-0.1799887 -0.72471124 2.2095003 1.5841433e-38
-0.13923734 -0.72730702 2.2084289 1.5841433e-38
-0.10233905 -0.72576618 2.2080002 1.5841433e-38
-0.075786203 -0.72419488 2.2105002 1.5841433e-38
-0.53103334 -0.70891035 2.2080002 1.5841433e-38
-0.49964666 -0.69907779 2.2206035 1.5841433e-38
-0.46799463 -0.69082648 2.2369998 1.5841433e-38
-0.41459066 -0.71797049 2.237 1.5841433e-38
-0.37815949 -0.7172603 2.2369998 1.5841433e-38
-0.33811441 -0.71339387 2.2369998 1.5841433e-38
-0.30439177 -0.71557379 2.2369998 1.5841433e-38
-0.25276628 -0.71165389 2.231708 1.5841433e-38
-0.22099072 -0.70664364 2.2241614 1.5841433e-38
-0.18066087 -0.7100606 2.2263334 1.5841433e-38
-0.13962479 -0.71224725 2.2257354 1.5841433e-38
-0.10136542 -0.71239078 2.2243516 1.5841433e-38
-0.059848957 -0.70803332 2.2245657 1.5841433e-38
-0.019871708 -0.70126116 2.2217646 1.5841433e-38
0.02180936 -0.70178479 2.2185555 1.5841433e-38
0.059668597 -0.69833153 2.2197638 1.5841433e-38
0.097093731 -0.69126171 2.2181923 1.5841433e-38
0.14169148 -0.68649858 2.2205579 1.5841433e-38
0.1795416 -0.68677062 2.2219501 1.5841433e-38
0.222519 -0.68571651 2.2121379 1.5841433e-38
0.25767457 -0.68461281 2.2093639 1.5841433e-38
0.37472916 -0.68426973 2.2080002 1.5841433e-38
0.42057145 -0.68342859 2.2080002 1.5841433e-38
-0.4960978 -0.66466266 2.2153084 1.5841433e-38
-0.46057031 -0.66004556 2.236685 1.5841433e-38
-0.42338368 -0.65270048 2.2369998 1.5841433e-38
0.11220508 -0.67820162 2.237 1.5841433e-38
0.13982366 -0.67757374 2.2356188 1.5841433e-38
0.18460816 -0.6737628 2.2361248 1.5841433e-38
0.21926825 -0.67488748 2.2315953 1.5841433e-38
0.26140496 -0.67307478 2.2256937 1.5841433e-38
0.29952443 -0.66609734 2.2227678 1.5841433e-38
0.33979237 -0.66554892 2.2221246 1.5841433e-38
0.3797774 -0.66591519 2.2230015 1.5841433e-38
0.41975209 -0.66507405 2.2240591 1.5841433e-38
0.45957246 -0.65769464 2.2214255 1.5841433e-38
0.50054014 -0.65652084 2.2201476 1.5841433e-38
0.53975141 -0.66036409 2.2211461 1.5841433e-38
0.57757115 -0.6604501 2.2217612 1.5841433e-38
0.62169242 -0.65848023 2.2180798 1.5841433e-38
0.66046852 -0.65305328 2.2177658 1.5841433e-38
0.69977087 -0.6488682 2.2180903 1.5841433e-38
0.73917294 -0.64782715 2.2119434 1.5841433e-38
0.77905715 -0.64680403 2.2187116 1.5841433e-38
0.80348402 -0.6438154 2.2227144 1.5841433e-38
0.90573078 -0.64437556 2.2080002 1.5841433e-38
-0.48576006 -0.63716573 2.2080002 1.5841433e-38
-0.45836359 -0.62260091 2.2259481 1.5841433e-38
-0.41946578 -0.62009811 2.2345405 1.5841433e-38
-0.38881189 -0.60683072 2.2369998 1.5841433e-38
0.46231329 -0.63701236 2.237 1.5841433e-38
0.51344478 -0.63701236 2.237 1.5841433e-38
0.63501906 -0.63713616 2.23 1.5841433e-38
0.6460945 -0.63544554 2.2352498 1.5841433e-38
0.70622045 -0.63704336 2.2352498 1.5841433e-38
0.7367202 -0.63417447 2.2245831 1.5841433e-38
0.78112411 -0.63561279 2.2358332 1.5841433e-38
0.82008231 -0.62959296 2.2294409 1.5841433e-38
0.85599262 -0.6205591 2.2314999 1.5841433e-38
0.90388119 -0.61864835 2.2251248 1.5841433e-38
0.9434399 -0.62061715 2.225611 1.5841433e-38
0.97950816 -0.61223197 2.2265897 1.5841433e-38
1.0014086 -0.60550284 2.223 1.5841433e-38
-0.44986439 -0.58946037 2.2107778 1.5841433e-38
-0.41985279 -0.58039117 2.2217708 1.5841433e-38
-0.38160452 -0.57754225 2.234235 1.5841433e-38
-0.3509199 -0.5627501 2.237 1.5841433e-38
0.98580045 -0.5893873 2.2322617 1.5841433e-38
1.010789 -0.57898164 2.2162623 1.5841433e-38
1.0425967 -0.56903315 2.2080002 1.5841433e-38
-0.41115561 -0.54563707 2.2128751 1.5841433e-38
