# .PCD v0.7 - Point Cloud Data file format
VERSION 0.7
FIELDS x y z rgb
SIZE 4 4 4 4
TYPE F F F F
COUNT 1 1 1 1
WIDTH 1018
HEIGHT 1
VIEWPOINT 0 0 0 1 0 0 0
POINTS 1018
DATA ascii
-0.64570701 -0.31316477 1.9690002 1.8420186e-38
-0.61893219 -0.30415219 1.975322 1.8420186e-38
-0.58320749 -0.29788214 1.9851021 1.8420186e-38
-0.55459809 -0.29080492 1.9920005 1.8420186e-38
-0.6075772 -0.27566004 1.9690001 1.8420186e-38
-0.5722062 -0.26257983 1.9754672 1.8420186e-38
-0.54209286 -0.25800818 1.9873548 1.8420186e-38
-0.51109034 -0.24498442 1.9920006 1.8420186e-38
-0.56319374 -0.2354189 1.9712002 1.8420186e-38
-0.5369634 -0.22248732 1.9794174 1.8420186e-38
-0.50701416 -0.21802676 1.9864004 1.8420186e-38
-0.52726442 -0.19493864 1.9702222 1.8420186e-38
-0.4966014 -0.18160729 1.9793122 1.8420186e-38
-0.46950448 -0.17344281 1.9913199 1.8420186e-38
-0.49052891 -0.14723594 1.9727514 1.8420186e-38
-0.45866805 -0.1400353 1.9808815 1.8420186e-38
-0.42680162 -0.13473989 1.9903194 1.8420186e-38
-0.45035401 -0.10285563 1.9708978 1.8420186e-38
-0.42022359 -0.099605002 1.9831339 1.8420186e-38
-0.39546812 -0.09468469 1.9920005 1.8420186e-38
-0.4425562 -0.076884761 1.9690001 1.8420186e-38
-0.41640654 -0.062251259 1.973804 1.8420186e-38
-0.38383725 -0.05468671 1.9834577 1.8420186e-38
-0.35452116 -0.050179657 1.9771819 1.8420186e-38
-0.40965432 -0.036652382 1.9690001 1.8420186e-38
-0.37906086 -0.021552147 1.972767 1.8420186e-38
-0.35468265 -0.022016764 1.9704673 1.8420186e-38
-0.36812872 0.015325226 1.9690007 1.8420186e-38
-0.35629526 0.026253333 1.969 1.8420186e-38
-0.34316859 0.084385715 1.9690001 1.8420186e-38
-0.55952048 0.28582913 1.7312636 1.8420186e-38
-0.41795164 0.0056008161 1.8669293 1.8420186e-38
-0.58784479 -0.25487906 1.9528927 1.8420186e-38
-0.44447049 -0.43435729 1.976776 1.8420186e-38
-0.34820694 -0.33143234 1.9763236 1.8420186e-38
-0.27399254 -0.27136531 1.9772032 1.8420186e-38
-0.22863685 -0.2863175 1.9695991 1.8420186e-38
-0.46739057 -0.28093991 1.8962197 1.8420186e-38
-0.34640202 -0.35885578 1.834553 1.8420186e-38
-0.56132752 0.24141139 1.7474914 1.8420186e-38
-0.40714937 0.46805912 1.7422594 1.8420186e-38
-0.78491396 -0.15809016 1.7659295 1.8420186e-38
-1.0577563 -0.55599046 1.7907695 1.8420186e-38
-0.98331523 -0.40879089 1.782486 1.8420186e-38
-0.83626372 -0.53801465 1.9451778 1.8420186e-38
-0.84503174 -0.65734828 1.9871418 1.8420186e-38
-0.86046505 -0.77686369 2.0253029 1.8420186e-38
-0.82909149 -0.77617645 2.0378006 1.8420186e-38
-0.13399144 -0.79812282 2.039 1.8420186e-38
-0.086871438 -0.79728669 2.0270002 1.8420186e-38
-0.069528982 -0.76198167 2.0340719 1.8420186e-38
-0.042360172 -0.68829435 2.0122979 1.8420186e-38
-0.015303249 -0.77423823 2.0264411 1.8420186e-38
0.062877536 -0.79464078 2.0390005 1.8420186e-38
0.10456218 -0.77352077 2.0299516 1.8420186e-38
0.068330184 -0.70731843 2.0067134 1.8420186e-38
0.0078430129 -0.65163583 1.9949795 1.8420186e-38
0.078442097 -0.68807203 2.0105772 1.8420186e-38
0.14379282 -0.68830419 2.0136833 1.8420186e-38
0.1095788 -0.67898953 1.9921356 1.8420186e-38
0.13569015 -0.62484515 1.9759161 1.8420186e-38
0.27976626 -0.66115123 2.0032604 1.8420186e-38
0.37947321 -0.74074376 2.0090368 1.8420186e-38
0.36334112 -0.74658799 2.0110071 1.8420186e-38
0.49959409 -0.77070642 2.0158093 1.8420186e-38
0.54003084 -0.7709251 2.0108175 1.8420186e-38
0.57902646 -0.77281004 2.0106001 1.8420186e-38
0.62197286 -0.76867855 2.0061688 1.8420186e-38
0.65026814 -0.76447117 2.0067501 1.8420186e-38
1.0342628 -0.77451742 2.0033994 1.8420186e-38
1.044071 -0.77276623 2.006 1.8420186e-38
-0.89319932 -0.74691945 2.0029991 1.8420186e-38
-0.85821009 -0.74203044 2.0083618 1.8420186e-38
-0.82272011 -0.73748803 2.0277343 1.8420186e-38
-0.78976595 -0.72913271 2.0375004 1.8420186e-38
0.37832388 -0.75782984 2.0358 1.8420186e-38
0.42320246 -0.75758523 2.0310001 1.8420186e-38
0.49012136 -0.75823051 2.027 1.8420186e-38
0.54006392 -0.75549901 2.0210001 1.8420186e-38
0.58250898 -0.75207168 2.0201063 1.8420186e-38
0.62082863 -0.75388092 2.0202363 1.8420186e-38
0.66158259 -0.74861306 2.0236194 1.8420186e-38
0.70188838 -0.73864567 2.0270004 1.8420186e-38
0.73759937 -0.73333853 2.0197289 1.8420186e-38
0.77991563 -0.73409528 2.0155342 1.8420186e-38
0.81945997 -0.73134017 2.0252061 1.8420186e-38
0.85720587 -0.72419161 2.0218933 1.8420186e-38
0.90246415 -0.72671467 2.0160711 1.8420186e-38
0.93487066 -0.72463256 2.0107834 1.8420186e-38
1.0267224 -0.74411529 2.0095994 1.8420186e-38
1.0493274 -0.73747307 2.0222001 1.8420186e-38
-0.88322765 -0.71917236 2.003 1.8420186e-38
-0.85420674 -0.70309836 2.0029988 1.8420186e-38
-0.82371926 -0.70004016 2.0129809 1.8420186e-38
-0.7846908 -0.69719344 2.0280721 1.8420186e-38
-0.7558865 -0.68500692 2.0389998 1.8420186e-38
0.71656287 -0.71656287 2.039 1.8420186e-38
0.75928479 -0.71656287 2.039 1.8420186e-38
0.77190721 -0.71559191 2.039 1.8420186e-38
0.81813949 -0.71417278 2.0389998 1.8420186e-38
0.86867058 -0.70624048 2.0327785 1.8420186e-38
0.90052307 -0.70097983 2.0320969 1.8420186e-38
0.9409458 -0.70163804 2.0258179 1.8420186e-38
0.97830814 -0.70209289 2.0267954 1.8420186e-38
1.0183198 -0.70765263 2.0245173 1.8420186e-38
1.0477462 -0.70711905 2.0361767 1.8420186e-38
-0.84612918 -0.67308414 2.0040002 1.8420186e-38
-0.82026953 -0.66291344 2.0076661 1.8420186e-38
-0.77933878 -0.66080171 2.0155127 1.8420186e-38
-0.75014645 -0.65716994 2.0383801 1.8420186e-38
0.89230525 -0.67772478 2.039 1.8420186e-38
0.97289425 -0.67772478 2.039 1.8420186e-38
-0.81128305 -0.63332957 2.0030003 1.8420186e-38
-0.7724731 -0.62305516 2.0058863 1.8420186e-38
-0.73942858 -0.61809301 2.0269995 1.8420186e-38
-0.71462095 -0.60393238 2.039 1.8420186e-38
-0.76495516 -0.59326959 2.003 1.8420186e-38
-0.73922777 -0.58219206 2.0125256 1.8420186e-38
-0.70989543 -0.57730913 2.0321178 1.8420186e-38
-0.73124099 -0.54499507 2.0029988 1.8420186e-38
-0.70429212 -0.53698111 2.0200691 1.8420186e-38
-0.66648209 -0.52543849 2.039 1.8420186e-38
-0.72584903 -0.51601088 2.003 1.8420186e-38
-0.69706708 -0.50141513 2.0182626 1.8420186e-38
-0.66283876 -0.49942461 2.0377243 1.8420186e-38
-0.62335151 -0.4892107 2.0389998 1.8420186e-38
-0.69094789 -0.46690461 2.0056078 1.8420186e-38
-0.65980399 -0.45963648 2.019779 1.8420186e-38
-0.61949283 -0.45894483 2.0354326 1.8420186e-38
-0.68483526 -0.4292143 2.003 1.8420186e-38
-0.65623152 -0.42449176 2.0068047 1.8420186e-38
-0.61913174 -0.41928971 2.021914 1.8420186e-38
-0.58426195 -0.41327721 2.0376425 1.8420186e-38
-0.55344284 -0.40391618 2.039 1.8420186e-38
-0.6476782 -0.38907135 2.0029995 1.8420186e-38
-0.61852568 -0.38084814 2.007411 1.8420186e-38
-0.57919002 -0.37989098 2.0294197 1.8420186e-38
-0.54598767 -0.37724146 2.0388134 1.8420186e-38
-0.61351413 -0.35384819 2.0048947 1.8420186e-38
-0.57473397 -0.34362519 2.0123844 1.8420186e-38
-0.54016519 -0.34033924 2.0287938 1.8420186e-38
-0.51036614 -0.33133298 2.0357008 1.8420186e-38
-0.56783462 -0.31380332 2.0030003 1.8420186e-38
-0.53818655 -0.30190724 2.012645 1.8420186e-38
-0.50482893 -0.29860723 2.0334284 1.8420186e-38
-0.47285387 -0.2877903 2.0390003 1.8420186e-38
1.0360062 -0.28643093 2.039 1.8420186e-38
1.0500357 -0.29786259 2.0352864 1.8420186e-38
-0.52662438 -0.26937771 2.0069995 1.8420186e-38
-0.49730864 -0.2621792 2.0164108 1.8420186e-38
-0.46499225 -0.25725201 2.0325654 1.8420186e-38
-0.43304476 -0.24468002 2.039 1.8420186e-38
1.0315454 -0.24568763 2.0381427 1.8420186e-38
1.0503305 -0.25931099 2.0368674 1.8420186e-38
-0.48865661 -0.22296357 2.0062935 1.8420186e-38
-0.46009225 -0.22018822 2.024343 1.8420186e-38
-0.42420474 -0.21868916 2.0325522 1.8420186e-38
1.0243548 -0.23642692 2.0389998 1.8420186e-38
1.0478753 -0.23282215 2.034579 1.8420186e-38
-0.45393565 -0.1842721 2.0102675 1.8420186e-38
-0.42022198 -0.17993546 2.020999 1.8420186e-38
-0.38741925 -0.17279816 2.0333877 1.8420186e-38
-0.35633951 -0.16214906 2.039 1.8420186e-38
-0.44066 -0.15642476 2.003 1.8420186e-38
-0.41268176 -0.14394876 2.0083139 1.8420186e-38
-0.37998614 -0.13891427 2.0254717 1.8420186e-38
-0.35459483 -0.14686336 2.0355718 1.8420186e-38
-0.4025076 -0.10778048 2.003 1.8420186e-38
-0.37903002 -0.10024306 2.01176 1.8420186e-38
-0.35706034 -0.099402755 2.0156665 1.8420186e-38
-0.37571245 -0.070597842 2.0081811 1.8420186e-38
-0.35696065 -0.069998525 2.0160909 1.8420186e-38
-0.61359447 -0.084120944 1.846243 1.8420186e-38
-0.71946841 -0.37662622 1.8726429 1.8420186e-38
-0.78276944 -0.67731011 2.018357 1.8420186e-38
-0.78372169 -0.38726404 1.9040248 1.8420186e-38
-0.62658405 -0.64417392 2.0334873 1.8420186e-38
-0.60075569 -0.60848469 2.0268195 1.8420186e-38
-0.53902721 -0.55574107 2.0233769 1.8420186e-38
-0.48240915 -0.52002478 2.0236807 1.8420186e-38
-0.16816449 -0.24925545 1.9868586 1.8420186e-38
-0.4826155 -0.60606396 1.9755288 1.8420186e-38
-0.36053926 -0.71550691 1.9720793 1.8420186e-38
-0.21429962 -0.79677343 2.048383 1.8420186e-38
-0.44266126 -0.78220117 2.0484483 1.8420186e-38
-0.38836551 -0.76351702 2.0510416 1.8420186e-38
-0.37383118 -0.71882421 2.0351992 1.8420186e-38
-0.3398881 -0.67151076 2.0239508 1.8420186e-38
-0.24806117 -0.68133241 2.0313597 1.8420186e-38
-0.19444846 -0.70223296 2.036423 1.8420186e-38
-0.13633916 -0.7215308 2.04459 1.8420186e-38
-0.076180004 -0.80282003 2.0510001 1.8420186e-38
-0.029300001 -0.80282003 2.0510001 1.8420186e-38
-0.84756917 -0.79571706 2.0510006 1.8420186e-38
-0.81556726 -0.78227997 2.0511646 1.8420186e-38
-0.78171879 -0.7794829 2.0656416 1.8420186e-38
-0.75433362 -0.77489096 2.0749602 1.8420186e-38
-0.44485718 -0.79678869 2.0760002 1.8420186e-38
-0.36181718 -0.79678869 2.0760002 1.8420186e-38
-0.3435286 -0.79678869 2.0760002 1.8420186e-38
-0.29854861 -0.79678869 2.0760002 1.8420186e-38
-0.2525312 -0.79360354 2.0677698 1.8420186e-38
-0.21848953 -0.79296088 2.0653811 1.8420186e-38
-0.1807186 -0.79431462 2.065001 1.8420186e-38
-0.13946168 -0.78995669 2.0655892 1.8420186e-38
-0.099087656 -0.79160327 2.0692487 1.8420186e-38
-0.058888447 -0.78140682 2.0599544 1.8420186e-38
-0.020868944 -0.78813714 2.0605536 1.8420186e-38
0.022044854 -0.78036338 2.0600958 1.8420186e-38
0.056663562 -0.78092647 2.0610011 1.8420186e-38
0.098726891 -0.77657777 2.0592632 1.8420186e-38
0.14137754 -0.76907343 2.0658784 1.8420186e-38
0.18184042 -0.77112246 2.0671408 1.8420186e-38
0.2191712 -0.76987833 2.0614204 1.8420186e-38
0.26064497 -0.7672314 2.0625794 1.8420186e-38
0.29877725 -0.76679838 2.0635905 1.8420186e-38
0.33460099 -0.76361758 2.0556955 1.8420186e-38
0.37894669 -0.76375335 2.0510001 1.8420186e-38
0.41870192 -0.76241428 2.0570002 1.8420186e-38
0.46240193 -0.76335806 2.0562799 1.8420186e-38
0.49379122 -0.76346135 2.0555 1.8420186e-38
0.52544665 -0.76375335 2.0510001 1.8420186e-38
-0.81286579 -0.75733531 2.0510006 1.8420186e-38
-0.77697629 -0.74337304 2.0563159 1.8420186e-38
-0.75189453 -0.7365793 2.0695803 1.8420186e-38
0.13872954 -0.75658679 2.0760002 1.8420186e-38
0.1777232 -0.7539506 2.0760002 1.8420186e-38
0.22266397 -0.75442129 2.0760002 1.8420186e-38
0.26651886 -0.75645494 2.0760002 1.8420186e-38
0.30748668 -0.75196183 2.07236 1.8420186e-38
0.33844125 -0.75009525 2.0674489 1.8420186e-38
0.38022012 -0.75048006 2.0626402 1.8420186e-38
0.42004371 -0.74940908 2.0680428 1.8420186e-38
0.45989347 -0.74796373 2.0673106 1.8420186e-38
0.50141364 -0.74658978 2.0626841 1.8420186e-38
0.53824955 -0.74238479 2.0590849 1.8420186e-38
0.58087105 -0.7392295 2.0589826 1.8420186e-38
0.62132949 -0.73795933 2.0599425 1.8420186e-38
0.65866572 -0.73598659 2.0587654 1.8420186e-38
0.69804299 -0.72818792 2.0553029 1.8420186e-38
0.74338764 -0.72543156 2.0518887 1.8420186e-38
0.7814967 -0.72642469 2.0548272 1.8420186e-38
0.81063336 -0.72078001 2.0510001 1.8420186e-38
0.84970009 -0.72078001 2.0510001 1.8420186e-38
1.0665201 -0.72078001 2.0510001 1.8420186e-38
-0.76826108 -0.71176463 2.0510006 1.8420186e-38
-0.74034303 -0.69934845 2.061049 1.8420186e-38
-0.71770298 -0.68738675 2.0760002 1.8420186e-38
0.59925246 -0.71713811 2.0630002 1.8420186e-38
0.61381686 -0.71633112 2.0704288 1.8420186e-38
0.70615816 -0.71427625 2.0586894 1.8420186e-38
0.73903048 -0.71362287 2.0588892 1.8420186e-38
0.77988076 -0.71228772 2.0560293 1.8420186e-38
0.82279253 -0.70779222 2.0545964 1.8420186e-38
0.8614651 -0.70010024 2.0583 1.8420186e-38
0.89794052 -0.6835171 2.062417 1.8420186e-38
0.93929595 -0.68741429 2.072129 1.8420186e-38
0.9804129 -0.68367809 2.059706 1.8420186e-38
1.0222001 -0.69099909 2.0570965 1.8420186e-38
1.0618472 -0.69671547 2.0672421 1.8420186e-38
1.0814973 -0.69476807 2.0760002 1.8420186e-38
-0.73095846 -0.66340071 2.0544188 1.8420186e-38
-0.70197928 -0.65647471 2.0707493 1.8420186e-38
-0.67816007 -0.64850295 2.0760002 1.8420186e-38
0.89743584 -0.67515147 2.0648003 1.8420186e-38
0.94501162 -0.67595065 2.0710001 1.8420186e-38
0.98137391 -0.67262304 2.0696311 1.8420186e-38
1.0179069 -0.67052865 2.0715015 1.8420186e-38
1.0489842 -0.67640269 2.0760002 1.8420186e-38
-0.72175664 -0.63092673 2.0510004 1.8420186e-38
-0.69888085 -0.62165636 2.0584469 1.8420186e-38
-0.67477703 -0.61570907 2.0734 1.8420186e-38
-0.69108039 -0.57994646 2.0515301 1.8420186e-38
-0.66825759 -0.57891661 2.0699251 1.8420186e-38
-0.63451093 -0.57747793 2.0760002 1.8420186e-38
-0.68915963 -0.550901 2.0515714 1.8420186e-38
-0.65888208 -0.54356736 2.0585315 1.8420186e-38
-0.62277532 -0.5366627 2.0689328 1.8420186e-38
-0.59775627 -0.53844202 2.0760002 1.8420186e-38
-0.64460003 -0.50287491 2.0510001 1.8420186e-38
-0.61966074 -0.50347787 2.0611739 1.8420186e-38
-0.58719009 -0.4917092 2.0725017 1.8420186e-38
-0.55557722 -0.48044574 2.0760002 1.8420186e-38
-0.61139333 -0.46684667 2.0510001 1.8420186e-38
-0.58342922 -0.46068284 2.0666595 1.8420186e-38
-0.55314505 -0.45600337 2.0751348 1.8420186e-38
1.0695817 -0.45519626 2.0712729 1.8420186e-38
-0.57474059 -0.42693761 2.055001 1.8420186e-38
-0.54121631 -0.4189589 2.0664425 1.8420186e-38
-0.51801145 -0.40531433 2.0760002 1.8420186e-38
1.0676026 -0.41764477 2.0744722 1.8420186e-38
-0.52942204 -0.38450089 2.0579572 1.8420186e-38
-0.50306362 -0.37655196 2.0728939 1.8420186e-38
-0.47550288 -0.36478287 2.0760002 1.8420186e-38
1.0373411 -0.37038478 2.0760002 1.8420186e-38
1.0572811 -0.37871107 2.0692863 1.8420186e-38
-0.49485239 -0.34270266 2.0634496 1.8420186e-38
-0.46245652 -0.33410114 2.0757699 1.8420186e-38
-0.43276173 -0.33157852 2.0760002 1.8420186e-38
1.0371711 -0.34453666 2.0736365 1.8420186e-38
1.0545179 -0.34035879 2.0648785 1.8420186e-38
-0.48933008 -0.31009123 2.0529196 1.8420186e-38
-0.45845255 -0.30218717 2.0653005 1.8420186e-38
-0.42530814 -0.2950857 2.0713992 1.8420186e-38
-0.39641717 -0.28569716 2.0760002 1.8420186e-38
1.0377846 -0.29376876 2.0599093 1.8420186e-38
1.0451683 -0.30350617 2.0628145 1.8420186e-38
-0.45187473 -0.26636961 2.0555882 1.8420186e-38
-0.42006961 -0.2616818 2.0624678 1.8420186e-38
-0.39039922 -0.25597507 2.0722871 1.8420186e-38
1.0303315 -0.25829282 2.0702055 1.8420186e-38
1.0438737 -0.26944023 2.0577929 1.8420186e-38
-0.40810785 -0.22170816 2.0549076 1.8420186e-38
-0.38128826 -0.22005957 2.0674393 1.8420186e-38
-0.35146138 -0.20855673 2.0745556 1.8420186e-38
1.0179815 -0.23779383 2.0635002 1.8420186e-38
1.0430801 -0.2324467 2.0510004 1.8420186e-38
-0.37417758 -0.1863853 2.0566614 1.8420186e-38
-0.34710145 -0.18280566 2.0691249 1.8420186e-38
-0.34378666 -0.15822001 2.0510001 1.8420186e-38
-0.7652908 -0.4761765 1.9732362 1.8420186e-38
-0.76371896 -0.7505241 2.0535448 1.8420186e-38
-0.70451951 -0.74857843 2.0770741 1.8420186e-38
-0.65846026 -0.74456227 2.0800886 1.8420186e-38
-0.61844593 -0.8065145 2.0961952 1.8420186e-38
-0.57742095 -0.79110491 2.0918005 1.8420186e-38
-0.54068393 -0.8067109 2.0991418 1.8420186e-38
-0.50059456 -0.80958295 2.0984356 1.8420186e-38
-0.46770173 -0.80840153 2.0964501 1.8420186e-38
-0.42121512 -0.80274838 2.0915456 1.8420186e-38
-0.382846 -0.80287421 2.0955002 1.8420186e-38
-0.3274816 -0.80238497 2.0952222 1.8420186e-38
-0.31815144 -0.80238193 2.1010001 1.8420186e-38
-0.27328238 -0.80288863 2.0945001 1.8420186e-38
-0.73705965 -0.7809425 2.0948482 1.8420186e-38
-0.71183908 -0.78026581 2.109937 1.8420186e-38
-0.61573762 -0.798513 2.1105337 1.8420186e-38
-0.5787071 -0.79614401 2.1103432 1.8420186e-38
-0.53957337 -0.79728025 2.1139998 1.8420186e-38
-0.50903779 -0.79660892 2.1140003 1.8420186e-38
-0.45062187 -0.79330522 2.106909 1.8420186e-38
-0.41790888 -0.79110247 2.1080501 1.8420186e-38
-0.38291633 -0.79219162 2.1076171 1.8420186e-38
-0.34061536 -0.79230934 2.1090283 1.8420186e-38
-0.29801813 -0.79285401 2.1049652 1.8420186e-38
-0.25903842 -0.78110778 2.1036613 1.8420186e-38
-0.22142982 -0.77841008 2.1045442 1.8420186e-38
-0.18033381 -0.77900141 2.1027319 1.8420186e-38
-0.14106742 -0.77269977 2.1018543 1.8420186e-38
-0.099414319 -0.77570164 2.1016922 1.8420186e-38
-0.060204167 -0.76707792 2.0929391 1.8420186e-38
-0.019471334 -0.77138251 2.0926418 1.8420186e-38
0.017338255 -0.76722676 2.0927017 1.8420186e-38
0.062479831 -0.7675823 2.0896249 1.8420186e-38
0.099306576 -0.76759684 2.0928426 1.8420186e-38
0.17300573 -0.76294863 2.0880001 1.8420186e-38
0.24658287 -0.76162291 2.0880001 1.8420186e-38
-0.73289579 -0.7407397 2.0887988 1.8420186e-38
-0.701199 -0.73869675 2.1023118 1.8420186e-38
-0.67734295 -0.73371625 2.1140003 1.8420186e-38
-0.24562666 -0.75902671 2.1140001 1.8420186e-38
-0.23958667 -0.75902671 2.1140001 1.8420186e-38
-0.16871734 -0.75620806 2.1140001 1.8420186e-38
-0.15334891 -0.755 2.1140003 1.8420186e-38
-0.055493232 -0.75212514 2.1062615 1.8420186e-38
-0.020635635 -0.75176227 2.1068859 1.8420186e-38
0.018877223 -0.7561537 2.1095424 1.8420186e-38
0.061941113 -0.7512241 2.1027327 1.8420186e-38
0.10000044 -0.75183445 2.1058421 1.8420186e-38
0.13888928 -0.74863386 2.0985496 1.8420186e-38
0.18076785 -0.74609345 2.096272 1.8420186e-38
0.218499 -0.7459569 2.0984383 1.8420186e-38
0.25969243 -0.74519897 2.095221 1.8420186e-38
0.29924911 -0.74567914 2.0987749 1.8420186e-38
0.34089419 -0.7332871 2.1016743 1.8420186e-38
0.3788777 -0.73602217 2.1060364 1.8420186e-38
0.41876438 -0.73290569 2.1049483 1.8420186e-38
0.45954955 -0.73159635 2.1033275 1.8420186e-38
0.50093043 -0.73219764 2.1027794 1.8420186e-38
0.54252273 -0.72753686 2.0976667 1.8420186e-38
0.57419032 -0.7258566 2.0966666 1.8420186e-38
0.61547577 -0.72366196 2.0987058 1.8420186e-38
0.66242546 -0.72711802 2.1013169 1.8420186e-38
0.68791646 -0.72321504 2.0977502 1.8420186e-38
0.77554286 -0.72185147 2.0880001 1.8420186e-38
-0.7236191 -0.71036196 2.0880001 1.8420186e-38
-0.69951183 -0.70067751 2.094008 1.8420186e-38
-0.66331428 -0.69787455 2.1115615 1.8420186e-38
-0.63689733 -0.69154131 2.1118336 1.8420186e-38
0.3429378 -0.71831262 2.1140001 1.8420186e-38
0.39058667 -0.71876007 2.1140001 1.8420186e-38
0.4170956 -0.71808904 2.1140003 1.8420186e-38
0.45652333 -0.71423006 2.1140001 1.8420186e-38
0.51537734 -0.71285629 2.1111114 1.8420186e-38
0.53827482 -0.71254283 2.1120367 1.8420186e-38
0.58459675 -0.71260232 2.1056218 1.8420186e-38
0.62146306 -0.71363157 2.1058364 1.8420186e-38
0.65729088 -0.71427578 2.1122661 1.8420186e-38
0.70193249 -0.70505381 2.1046937 1.8420186e-38
0.7404272 -0.70227849 2.0983989 1.8420186e-38
0.78045219 -0.70373452 2.0979867 1.8420186e-38
0.81941736 -0.70483869 2.1013815 1.8420186e-38
0.85826975 -0.6938715 2.1021295 1.8420186e-38
0.88498878 -0.68389297 2.0935714 1.8420186e-38
0.95650285 -0.68605715 2.0880001 1.8420186e-38
1.0169555 -0.6844663 2.0880001 1.8420186e-38
1.0758171 -0.69125807 2.0879998 1.8420186e-38
1.0858682 -0.69006932 2.0898573 1.8420186e-38
-0.6908716 -0.6728698 2.0880001 1.8420186e-38
-0.6611132 -0.66023612 2.0991414 1.8420186e-38
-0.63422209 -0.65586829 2.1104133 1.8420186e-38
0.86317056 -0.67608249 2.1047144 1.8420186e-38
0.90014297 -0.67193407 2.0972261 1.8420186e-38
0.94085914 -0.66458225 2.0999725 1.8420186e-38
0.97754604 -0.65635264 2.0992653 1.8420186e-38
1.0185279 -0.65403259 2.1004252 1.8420186e-38
1.0590388 -0.66739917 2.0991421 1.8420186e-38
1.0920733 -0.66442853 2.108428 1.8420186e-38
-0.65909731 -0.6228686 2.0935237 1.8420186e-38
-0.62627411 -0.61853456 2.0987153 1.8420186e-38
-0.59594667 -0.60399997 2.1140001 1.8420186e-38
0.98854673 -0.63822669 2.1140001 1.8420186e-38
1.0925975 -0.61937153 2.1091623 1.8420186e-38
-0.65303493 -0.58650815 2.0880003 1.8420186e-38
-0.61599374 -0.58204126 2.0920331 1.8420186e-38
-0.59163082 -0.5751211 2.1095424 1.8420186e-38
1.0888413 -0.58066136 2.1070662 1.8420186e-38
-0.64628571 -0.55282283 2.0880001 1.8420186e-38
-0.60976833 -0.54993045 2.0880003 1.8420186e-38
-0.58029336 -0.54002774 2.0968337 1.8420186e-38
-0.55342758 -0.53215283 2.1118331 1.8420186e-38
1.0753205 -0.53578627 2.1051219 1.8420186e-38
1.0855089 -0.54453993 2.0962732 1.8420186e-38
-0.60253716 -0.51901716 2.0880001 1.8420186e-38
-0.57579076 -0.50694495 2.08916 1.8420186e-38
-0.54226255 -0.49826333 2.1026239 1.8420186e-38
-0.51742667 -0.48924002 2.1140001 1.8420186e-38
1.0709203 -0.49977225 2.1013503 1.8420186e-38
1.0834337 -0.50265872 2.0981109 1.8420186e-38
-0.53474551 -0.46260527 2.091249 1.8420186e-38
-0.50800657 -0.45357373 2.1045678 1.8420186e-38
1.0368668 -0.44897336 2.1140001 1.8420186e-38
1.0592476 -0.45934141 2.1007102 1.8420186e-38
1.0837715 -0.47924572 2.0880001 1.8420186e-38
-0.52516371 -0.43188158 2.0879998 1.8420186e-38
-0.50143468 -0.42078149 2.0957718 1.8420186e-38
-0.45384654 -0.41375393 2.1100991 1.8420186e-38
-0.43689334 -0.40669334 2.1140001 1.8420186e-38
1.0353751 -0.4090353 2.1088002 1.8420186e-38
1.0511612 -0.42261097 2.0948238 1.8420186e-38
-0.49037415 -0.39230224 2.0885005 1.8420186e-38
-0.45861116 -0.38127074 2.0982747 1.8420186e-38
-0.42098048 -0.37523264 2.1131434 1.8420186e-38
-0.39501601 -0.36441332 2.1140001 1.8420186e-38
1.0332813 -0.3802211 2.0956092 1.8420186e-38
1.0454911 -0.39029944 2.0885656 1.8420186e-38
-0.45746475 -0.34871951 2.0895112 1.8420186e-38
-0.41706035 -0.3403585 2.0988321 1.8420186e-38
-0.38808551 -0.33509734 2.1113992 1.8420186e-38
1.033487 -0.33840415 2.1043611 1.8420186e-38
1.0418183 -0.33856499 2.0952222 1.8420186e-38
-0.41140991 -0.30835474 2.0888391 1.8420186e-38
-0.38010311 -0.2994127 2.1043124 1.8420186e-38
-0.35636002 -0.30401337 2.1140001 1.8420186e-38
1.02836 -0.29979718 2.100472 1.8420186e-38
1.0419362 -0.29658332 2.0886502 1.8420186e-38
-0.37151191 -0.26341 2.0982826 1.8420186e-38
-0.34453192 -0.25616837 2.1108539 1.8420186e-38
0.99604553 -0.24904652 2.105 1.8420186e-38
1.014348 -0.260122 2.0949318 1.8420186e-38
1.0400229 -0.27641141 2.0880001 1.8420186e-38
-0.36390856 -0.23067428 2.0880001 1.8420186e-38
-0.33784387 -0.22291575 2.1019773 1.8420186e-38
-0.3084715 -0.22793812 2.1139994 1.8420186e-38
0.99351716 -0.23885 2.1075001 1.8420186e-38
1.0024772 -0.23811334 2.1010001 1.8420186e-38
-0.3281143 -0.19686857 2.0880001 1.8420186e-38
-0.69215745 -0.80444926 2.1307914 1.8420186e-38
-0.66287071 -0.80600071 2.132055 1.8420186e-38
-0.6218943 -0.80015713 2.1270001 1.8420186e-38
-0.49191099 -0.80150765 2.1270003 1.8420186e-38
-0.47118121 -0.8009674 2.1270001 1.8420186e-38
-0.69563103 -0.78238511 2.1360431 1.8420186e-38
-0.65943033 -0.7778523 2.1366246 1.8420186e-38
-0.622177 -0.78218704 2.1401296 1.8420186e-38
-0.57923681 -0.78402215 2.1384995 1.8420186e-38
-0.53987014 -0.78340334 2.1372139 1.8420186e-38
-0.50078952 -0.78633183 2.1395121 1.8420186e-38
-0.46017838 -0.78126252 2.1381686 1.8420186e-38
-0.42248988 -0.77435595 2.1372137 1.8420186e-38
-0.37879625 -0.77681476 2.1365438 1.8420186e-38
-0.34123534 -0.77415633 2.136471 1.8420186e-38
-0.30029348 -0.775446 2.1388023 1.8420186e-38
-0.26633415 -0.7679466 2.1366568 1.8420186e-38
-0.21863438 -0.76346976 2.1377869 1.8420186e-38
-0.19163021 -0.76231396 2.139235 1.8420186e-38
-0.12964487 -0.76229781 2.1393161 1.8420186e-38
-0.10245881 -0.76374114 2.1353331 1.8420186e-38
-0.078466669 -0.76121002 2.1400001 1.8420186e-38
-0.68441588 -0.7527715 2.1288571 1.8420186e-38
-0.66053921 -0.74116951 2.138097 1.8420186e-38
-0.62370598 -0.73757344 2.1447792 1.8420186e-38
-0.5953216 -0.7251851 2.1530004 1.8420186e-38
-0.34639716 -0.7596429 2.1270001 1.8420186e-38
-0.30347049 -0.75662571 2.1530001 1.8420186e-38
-0.25256854 -0.75508499 2.1443334 1.8420186e-38
-0.21865663 -0.75164282 2.1515143 1.8420186e-38
-0.17972934 -0.75245732 2.1464999 1.8420186e-38
-0.13981651 -0.75210106 2.1464996 1.8420186e-38
-0.10080895 -0.74994957 2.1485848 1.8420186e-38
-0.060172766 -0.73976535 2.1424997 1.8420186e-38
-0.02056901 -0.73675632 2.1412835 1.8420186e-38
0.021264592 -0.74005884 2.1412866 1.8420186e-38
0.060589552 -0.73752546 2.142833 1.8420186e-38
0.10004408 -0.73692089 2.1393156 1.8420186e-38
0.13938768 -0.73266345 2.1342218 1.8420186e-38
0.17813091 -0.73255002 2.1327116 1.8420186e-38
0.22056305 -0.73183608 2.1358631 1.8420186e-38
0.25867897 -0.7316047 2.1360157 1.8420186e-38
0.29963943 -0.73093361 2.1329083 1.8420186e-38
0.32478958 -0.72453058 2.1270003 1.8420186e-38
0.37712047 -0.72453058 2.1270003 1.8420186e-38
0.46118769 -0.72408038 2.1270001 1.8420186e-38
0.49630004 -0.72442657 2.1270003 1.8420186e-38
0.67051148 -0.72318006 2.1270001 1.8420186e-38
-0.65592635 -0.70900005 2.1270001 1.8420186e-38
-0.61935788 -0.7022149 2.1414306 1.8420186e-38
-0.59093642 -0.6984368 2.1525939 1.8420186e-38
0.027339686 -0.71903372 2.1530001 1.8420186e-38
0.067665718 -0.7197172 2.1530001 1.8420186e-38
0.14451772 -0.71784955 2.1508334 1.8420186e-38
0.17985439 -0.71436286 2.1459088 1.8420186e-38
0.21191591 -0.71603292 2.1481249 1.8420186e-38
0.26230878 -0.71291786 2.1467824 1.8420186e-38
0.30092111 -0.71626341 2.1454165 1.8420186e-38
0.34065151 -0.7114467 2.1348443 1.8420186e-38
0.38241175 -0.71111268 2.1416712 1.8420186e-38
0.42151317 -0.70731825 2.1367495 1.8420186e-38
0.45785135 -0.70717138 2.1395934 1.8420186e-38
0.50169933 -0.71114045 2.1399999 1.8420186e-38
0.53928858 -0.69857222 2.1385813 1.8420186e-38
0.57784444 -0.69981754 2.1428719 1.8420186e-38
0.62047559 -0.70142436 2.1445582 1.8420186e-38
0.66181546 -0.69940138 2.1375163 1.8420186e-38
0.69802296 -0.69329363 2.1399996 1.8420186e-38
0.73879391 -0.68774718 2.135478 1.8420186e-38
0.78043014 -0.68954152 2.1410832 1.8420186e-38
0.82203549 -0.69168907 2.1383748 1.8420186e-38
0.84506214 -0.68760824 2.1311052 1.8420186e-38
-0.64215147 -0.67861432 2.1270001 1.8420186e-38
-0.615655 -0.66152954 2.1289995 1.8420186e-38
-0.58171546 -0.6592117 2.1450319 1.8420186e-38
-0.55841309 -0.64726704 2.1530001 1.8420186e-38
0.71792501 -0.67460346 2.1452 1.8420186e-38
0.73795635 -0.67633182 2.1488948 1.8420186e-38
0.77962577 -0.67539459 2.1525002 1.8420186e-38
0.82131261 -0.66974026 2.1487343 1.8420186e-38
0.86273229 -0.66679394 2.1449523 1.8420186e-38
0.90261292 -0.66502398 2.1419566 1.8420186e-38
0.93586195 -0.65168768 2.1328762 1.8420186e-38
0.97127169 -0.64747572 2.1276844 1.8420186e-38
1.0213159 -0.64397579 2.131 1.8420186e-38
1.0655688 -0.65190601 2.1317267 1.8420186e-38
1.088919 -0.65402722 2.1286771 1.8420186e-38
-0.61025035 -0.62604511 2.1273329 1.8420186e-38
-0.57872081 -0.61960858 2.1340194 1.8420186e-38
-0.55232942 -0.61535382 2.14975 1.8420186e-38
0.94650865 -0.63416648 2.1455715 1.8420186e-38
0.98129165 -0.63253486 2.1399996 1.8420186e-38
1.022225 -0.63207728 2.1471131 1.8420186e-38
1.0631149 -0.62173402 2.1454165 1.8420186e-38
1.0860626 -0.62270772 2.1354892 1.8420186e-38
-0.57452297 -0.58305085 2.1279414 1.8420186e-38
-0.54143041 -0.57776713 2.1421664 1.8420186e-38
-0.51038212 -0.56512922 2.1413684 1.8420186e-38
1.0368547 -0.57079083 2.1437147 1.8420186e-38
1.0618914 -0.57278961 2.1433425 1.8420186e-38
1.0848308 -0.58333284 2.1350291 1.8420186e-38
-0.56720006 -0.55403286 2.1270001 1.8420186e-38
-0.53677696 -0.54011077 2.1300783 1.8420186e-38
-0.50094706 -0.53929317 2.1418169 1.8420186e-38
-0.47032797 -0.52825397 2.1530001 1.8420186e-38
1.0395914 -0.52287143 2.1530001 1.8420186e-38
1.0597427 -0.54076153 2.1385403 1.8420186e-38
-0.52444679 -0.50525582 2.1270001 1.8420186e-38
-0.49997714 -0.50062811 2.1372228 1.8420186e-38
-0.46149299 -0.49935052 2.1489999 1.8420186e-38
1.0356984 -0.49959511 2.1443331 1.8420186e-38
1.0542204 -0.50154877 2.1355057 1.8420186e-38
-0.49264428 -0.46433595 2.1303699 1.8420186e-38
-0.45969233 -0.46173134 2.1354713 1.8420186e-38
-0.42346266 -0.45545825 2.1419256 1.8420186e-38
-0.39520541 -0.44572058 2.1501112 1.8420186e-38
1.025857 -0.45826456 2.1398551 1.8420186e-38
1.047683 -0.46535519 2.1283927 1.8420186e-38
-0.48352244 -0.43147716 2.1270003 1.8420186e-38
-0.46542159 -0.42983472 2.1269996 1.8420186e-38
-0.41998771 -0.42228305 2.1331246 1.8420186e-38
-0.39501771 -0.42085943 2.1498621 1.8420186e-38
1.0265303 -0.42014149 2.1376624 1.8420186e-38
1.0440533 -0.43471828 2.1270001 1.8420186e-38
-0.41287744 -0.39390945 2.1270001 1.8420186e-38
-0.37939987 -0.38076228 2.136127 1.8420186e-38
-0.35488713 -0.36829489 2.1494546 1.8420186e-38
1.0241427 -0.37896469 2.1338489 1.8420186e-38
-0.37105966 -0.34328935 2.1282032 1.8420186e-38
-0.34493837 -0.33861277 2.1416023 1.8420186e-38
0.99706841 -0.32348311 2.14975 1.8420186e-38
1.0183082 -0.34162462 2.134361 1.8420186e-38
-0.36462858 -0.31803715 2.1270001 1.8420186e-38
-0.33981952 -0.29962307 2.1330931 1.8420186e-38
-0.31362161 -0.28791317 2.1483572 1.8420186e-38
0.99241769 -0.30021915 2.1489556 1.8420186e-38
1.0119802 -0.3010948 2.1339006 1.8420186e-38
-0.32947651 -0.26477277 2.1269996 1.8420186e-38
-0.30174109 -0.25818077 2.1359179 1.8420186e-38
-0.2691693 -0.25842753 2.1513751 1.8420186e-38
0.95179051 -0.24253336 2.1400001 1.8420186e-38
0.9930442 -0.26017046 2.1402595 1.8420186e-38
1.003997 -0.27054086 2.1318753 1.8420186e-38
-0.29314983 -0.23585102 2.1270001 1.8420186e-38
0.952631 -0.23713715 2.1465001 1.8420186e-38
-0.61282635 -0.77093661 2.1756153 1.8420186e-38
-0.57835197 -0.76913345 2.1775184 1.8420186e-38
-0.54028934 -0.76877046 2.1798306 1.8420186e-38
-0.49940717 -0.76985562 2.1755717 1.8420186e-38
-0.46371812 -0.76828527 2.1710262 1.8420186e-38
-0.4167555 -0.76554871 2.1675184 1.8420186e-38
-0.38411438 -0.76558369 2.1679654 1.8420186e-38
-0.33489746 -0.76792568 2.1679335 1.8420186e-38
-0.3012203 -0.76673716 2.1675835 1.8420186e-38
-0.27650899 -0.7651931 2.1690001 1.8420186e-38
-0.60856599 -0.75027752 2.1725998 1.8420186e-38
-0.5782848 -0.73988426 2.1835899 1.8420186e-38
-0.54538226 -0.7428714 2.1937869 1.8420186e-38
-0.4968248 -0.75484776 2.1922069 1.8420186e-38
-0.45921779 -0.75251257 2.1848655 1.8420186e-38
-0.41940895 -0.75214225 2.1823168 1.8420186e-38
-0.3783125 -0.7510581 2.1817036 1.8420186e-38
-0.34239596 -0.74854106 2.1830871 1.8420186e-38
-0.2999607 -0.74965662 2.1815495 1.8420186e-38
-0.2574102 -0.74412024 2.1810606 1.8420186e-38
-0.21956752 -0.73655486 2.1765666 1.8420186e-38
-0.17945251 -0.73690099 2.1761649 1.8420186e-38
-0.14028727 -0.73902726 2.1804068 1.8420186e-38
-0.099157929 -0.73616403 2.1804068 1.8420186e-38
-0.063264184 -0.7257989 2.1767073 1.8420186e-38
-0.018378787 -0.72293717 2.1716111 1.8420186e-38
0.019443959 -0.72218287 2.1751561 1.8420186e-38
0.059853088 -0.72476387 2.180907 1.8420186e-38
0.10088837 -0.72423702 2.1801362 1.8420186e-38
0.12779468 -0.72505534 2.17625 1.8420186e-38
0.234036 -0.72192061 2.1670001 1.8420186e-38
0.24146572 -0.72233331 2.1670001 1.8420186e-38
-0.57582957 -0.70343494 2.1754096 1.8420186e-38
-0.54087573 -0.69804823 2.1880496 1.8420186e-38
-0.51611239 -0.69163239 2.194 1.8420186e-38
-0.055329669 -0.71439433 2.1920502 1.8420186e-38
-0.02138711 -0.71287322 2.1903257 1.8420186e-38
0.017174652 -0.71473849 2.1904616 1.8420186e-38
0.060750969 -0.71221805 2.194 1.8420186e-38
0.10226523 -0.70986432 2.1934092 1.8420186e-38
0.14161614 -0.70213103 2.1837425 1.8420186e-38
0.17939486 -0.69876599 2.1835532 1.8420186e-38
0.21941192 -0.70170277 2.1805801 1.8420186e-38
0.25858197 -0.69766027 2.1830845 1.8420186e-38
0.30136535 -0.70030755 2.1853039 1.8420186e-38
0.33932406 -0.69606644 2.1763828 1.8420186e-38
0.37820962 -0.69352114 2.1763155 1.8420186e-38
0.41974971 -0.69087309 2.1737585 1.8420186e-38
0.46245718 -0.68977505 2.1741552 1.8420186e-38
0.49771276 -0.69622654 2.1745586 1.8420186e-38
0.53899336 -0.68855083 2.1742544 1.8420186e-38
0.57574022 -0.68521708 2.16875 1.8420186e-38
0.61708426 -0.68649942 2.1730514 1.8420186e-38
0.65653253 -0.68754917 2.1710587 1.8420186e-38
0.70043492 -0.68468493 2.1678751 1.8420186e-38
0.7298097 -0.68405962 2.1805999 1.8420186e-38
-0.56459939 -0.67250705 2.1670001 1.8420186e-38
-0.53850442 -0.66048533 2.1790192 1.8420186e-38
-0.50534827 -0.64946193 2.194 1.8420186e-38
0.29963773 -0.67909521 2.194 1.8420186e-38
0.34300414 -0.67541414 2.1893573 1.8420186e-38
0.38360855 -0.67535239 2.1910646 1.8420186e-38
0.4189325 -0.67544675 2.1878612 1.8420186e-38
0.45356062 -0.67849249 2.1900001 1.8420186e-38
0.50257957 -0.67810398 2.1888001 1.8420186e-38
0.54623264 -0.67610759 2.1871724 1.8420186e-38
0.58082962 -0.67486101 2.1834545 1.8420186e-38
0.62182856 -0.67438823 2.1877275 1.8420186e-38
0.66006911 -0.67337328 2.1816669 1.8420186e-38
0.69951481 -0.67542857 2.1851952 1.8420186e-38
0.74305159 -0.66785938 2.191 1.8420186e-38
0.77880692 -0.6668458 2.1852539 1.8420186e-38
0.81997591 -0.66000211 2.1888549 1.8420186e-38
0.8602007 -0.65250546 2.1850708 1.8420186e-38
0.90277374 -0.64960402 2.1796341 1.8420186e-38
0.93011886 -0.6452114 2.18292 1.8420186e-38
-0.53408873 -0.62105399 2.1721091 1.8420186e-38
-0.50073838 -0.61969501 2.1908224 1.8420186e-38
-0.47158223 -0.61647063 2.1926553 1.8420186e-38
0.83252609 -0.63551372 2.1940002 1.8420186e-38
0.86404443 -0.63554287 2.19084 1.8420186e-38
0.88860846 -0.63509405 2.1916366 1.8420186e-38
0.94640315 -0.62758482 2.1852977 1.8420186e-38
0.97989595 -0.62120372 2.1858933 1.8420186e-38
1.0189235 -0.61906171 2.1816483 1.8420186e-38
1.0543722 -0.61274612 2.1807499 1.8420186e-38
1.0870892 -0.60358644 2.1778889 1.8420186e-38
-0.52391285 -0.59113401 2.1670001 1.8420186e-38
-0.49702987 -0.58402491 2.1813858 1.8420186e-38
-0.46252453 -0.57873929 2.1871693 1.8420186e-38
-0.43372545 -0.56626093 2.1940002 1.8420186e-38
1.0339247 -0.5781557 2.1915913 1.8420186e-38
1.0501931 -0.58209938 2.1796923 1.8420186e-38
1.0865958 -0.59334528 2.1670001 1.8420186e-38
-0.4847911 -0.55299014 2.1698 1.8420186e-38
-0.45735911 -0.54382086 2.171339 1.8420186e-38
-0.425304 -0.53747326 2.1835206 1.8420186e-38
1.0246314 -0.53528529 2.1896508 1.8420186e-38
1.047654 -0.54467845 2.1798048 1.8420186e-38
-0.48396334 -0.5087291 2.1670001 1.8420186e-38
-0.4459416 -0.50753838 2.1670001 1.8420186e-38
-0.42066243 -0.49879557 2.1718388 1.8420186e-38
-0.38186014 -0.49669069 2.1866562 1.8420186e-38
-0.35730857 -0.48267999 2.194 1.8420186e-38
1.0222132 -0.50032854 2.1804595 1.8420186e-38
1.0416871 -0.49747568 2.181 1.8420186e-38
-0.41251427 -0.47063118 2.1669998 1.8420186e-38
-0.37886435 -0.46182185 2.1753457 1.8420186e-38
-0.35131201 -0.45413983 2.1897838 1.8420186e-38
0.99085218 -0.44423279 2.194 1.8420186e-38
1.010691 -0.45890686 2.1838877 1.8420186e-38
-0.37633437 -0.42239359 2.170912 1.8420186e-38
-0.34167039 -0.41915554 2.1834002 1.8420186e-38
-0.3134861 -0.40766469 2.1902859 1.8420186e-38
0.98989683 -0.42285994 2.194 1.8420186e-38
1.0120646 -0.42025051 2.1847503 1.8420186e-38
-0.36199221 -0.3933621 2.1670001 1.8420186e-38
-0.33770078 -0.38113117 2.1693628 1.8420186e-38
-0.30671719 -0.37860343 2.1864746 1.8420186e-38
-0.26954857 -0.36148763 2.194 1.8420186e-38
0.98843992 -0.37522742 2.1935 1.8420186e-38
1.0106511 -0.38174817 2.1810544 1.8420186e-38
-0.32796624 -0.34411776 2.1670001 1.8420186e-38
-0.30002442 -0.34053648 2.1743376 1.8420186e-38
-0.26736224 -0.33873785 2.1847501 1.8420186e-38
0.98687845 -0.33931798 2.1832192 1.8420186e-38
1.0084074 -0.34519681 2.1732223 1.8420186e-38
-0.32401809 -0.31576288 2.1670003 1.8420186e-38
-0.29811305 -0.30299839 2.1691799 1.8420186e-38
-0.25870651 -0.29978642 2.1752541 1.8420186e-38
-0.2305423 -0.29118374 2.1901002 1.8420186e-38
0.97741133 -0.29973701 2.1781869 1.8420186e-38
1.0009476 -0.3075076 2.1670001 1.8420186e-38
-0.28912097 -0.27561235 2.1670001 1.8420186e-38
-0.25885779 -0.26877931 2.1703198 1.8420186e-38
-0.23021059 -0.2696341 2.1824799 1.8420186e-38
0.95928478 -0.24902634 2.1850002 1.8420186e-38
0.97914916 -0.26108927 2.179193 1.8420186e-38
1.0053372 -0.24510287 2.181 1.8420186e-38
-0.53210497 -0.73885846 2.2102828 1.8420186e-38
-0.50208616 -0.7386542 2.222991 1.8420186e-38
-0.45954609 -0.73362076 2.2206481 1.8420186e-38
-0.42056435 -0.735044 2.2240357 1.8420186e-38
-0.38120693 -0.73391104 2.2214093 1.8420186e-38
-0.3387771 -0.73221511 2.2226722 1.8420186e-38
-0.29944184 -0.7329188 2.222801 1.8420186e-38
-0.26301071 -0.72967213 2.2114377 1.8420186e-38
-0.22262855 -0.72493726 2.2080002 1.8420186e-38
-0.18112376 -0.72524011 2.2105715 1.8420186e-38
-0.14169081 -0.72651422 2.2088826 1.8420186e-38
-0.10023618 -0.72625017 2.2080002 1.8420186e-38
-0.07780572 -0.7254858 2.2080002 1.8420186e-38
-0.5257144 -0.71286863 2.2080002 1.8420186e-38
-0.50212884 -0.69979095 2.2211127 1.8420186e-38
-0.45959148 -0.70133275 2.234062 1.8420186e-38
-0.42710441 -0.70810306 2.2369998 1.8420186e-38
-0.37642151 -0.71572798 2.2369998 1.8420186e-38
-0.33988267 -0.71370023 2.2364998 1.8420186e-38
-0.3027229 -0.7141369 2.2344072 1.8420186e-38
-0.25856638 -0.7111153 2.2275624 1.8420186e-38
-0.22032836 -0.70814723 2.2239738 1.8420186e-38
-0.18025681 -0.71123421 2.2285922 1.8420186e-38
-0.14040476 -0.71363425 2.2261519 1.8420186e-38
-0.10002317 -0.71102589 2.2235084 1.8420186e-38
-0.061137795 -0.70614433 2.221638 1.8420186e-38
-0.018745629 -0.70111889 2.222105 1.8420186e-38
0.020832082 -0.70034587 2.219944 1.8420186e-38
0.060122773 -0.69713783 2.2193825 1.8420186e-38
0.098697238 -0.69325852 2.2158744 1.8420186e-38
0.13913669 -0.6862787 2.2226665 1.8420186e-38
0.1804525 -0.68521374 2.2188332 1.8420186e-38
0.22623485 -0.68677598 2.2120385 1.8420186e-38
0.26271126 -0.68503135 2.2089376 1.8420186e-38
0.2975443 -0.68419766 2.2105002 1.8420186e-38
0.32384002 -0.68342859 2.2080002 1.8420186e-38
0.46893716 -0.68342865 2.2080002 1.8420186e-38
0.53322768 -0.68496674 2.2130003 1.8420186e-38
-0.49535087 -0.66705573 2.2153509 1.8420186e-38
-0.45838234 -0.66119242 2.2253783 1.8420186e-38
-0.42893583 -0.65559506 2.2369998 1.8420186e-38
0.15427178 -0.67690861 2.2357271 1.8420186e-38
0.18248695 -0.67340469 2.2340908 1.8420186e-38
0.22015315 -0.67369735 2.230036 1.8420186e-38
0.26041719 -0.6724788 2.225508 1.8420186e-38
0.29911757 -0.67408544 2.228107 1.8420186e-38
0.3410106 -0.66621172 2.2253187 1.8420186e-38
0.37896511 -0.66198987 2.2255833 1.8420186e-38
0.41930622 -0.66325152 2.2248809 1.8420186e-38
0.46169499 -0.66658103 2.2260625 1.8420186e-38
0.49972111 -0.66520631 2.2245061 1.8420186e-38
0.54010147 -0.66182482 2.2220125 1.8420186e-38
0.57867807 -0.65811849 2.2208631 1.8420186e-38
0.61985278 -0.65722603 2.2210383 1.8420186e-38
0.66073084 -0.65811509 2.2217281 1.8420186e-38
0.70072746 -0.65817344 2.2206244 1.8420186e-38
0.73590046 -0.6538676 2.2191699 1.8420186e-38
0.78132355 -0.64782619 2.2171698 1.8420186e-38
0.81389016 -0.64990216 2.2125218 1.8420186e-38
0.8432458 -0.65609145 2.2080002 1.8420186e-38
0.9096027 -0.64510995 2.2080002 1.8420186e-38
0.93156576 -0.64242291 2.2080002 1.8420186e-38
-0.48155433 -0.63716573 2.2080002 1.8420186e-38
-0.45412096 -0.62171721 2.2148857 1.8420186e-38
-0.42059308 -0.6203078 2.232167 1.8420186e-38
-0.39548364 -0.61638033 2.2369998 1.8420186e-38
0.64351428 -0.63713616 2.23 1.8420186e-38
0.74992037 -0.63337058 2.2187893 1.8420186e-38
0.777022 -0.6329636 2.2347596 1.8420186e-38
0.81946123 -0.63421142 2.2251141 1.8420186e-38
0.86092067 -0.6276409 2.2132564 1.8420186e-38
0.90130919 -0.6249103 2.2197797 1.8420186e-38
0.94159317 -0.62275207 2.2236104 1.8420186e-38
0.97333157 -0.60708839 2.2211349 1.8420186e-38
1.0163127 -0.60941708 2.2150588 1.8420186e-38
1.0448921 -0.61051905 2.2105002 1.8420186e-38
-0.44946882 -0.59319848 2.2095001 1.8420186e-38
-0.41752976 -0.58117288 2.2161841 1.8420186e-38
-0.38036096 -0.57716984 2.2319257 1.8420186e-38
-0.35152858 -0.56335872 2.237 1.8420186e-38
0.99034989 -0.59148234 2.2313938 1.8420186e-38
1.0172418 -0.57951599 2.2166858 1.8420186e-38
1.0409144 -0.57660347 2.2080002 1.8420186e-38
-0.4067668 -0.54526603 2.215059 1.8420186e-38
-0.37826622 -0.53986973 2.223587 1.8420186e-38
-0.3422417 -0.53676671 2.2356448 1.8420186e-38
-0.31744093 -0.52196664 2.237 1.8420186e-38
0.99919325 -0.52196664 2.237 1.8420186e-38
1.0107402 -0.54062164 2.2187347 1.8420186e-38
1.0409143 -0.55725718 2.2080002 1.8420186e-38
-0.36991718 -0.51136124 2.2106471 1.8420186e-38
-0.34071007 -0.5001986 2.2270432 1.8420186e-38
-0.3135078 -0.49050117 2.2369998 1.8420186e-38
0.99067134 -0.50044888 2.2369998 1.8420186e-38
1.008327 -0.50261045 2.2229583 1.8420186e-38
-0.33473188 -0.46308047 2.2168517 1.8420186e-38
-0.30298132 -0.45847559 2.2322242 1.8420186e-38
-0.2734111 -0.45038271 2.237 1.8420186e-38
0.99174762 -0.45558667 2.2320855 1.8420186e-38
1.0047845 -0.46873063 2.2280524 1.8420186e-38
-0.32454097 -0.43459052 2.2080002 1.8420186e-38
-0.29797307 -0.42087641 2.2200146 1.8420186e-38
-0.26237765 -0.41576928 2.2287188 1.8420186e-38
0.98837793 -0.41615087 2.2284036 1.8420186e-38
1.0051658 -0.40164575 2.2080002 1.8420186e-38
-0.28902477 -0.38497239 2.2124119 1.8420186e-38
-0.25784206 -0.38100877 2.217694 1.8420186e-38
-0.22631148 -0.36863309 2.2320585 1.8420186e-38
0.98033947 -0.38200378 2.2229741 1.8420186e-38
1.0051658 -0.39744005 2.2080002 1.8420186e-38
-0.24962784 -0.34217077 2.2104418 1.8420186e-38
-0.22113445 -0.33979672 2.2216721 1.8420186e-38
-0.19436616 -0.34039792 2.2272725 1.8420186e-38
0.95657682 -0.33277372 2.2279999 1.8420186e-38
0.97431976 -0.34103003 2.2254462 1.8420186e-38
-0.21716191 -0.30697054 2.212327 1.8420186e-38
-0.19741049 -0.31332004 2.2130001 1.8420186e-38
0.95541048 -0.30202603 2.2233214 1.8420186e-38
0.96637619 -0.30086657 2.2171538 1.8420186e-38
-0.25654858 -0.26075432 2.2080002 1.8420186e-38
0.95572054 -0.26512983 2.2216921 1.8420186e-38
0.96406633 -0.26819342 2.2108126 1.8420186e-38
0.2353811 0.31254172 2.2299998 1.8420186e-38
0.25056612 0.31184527 2.232882 1.8420186e-38
0.2322219 0.32170188 2.237 1.8420186e-38
-0.49115047 -0.72921908 2.2520001 1.8420186e-38
-0.49115047 -0.7163505 2.2520001 1.8420186e-38
-0.44539556 -0.70419687 2.2520003 1.8420186e-38
-0.42004284 -0.70283765 2.2581594 1.8420186e-38
-0.37690395 -0.71050227 2.2598746 1.8420186e-38
-0.33979446 -0.70385581 2.2598133 1.8420186e-38
-0.2965495 -0.70659554 2.2603238 1.8420186e-38
-0.26160422 -0.69638574 2.2600672 1.8420186e-38
-0.22065048 -0.69407099 2.2595379 1.8420186e-38
-0.17825314 -0.69646609 2.2581918 1.8420186e-38
-0.14016074 -0.69769442 2.2593882 1.8420186e-38
-0.10251535 -0.6957137 2.2603991 1.8420186e-38
-0.060138039 -0.69214451 2.2561748 1.8420186e-38
-0.020332832 -0.68913615 2.25421 1.8420186e-38
0.017455239 -0.6860289 2.2556522 1.8420186e-38
0.059968341 -0.68621892 2.2526667 1.8420186e-38
0.10410345 -0.68549901 2.2520006 1.8420186e-38
0.12877923 -0.68571854 2.2570913 1.8420186e-38
-0.41519845 -0.66508508 2.2570393 1.8420186e-38
-0.39308167 -0.66094577 2.2654812 1.8420186e-38
-0.13020509 -0.67980003 2.2660003 1.8420186e-38
-0.11653715 -0.67980003 2.266 1.8420186e-38
-0.056704607 -0.67583263 2.2654397 1.8420186e-38
-0.024722464 -0.67829245 2.2635295 1.8420186e-38
0.024323942 -0.67177808 2.2646971 1.8420186e-38
0.059994165 -0.67098606 2.2634153 1.8420186e-38
0.10111216 -0.67062801 2.2635159 1.8420186e-38
0.1402929 -0.66518164 2.2581515 1.8420186e-38
0.18016824 -0.65551239 2.2553937 1.8420186e-38
0.21906482 -0.65592468 2.2570901 1.8420186e-38
0.26062456 -0.65795547 2.2583907 1.8420186e-38
0.30102497 -0.65864933 2.2586031 1.8420186e-38
0.33812141 -0.6554603 2.2589996 1.8420186e-38
0.3802515 -0.64587641 2.2591887 1.8420186e-38
0.42127812 -0.64949626 2.2584319 1.8420186e-38
0.46027136 -0.64874232 2.2581019 1.8420186e-38
0.49804357 -0.64545572 2.2571573 1.8420186e-38
0.53813058 -0.64598703 2.2581019 1.8420186e-38
0.58533382 -0.64428115 2.2559197 1.8420186e-38
0.61746657 -0.64325327 2.2563446 1.8420186e-38
0.66402054 -0.64490789 2.2587197 1.8420186e-38
0.69861919 -0.6447711 2.2587874 1.8420186e-38
0.73144609 -0.64239371 2.2570004 1.8420186e-38
0.84718102 -0.64128387 2.2520003 1.8420186e-38
-0.3808485 -0.61691231 2.2593496 1.8420186e-38
-0.34745333 -0.60426664 2.2660003 1.8420186e-38
0.41219619 -0.6366381 2.266 1.8420186e-38
0.50859112 -0.63304126 2.266 1.8420186e-38
0.53744209 -0.63307095 2.2648337 1.8420186e-38
0.57826382 -0.63013607 2.2649226 1.8420186e-38
0.62268531 -0.63030136 2.2655878 1.8420186e-38
0.65382504 -0.62875909 2.2646661 1.8420186e-38
0.70084143 -0.63609862 2.266 1.8420186e-38
0.74667376 -0.62895286 2.2598231 1.8420186e-38
0.7791512 -0.6180492 2.2556608 1.8420186e-38
0.81864315 -0.61859399 2.2594669 1.8420186e-38
0.86073965 -0.6203624 2.2613332 1.8420186e-38
0.89557606 -0.61249417 2.258045 1.8420186e-38
0.94187772 -0.6119532 2.2567723 1.8420186e-38
0.96630329 -0.60475665 2.259778 1.8420186e-38
-0.36485121 -0.59048063 2.2562003 1.8420186e-38
-0.34251937 -0.57989323 2.2614279 1.8420186e-38
0.81144381 -0.59779239 2.266 1.8420186e-38
0.87402862 -0.59779239 2.266 1.8420186e-38
0.89129335 -0.59779239 2.266 1.8420186e-38
0.9467296 -0.59593898 2.2634549 1.8420186e-38
0.98106509 -0.58221209 2.2574134 1.8420186e-38
1.0029474 -0.57803726 2.253273 1.8420186e-38
-0.32823792 -0.55129611 2.2542107 1.8420186e-38
-0.30719301 -0.53639024 2.2631991 1.8420186e-38
-0.27483973 -0.53127229 2.2660003 1.8420186e-38
0.99520993 -0.53461075 2.258462 1.8420186e-38
1.0064577 -0.54487467 2.2561171 1.8420186e-38
-0.32385904 -0.5125981 2.2520001 1.8420186e-38
-0.29835555 -0.50181615 2.2598028 1.8420186e-38
-0.26548597 -0.49681813 2.2623012 1.8420186e-38
0.98631477 -0.49691713 2.2558715 1.8420186e-38
1.0070374 -0.49601194 2.2520006 1.8420186e-38
-0.28402779 -0.46847734 2.2520006 1.8420186e-38
-0.25815517 -0.46176389 2.2614059 1.8420186e-38
-0.22693199 -0.45170602 2.2659996 1.8420186e-38
0.98224103 -0.46074206 2.2574778 1.8420186e-38
1.0016038 -0.47828192 2.2520001 1.8420186e-38
-0.24925052 -0.43036306 2.2537503 1.8420186e-38
-0.221413 -0.42036349 2.2626276 1.8420186e-38
0.97435611 -0.42181939 2.2565854 1.8420186e-38
-0.21597877 -0.38689888 2.2592685 1.8420186e-38
-0.19075367 -0.37107521 2.2614999 1.8420186e-38
0.95333856 -0.36579713 2.266 1.8420186e-38
0.96901047 -0.37382859 2.2555809 1.8420186e-38
-0.18540286 -0.35140285 2.2636666 1.8420186e-38
0.9543103 -0.33239219 2.26 1.8420186e-38
0.96491444 -0.3503156 2.258534 1.8420186e-38
-0.12301143 -0.29565907 2.2660003 1.8420186e-38
-0.10886227 -0.29716724 2.2601054 1.8420186e-38
0.95015317 -0.29933789 2.2573841 1.8420186e-38
0.96035236 -0.30860764 2.2660003 1.8420186e-38
0.94087404 -0.26553443 2.2573447 1.8420186e-38
0.96035236 -0.26328763 2.266 1.8420186e-38
0.26059911 0.29971328 2.2574279 1.8420186e-38
-0.40495735 -0.69963455 2.2810001 1.8420186e-38
-0.38072076 -0.69582689 2.2822897 1.8420186e-38
-0.33938548 -0.69021547 2.2906775 1.8420186e-38
-0.30273852 -0.69164419 2.2912893 1.8420186e-38
-0.25896192 -0.68525922 2.2821431 1.8420186e-38
-0.21796225 -0.68740338 2.2809997 1.8420186e-38
-0.18207896 -0.68431014 2.291414 1.8420186e-38
-0.14878435 -0.68281406 2.2895386 1.8420186e-38
-0.091576278 -0.68425304 2.2895455 1.8420186e-38
-0.37536219 -0.66021681 2.2823522 1.8420186e-38
-0.33929875 -0.65844262 2.2949743 1.8420186e-38
-0.30616906 -0.663257 2.3082035 1.8420186e-38
-0.26062378 -0.67412275 2.2972536 1.8420186e-38
-0.22014305 -0.67204446 2.2920172 1.8420186e-38
-0.18131545 -0.67595434 2.3049338 1.8420186e-38
-0.13944611 -0.67477942 2.2996881 1.8420186e-38
-0.10201463 -0.67707467 2.2924335 1.8420186e-38
-0.058578417 -0.66179872 2.3002584 1.8420186e-38
-0.019868566 -0.66256762 2.2998378 1.8420186e-38
0.01790791 -0.65437585 2.2963803 1.8420186e-38
0.058782715 -0.6540423 2.3033488 1.8420186e-38
0.099796034 -0.65206158 2.2955503 1.8420186e-38
0.14035749 -0.64797777 2.2961099 1.8420186e-38
0.1792051 -0.64408684 2.2975254 1.8420186e-38
0.22105411 -0.64374077 2.2934206 1.8420186e-38
0.25712875 -0.64613301 2.289999 1.8420186e-38
0.30004936 -0.64560181 2.2881575 1.8420186e-38
0.3373757 -0.64697582 2.2931154 1.8420186e-38
0.37937677 -0.64164233 2.2810001 1.8420186e-38
0.424972 -0.64411098 2.2810001 1.8420186e-38
0.45647159 -0.64275312 2.2810001 1.8420186e-38
0.4938547 -0.64085245 2.2810001 1.8420186e-38
