# .PCD v0.7 - Point Cloud Data file format
VERSION 0.7
FIELDS x y z rgb
SIZE 4 4 4 4
TYPE F F F F
COUNT 1 1 1 1
WIDTH 1023
HEIGHT 1
VIEWPOINT 0 0 0 1 0 0 0
POINTS 1023
DATA ascii
0.9661172 -0.37897667 2.2575996 1.0666544e-38
-0.21342032 -0.34293461 2.2550621 1.0666544e-38
-0.18390782 -0.34056512 2.2596557 1.0666544e-38
0.95286804 -0.3379173 2.2572496 1.0666544e-38
0.96588469 -0.34906527 2.2537503 1.0666544e-38
-0.20501906 -0.31724 2.266 1.0666544e-38
-0.18305078 -0.31266898 2.2519999 1.0666544e-38
0.94375503 -0.29903269 2.2537494 1.0666544e-38
0.91581339 -0.26595047 2.2520001 1.0666544e-38
0.93159062 -0.2607893 2.2547092 1.0666544e-38
0.93013901 -0.23739047 2.266 1.0666544e-38
0.087394677 0.077925719 2.2604001 1.0666544e-38
0.13020508 0.076492488 2.266 1.0666544e-38
0.10322888 0.094650887 2.2525597 1.0666544e-38
0.14013521 0.10084551 2.2574782 1.0666544e-38
0.16312921 0.11066001 2.2636666 1.0666544e-38
0.083645716 0.15227811 2.2520001 1.0666544e-38
0.14873457 0.12989797 2.2519999 1.0666544e-38
0.17425399 0.14400196 2.259954 1.0666544e-38
0.18506898 0.18051942 2.2539713 1.0666544e-38
0.20747282 0.18639663 2.2613335 1.0666544e-38
0.1938085 0.21369627 2.2520001 1.0666544e-38
0.21819618 0.22292571 2.2604477 1.0666544e-38
0.22447854 0.25814715 2.253938 1.0666544e-38
0.24846715 0.26462284 2.2636666 1.0666544e-38
0.23146933 0.29581219 2.2519999 1.0666544e-38
0.25566086 0.29859504 2.2556291 1.0666544e-38
0.28702667 0.29781717 2.266 1.0666544e-38
-0.40792483 -0.7045756 2.2809999 1.0666544e-38
-0.38323268 -0.69769698 2.2813253 1.0666544e-38
-0.33780167 -0.68907648 2.2926059 1.0666544e-38
-0.30039221 -0.69178236 2.2897696 1.0666544e-38
-0.26204216 -0.69092405 2.2928207 1.0666544e-38
-0.21866176 -0.68833858 2.2815919 1.0666544e-38
-0.1817627 -0.68460816 2.2883997 1.0666544e-38
-0.15022273 -0.68177164 2.2955716 1.0666544e-38
-0.092386454 -0.6847769 2.2888458 1.0666544e-38
-0.028439049 -0.68034959 2.2970002 1.0666544e-38
-0.37315202 -0.6603061 2.2829998 1.0666544e-38
-0.33957669 -0.65777278 2.2937582 1.0666544e-38
-0.30953407 -0.66119438 2.3058627 1.0666544e-38
-0.24542964 -0.67503864 2.2952731 1.0666544e-38
-0.22133991 -0.67354369 2.2947991 1.0666544e-38
-0.17856772 -0.67672879 2.29668 1.0666544e-38
-0.13550979 -0.67590702 2.2938275 1.0666544e-38
-0.1020276 -0.6766054 2.2925477 1.0666544e-38
-0.058969948 -0.66344714 2.2979555 1.0666544e-38
-0.019546395 -0.6629315 2.3028831 1.0666544e-38
0.018839551 -0.65519631 2.296999 1.0666544e-38
0.058923233 -0.6537568 2.3011005 1.0666544e-38
0.098424077 -0.65092897 2.2971683 1.0666544e-38
0.14162384 -0.64418 2.2962852 1.0666544e-38
0.18037757 -0.64396638 2.2981169 1.0666544e-38
0.22000399 -0.64786178 2.2984326 1.0666544e-38
0.25687969 -0.65025389 2.2964323 1.0666544e-38
0.30292648 -0.64503604 2.2809994 1.0666544e-38
0.34190556 -0.64667928 2.2851021 1.0666544e-38
0.37685782 -0.64522189 2.2837584 1.0666544e-38
0.42122465 -0.64389366 2.2809999 1.0666544e-38
0.44533813 -0.6430248 2.2810001 1.0666544e-38
0.56264669 -0.64085239 2.2810001 1.0666544e-38
-0.37096602 -0.62909597 2.2810001 1.0666544e-38
-0.33872005 -0.61918116 2.2871234 1.0666544e-38
-0.3062315 -0.61727333 2.3055282 1.0666544e-38
-0.2752381 -0.60442281 2.312 1.0666544e-38
0.02568889 -0.63635057 2.3120003 1.0666544e-38
0.053579684 -0.63635057 2.3120003 1.0666544e-38
0.10936128 -0.6341486 2.3120003 1.0666544e-38
0.13930717 -0.63458902 2.312 1.0666544e-38
0.17741852 -0.63394082 2.3112502 1.0666544e-38
0.21830311 -0.63446319 2.312 1.0666544e-38
0.26657146 -0.63234788 2.3063707 1.0666544e-38
0.30062088 -0.62618804 2.2969563 1.0666544e-38
0.33869389 -0.62647521 2.2990692 1.0666544e-38
0.37939659 -0.6274761 2.2979534 1.0666544e-38
0.41868865 -0.62718433 2.2944748 1.0666544e-38
0.46098194 -0.62283528 2.2950437 1.0666544e-38
0.49993294 -0.61849684 2.2947562 1.0666544e-38
0.53987616 -0.62054783 2.291687 1.0666544e-38
0.57999301 -0.62029076 2.2940104 1.0666544e-38
0.61706418 -0.61835343 2.2918656 1.0666544e-38
0.66009641 -0.6104241 2.2912495 1.0666544e-38
0.70022458 -0.61037385 2.2874994 1.0666544e-38
0.74109894 -0.60995418 2.2959535 1.0666544e-38
0.7793979 -0.60755509 2.2961144 1.0666544e-38
0.81868953 -0.60727519 2.2898154 1.0666544e-38
0.85729671 -0.60385466 2.288429 1.0666544e-38
0.90415645 -0.60373116 2.2834618 1.0666544e-38
0.92976677 -0.60426998 2.2906001 1.0666544e-38
-0.33590522 -0.58951402 2.2827289 1.0666544e-38
-0.29973939 -0.57907015 2.2883847 1.0666544e-38
-0.26226705 -0.57485169 2.3048508 1.0666544e-38
-0.23160033 -0.56749094 2.3120003 1.0666544e-38
0.65991765 -0.59393126 2.3013029 1.0666544e-38
0.6949091 -0.59361106 2.2993338 1.0666544e-38
0.74484438 -0.59311306 2.3120003 1.0666544e-38
0.78053969 -0.5934062 2.3096926 1.0666544e-38
0.82308543 -0.59258008 2.3027573 1.0666544e-38
0.8597343 -0.58656675 2.3065224 1.0666544e-38
0.90015548 -0.58872563 2.2994103 1.0666544e-38
0.94030154 -0.5806641 2.3023984 1.0666544e-38
0.96957892 -0.5735181 2.2983663 1.0666544e-38
-0.29141864 -0.54522282 2.2824214 1.0666544e-38
-0.26005602 -0.54040682 2.2951112 1.0666544e-38
-0.22207679 -0.53707302 2.3055212 1.0666544e-38
-0.19596952 -0.52625525 2.312 1.0666544e-38
0.89177138 -0.55708194 2.312 1.0666544e-38
0.95359766 -0.54304051 2.3110001 1.0666544e-38
0.97950006 -0.53976661 2.3025713 1.0666544e-38
-0.2802372 -0.50761306 2.2810001 1.0666544e-38
-0.25876319 -0.5011512 2.2832572 1.0666544e-38
-0.21940631 -0.49936098 2.2930925 1.0666544e-38
-0.18904926 -0.49039564 2.312 1.0666544e-38
0.95629323 -0.49685362 2.309273 1.0666544e-38
0.97472513 -0.49935779 2.2964993 1.0666544e-38
-0.25373405 -0.46329647 2.2809994 1.0666544e-38
-0.2139778 -0.46625307 2.2823327 1.0666544e-38
-0.18205842 -0.45816329 2.2987339 1.0666544e-38
-0.15193143 -0.44258285 2.312 1.0666544e-38
0.95342481 -0.45506033 2.3120003 1.0666544e-38
0.9731493 -0.46095949 2.300211 1.0666544e-38
-0.20203143 -0.42687288 2.2810001 1.0666544e-38
-0.18034999 -0.41937634 2.2815936 1.0666544e-38
-0.15150556 -0.41739911 2.3026421 1.0666544e-38
0.94912124 -0.41758418 2.3030968 1.0666544e-38
0.96769935 -0.42296112 2.2918174 1.0666544e-38
-0.17367612 -0.38346061 2.2813392 1.0666544e-38
-0.14340386 -0.38678983 2.302233 1.0666544e-38
-0.10936127 -0.37505776 2.312 1.0666544e-38
0.94450831 -0.37792227 2.3007259 1.0666544e-38
0.96367502 -0.39026225 2.2850003 1.0666544e-38
-0.21941048 -0.33889145 2.2810001 1.0666544e-38
-0.17379048 -0.35301191 2.2810001 1.0666544e-38
0.91249532 -0.33585528 2.312 1.0666544e-38
0.93989813 -0.34111419 2.3021333 1.0666544e-38
-0.10644667 -0.30847812 2.2810001 1.0666544e-38
0.90899581 -0.30106056 2.3107984 1.0666544e-38
0.93154866 -0.30087087 2.296838 1.0666544e-38
0.90632236 -0.26006025 2.3046303 1.0666544e-38
0.92645013 -0.25978544 2.2949526 1.0666544e-38
0.90786201 -0.23845048 2.2970002 1.0666544e-38
0.93411338 -0.2384505 2.2970004 1.0666544e-38
0.17571199 0.034496509 2.312 1.0666544e-38
0.15138943 0.064947806 2.2908063 1.0666544e-38
0.17926116 0.059718344 2.3055696 1.0666544e-38
0.20669188 0.065961391 2.312 1.0666544e-38
0.15250115 0.083419442 2.2810001 1.0666544e-38
0.18176834 0.099269956 2.2936695 1.0666544e-38
0.21493988 0.10075197 2.3086023 1.0666544e-38
0.1883835 0.13294719 2.2823324 1.0666544e-38
0.21830693 0.13992928 2.2959602 1.0666544e-38
0.24386097 0.14450002 2.312 1.0666544e-38
0.22443132 0.17906083 2.2916305 1.0666544e-38
0.25528866 0.18153957 2.3091412 1.0666544e-38
0.28514665 0.18606095 2.312 1.0666544e-38
0.2310888 0.21128242 2.2818887 1.0666544e-38
0.26058096 0.21893676 2.2955418 1.0666544e-38
0.29411891 0.22527935 2.3087561 1.0666544e-38
0.26590872 0.25658363 2.2913439 1.0666544e-38
0.30027503 0.25873265 2.2986009 1.0666544e-38
0.33205929 0.26455221 2.3046734 1.0666544e-38
0.27030945 0.29373467 2.2816951 1.0666544e-38
0.30044612 0.2901907 2.2862086 1.0666544e-38
0.3391152 0.29173195 2.3055706 1.0666544e-38
-0.28677508 -0.68125701 2.3270001 1.0666544e-38
-0.27138075 -0.68132156 2.3318002 1.0666544e-38
-0.14405239 -0.68037051 2.3270001 1.0666544e-38
-0.29359052 -0.65831393 2.3361442 1.0666544e-38
-0.26121897 -0.65918958 2.3445063 1.0666544e-38
-0.21904187 -0.65577048 2.3378723 1.0666544e-38
-0.18056524 -0.65820485 2.3404996 1.0666544e-38
-0.1407917 -0.65608782 2.3387885 1.0666544e-38
-0.10036582 -0.65646881 2.3376124 1.0666544e-38
-0.061238896 -0.64597821 2.3295956 1.0666544e-38
-0.020367844 -0.64406729 2.3269999 1.0666544e-38
0.0066485717 -0.6415872 2.3270001 1.0666544e-38
0.072709769 -0.64212644 2.3310001 1.0666544e-38
0.092037894 -0.64217019 2.3306923 1.0666544e-38
0.20167334 -0.64047909 2.3270001 1.0666544e-38
-0.28865999 -0.62530631 2.3286839 1.0666544e-38
-0.25915956 -0.6191926 2.3377471 1.0666544e-38
-0.22105302 -0.61853689 2.3446212 1.0666544e-38
-0.19137515 -0.621714 2.3590009 1.0666544e-38
-0.15127556 -0.63505781 2.3590002 1.0666544e-38
-0.05713746 -0.63142926 2.3462827 1.0666544e-38
-0.017906364 -0.630871 2.3447027 1.0666544e-38
0.018652003 -0.62951237 2.3414011 1.0666544e-38
0.059835162 -0.6307584 2.348001 1.0666544e-38
0.10473385 -0.62592679 2.3475292 1.0666544e-38
0.13970689 -0.61917293 2.3397601 1.0666544e-38
0.18161996 -0.62035191 2.3445771 1.0666544e-38
0.22009306 -0.6182496 2.3374 1.0666544e-38
0.25904331 -0.6198312 2.3440387 1.0666544e-38
0.29850176 -0.60838014 2.336921 1.0666544e-38
0.34102097 -0.61002034 2.3386085 1.0666544e-38
0.38098994 -0.60950327 2.3378689 1.0666544e-38
0.42157435 -0.61023784 2.3379641 1.0666544e-38
0.45740858 -0.60922402 2.3345113 1.0666544e-38
0.49798733 -0.60359466 2.3277271 1.0666544e-38
0.54069573 -0.60572362 2.3297436 1.0666544e-38
0.57607293 -0.60351431 2.3310001 1.0666544e-38
0.62227476 -0.60296053 2.3302 1.0666544e-38
0.64047909 -0.60723621 2.3270001 1.0666544e-38
0.78674769 -0.60058773 2.3270001 1.0666544e-38
0.80447716 -0.60058767 2.3270001 1.0666544e-38
-0.2535055 -0.59089792 2.3288825 1.0666544e-38
-0.21697639 -0.57969052 2.3326962 1.0666544e-38
-0.18212008 -0.57913482 2.350894 1.0666544e-38
-0.15951334 -0.57065338 2.3590002 1.0666544e-38
0.11907334 -0.59986001 2.3590002 1.0666544e-38
0.12356667 -0.59986001 2.3590002 1.0666544e-38
0.30146685 -0.59325707 2.3567939 1.0666544e-38
0.33924675 -0.59311998 2.3590009 1.0666544e-38
0.38101473 -0.59131151 2.3586199 1.0666544e-38
0.41900337 -0.59097552 2.3590012 1.0666544e-38
0.46255341 -0.5900166 2.3513489 1.0666544e-38
0.50366682 -0.58666462 2.3460972 1.0666544e-38
0.53695613 -0.58741987 2.3496099 1.0666544e-38
0.58192903 -0.59171426 2.3508146 1.0666544e-38
0.61773604 -0.59161651 2.3442314 1.0666544e-38
0.65844911 -0.58323908 2.3462501 1.0666544e-38
0.69807035 -0.58469892 2.3394806 1.0666544e-38
0.7361027 -0.58550566 2.3433342 1.0666544e-38
0.78281897 -0.58300489 2.3416677 1.0666544e-38
0.81890607 -0.58085901 2.3390586 1.0666544e-38
0.85772663 -0.57013232 2.3426876 1.0666544e-38
0.89946163 -0.569987 2.3393087 1.0666544e-38
0.93329245 -0.5666036 2.3368824 1.0666544e-38
0.9640429 -0.56069618 2.3270001 1.0666544e-38
-0.20650867 -0.55102557 2.3269999 1.0666544e-38
-0.17978863 -0.53940737 2.3378243 1.0666544e-38
-0.15047258 -0.53273028 2.3582008 1.0666544e-38
0.83800673 -0.55492675 2.3590002 1.0666544e-38
0.86062837 -0.55430681 2.3590009 1.0666544e-38
0.90402573 -0.55207735 2.3547652 1.0666544e-38
0.9469161 -0.54260534 2.3512099 1.0666544e-38
0.9685905 -0.54191524 2.332 1.0666544e-38
-0.20167336 -0.51194006 2.3270001 1.0666544e-38
-0.1782629 -0.50098521 2.3281431 1.0666544e-38
-0.14263184 -0.50031245 2.3460591 1.0666544e-38
-0.11522193 -0.48816863 2.3590002 1.0666544e-38
0.94924682 -0.50139004 2.3513994 1.0666544e-38
0.96344835 -0.50087315 2.335 1.0666544e-38
-0.16510621 -0.47149453 2.3269999 1.0666544e-38
-0.13907082 -0.46111816 2.3339481 1.0666544e-38
-0.10538546 -0.45726234 2.3491547 1.0666544e-38
0.91439342 -0.44409114 2.3590002 1.0666544e-38
0.94430637 -0.45899022 2.3419187 1.0666544e-38
0.9665758 -0.46888265 2.3270001 1.0666544e-38
-0.13126236 -0.42122415 2.3291345 1.0666544e-38
-0.10076168 -0.4207409 2.3440261 1.0666544e-38
-0.063383244 -0.41195697 2.3590009 1.0666544e-38
-0.036695559 -0.40514895 2.3590002 1.0666544e-38
0.9141112 -0.42250344 2.3541527 1.0666544e-38
0.93315786 -0.41919377 2.3393948 1.0666544e-38
-0.12189049 -0.39226574 2.3270001 1.0666544e-38
-0.097673133 -0.38791186 2.3351786 1.0666544e-38
-0.05524157 -0.38933417 2.3590009 1.0666544e-38
-0.0337 -0.38470867 2.3590007 1.0666544e-38
0.87620008 -0.36171338 2.3590002 1.0666544e-38
0.90999043 -0.37336481 2.3521438 1.0666544e-38
0.93089998 -0.38538733 2.3396518 1.0666544e-38
-0.0042386246 -0.34896269 2.3572228 1.0666544e-38
0.87606788 -0.34162554 2.3590007 1.0666544e-38
0.90166157 -0.34068489 2.348274 1.0666544e-38
0.92858386 -0.3568067 2.3270001 1.0666544e-38
0.87258589 -0.29255506 2.3590009 1.0666544e-38
0.89183676 -0.29968834 2.3420589 1.0666544e-38
0.86811483 -0.25746936 2.3515935 1.0666544e-38
0.89227915 -0.25845274 2.3404195 1.0666544e-38
0.86090142 -0.23097874 2.3590009 1.0666544e-38
0.89268696 -0.23624167 2.3502731 1.0666544e-38
0.19456136 -0.043585338 2.3590002 1.0666544e-38
0.19232044 -0.019705817 2.351649 1.0666544e-38
0.2075211 -0.017145617 2.3590007 1.0666544e-38
0.18533675 0.017759701 2.3324411 1.0666544e-38
0.21681266 0.023184422 2.3518579 1.0666544e-38
0.24264002 0.0337 2.3590002 1.0666544e-38
0.19428603 0.043585084 2.3270001 1.0666544e-38
0.2237775 0.058067821 2.3355937 1.0666544e-38
0.25188062 0.062883042 2.3582008 1.0666544e-38
0.29431337 0.071029246 2.3590007 1.0666544e-38
0.23258698 0.093719408 2.3300474 1.0666544e-38
0.25812387 0.10210323 2.3476775 1.0666544e-38
0.29390848 0.10231853 2.3582568 1.0666544e-38
0.23713239 0.12189049 2.3270001 1.0666544e-38
0.26255068 0.13920341 2.3338203 1.0666544e-38
0.2973868 0.14317356 2.3544285 1.0666544e-38
0.32651559 0.15801558 2.3590002 1.0666544e-38
0.27121982 0.17095643 2.3278887 1.0666544e-38
0.30180824 0.17935817 2.3364656 1.0666544e-38
0.3393575 0.18343033 2.3556991 1.0666544e-38
0.36508337 0.18647334 2.3590002 1.0666544e-38
0.30728027 0.21460952 2.3331547 1.0666544e-38
0.34082702 0.22115 2.3438659 1.0666544e-38
0.37138912 0.22422521 2.3584492 1.0666544e-38
0.34907624 0.25496376 2.333667 1.0666544e-38
0.3802667 0.26153249 2.3521736 1.0666544e-38
0.40777007 0.26533136 2.3590009 1.0666544e-38
0.3568067 0.2814562 2.3270001 1.0666544e-38
0.37972397 0.29448551 2.340914 1.0666544e-38
0.41563633 0.29307547 2.357589 1.0666544e-38
0.45694309 0.30222404 2.3550005 1.0666544e-38
-0.18523103 -0.6423282 2.3760004 1.0666544e-38
-0.13124572 -0.64038861 2.3760002 1.0666544e-38
-0.10029646 -0.64034426 2.3789093 1.0666544e-38
-0.0792 -0.64038861 2.3760002 1.0666544e-38
-0.17607607 -0.62314361 2.3838592 1.0666544e-38
-0.13989767 -0.62420696 2.3894596 1.0666544e-38
-0.10262173 -0.62967968 2.3891273 1.0666544e-38
-0.060919125 -0.61612356 2.3834662 1.0666544e-38
-0.022125838 -0.61496329 2.3830814 1.0666544e-38
0.022303047 -0.61602175 2.38447 1.0666544e-38
0.061152317 -0.61362648 2.3812413 1.0666544e-38
0.095614828 -0.61538678 2.3816884 1.0666544e-38
0.14502858 -0.60582858 2.3759999 1.0666544e-38
0.17548792 -0.60677737 2.376842 1.0666544e-38
0.22192308 -0.60499048 2.3792002 1.0666544e-38
0.25954291 -0.6053248 2.3781335 1.0666544e-38
0.28285718 -0.60644579 2.3760002 1.0666544e-38
-0.16236001 -0.58664578 2.3760002 1.0666544e-38
-0.13960144 -0.5790745 2.3899708 1.0666544e-38
-0.1125379 -0.573017 2.3920004 1.0666544e-38
-0.066064768 -0.59913915 2.3920002 1.0666544e-38
-0.026577778 -0.59913909 2.3920002 1.0666544e-38
0.036449526 -0.59913909 2.3920002 1.0666544e-38
0.052396197 -0.59913915 2.3920002 1.0666544e-38
0.11175239 -0.59741342 2.3866668 1.0666544e-38
0.13945191 -0.59526902 2.3869708 1.0666544e-38
0.18085241 -0.59485984 2.3837571 1.0666544e-38
0.21688823 -0.59574872 2.3862853 1.0666544e-38
0.26082391 -0.59458697 2.3829331 1.0666544e-38
0.2999917 -0.58843154 2.3847268 1.0666544e-38
0.34254348 -0.58409715 2.3833332 1.0666544e-38
0.37898931 -0.58192509 2.3828568 1.0666544e-38
0.41895914 -0.58143717 2.3859997 1.0666544e-38
0.46121857 -0.5808838 2.3848271 1.0666544e-38
0.49813801 -0.57172537 2.385411 1.0666544e-38
0.54326105 -0.57277411 2.3851993 1.0666544e-38
0.58194101 -0.57684773 2.3873892 1.0666544e-38
0.61971855 -0.57686019 2.3865519 1.0666544e-38
0.65493667 -0.57079613 2.3829739 1.0666544e-38
0.69934726 -0.57001734 2.378545 1.0666544e-38
0.73966014 -0.57126313 2.3771424 1.0666544e-38
0.77686477 -0.57178134 2.3790634 1.0666544e-38
0.82239181 -0.56701118 2.3772795 1.0666544e-38
-0.13564493 -0.54411632 2.3835628 1.0666544e-38
-0.1043396 -0.53692472 2.3916585 1.0666544e-38
-0.070295528 -0.53600329 2.3919995 1.0666544e-38
0.50866622 -0.5568316 2.3920002 1.0666544e-38
0.52877122 -0.55509591 2.3920002 1.0666544e-38
0.66977227 -0.55510253 2.3888001 1.0666544e-38
0.69907665 -0.55250883 2.3874278 1.0666544e-38
0.73871469 -0.552122 2.389199 1.0666544e-38
0.78383321 -0.55450898 2.3902216 1.0666544e-38
0.81916296 -0.55175841 2.3860457 1.0666544e-38
0.8592146 -0.54592246 2.3826201 1.0666544e-38
0.90142041 -0.54265112 2.3825636 1.0666544e-38
0.93269008 -0.53248 2.3803239 1.0666544e-38
-0.12596571 -0.51065147 2.3760002 1.0666544e-38
-0.10014533 -0.5021928 2.386338 1.0666544e-38
-0.064158678 -0.4953343 2.3908563 1.0666544e-38
-0.036449526 -0.49206859 2.3920002 1.0666544e-38
0.91426486 -0.49771756 2.3899994 1.0666544e-38
0.9295426 -0.49804789 2.3814461 1.0666544e-38
-0.089759998 -0.46740574 2.3759999 1.0666544e-38
-0.061598938 -0.45874432 2.3815567 1.0666544e-38
-0.032253034 -0.45262155 2.392 1.0666544e-38
0.91097277 -0.45549309 2.3839996 1.0666544e-38
0.92966467 -0.46692249 2.3780639 1.0666544e-38
-0.059662167 -0.42569321 2.3759995 1.0666544e-38
-0.02203466 -0.4187448 2.3825569 1.0666544e-38
0.0056952387 -0.40436193 2.3920002 1.0666544e-38
0.90255088 -0.41972631 2.3836918 1.0666544e-38
0.92324579 -0.4186286 2.3760002 1.0666544e-38
-0.073440015 -0.38694859 2.3759999 1.0666544e-38
-0.013966984 -0.38234347 2.3813329 1.0666544e-38
0.012909207 -0.37613884 2.3919992 1.0666544e-38
0.87249386 -0.36808661 2.3818181 1.0666544e-38
0.89769948 -0.3831045 2.3789086 1.0666544e-38
0.92324579 -0.39600003 2.3760002 1.0666544e-38
-0.011314287 -0.35979432 2.3760002 1.0666544e-38
0.017156016 -0.34841147 2.3839993 1.0666544e-38
0.043283813 -0.34399238 2.3920002 1.0666544e-38
0.87272203 -0.34162101 2.3831718 1.0666544e-38
0.88477719 -0.3394286 2.3760002 1.0666544e-38
0.86157626 -0.30019844 2.3834283 1.0666544e-38
0.88025153 -0.31453717 2.3760002 1.0666544e-38
0.836061 -0.2437562 2.3920002 1.0666544e-38
0.85327554 -0.26127055 2.3811057 1.0666544e-38
0.83952004 -0.21497144 2.3760002 1.0666544e-38
0.84678096 -0.22745322 2.3827689 1.0666544e-38
0.80644578 -0.17996953 2.3920002 1.0666544e-38
0.81100202 -0.15718859 2.3920002 1.0666544e-38
0.19686858 -0.090514287 2.3760002 1.0666544e-38
0.21411861 -0.092081599 2.3842573 1.0666544e-38
0.21667255 -0.062420107 2.3826904 1.0666544e-38
0.226833 -0.021534733 2.3811314 1.0666544e-38
0.24945149 -0.0099666677 2.3920002 1.0666544e-38
0.23137715 0.0096171442 2.3759999 1.0666544e-38
0.25947136 0.019411581 2.3804312 1.0666544e-38
0.28526819 0.021009099 2.392 1.0666544e-38
0.26946732 0.05804415 2.3764703 1.0666544e-38
0.29877225 0.060793273 2.382153 1.0666544e-38
0.32292002 0.072329529 2.3920002 1.0666544e-38
0.27445227 0.087604903 2.3760004 1.0666544e-38
0.30234614 0.098660745 2.3801477 1.0666544e-38
0.32657167 0.095814019 2.3920002 1.0666544e-38
0.31192821 0.12877499 2.3782856 1.0666544e-38
0.33811077 0.14200602 2.3863521 1.0666544e-38
0.36876667 0.14921525 2.3920002 1.0666544e-38
0.34998858 0.16782859 2.3759999 1.0666544e-38
0.37485498 0.1798411 2.3841693 1.0666544e-38
0.71152514 0.18224764 2.3920002 1.0666544e-38
0.38632125 0.21581085 2.3823993 1.0666544e-38
0.40777913 0.22882207 2.392 1.0666544e-38
0.69611335 0.22753258 2.3908567 1.0666544e-38
0.39260572 0.24325716 2.3760002 1.0666544e-38
0.42344078 0.25832677 2.3849747 1.0666544e-38
0.44422859 0.27564955 2.3920002 1.0666544e-38
0.48768765 0.26969147 2.3920002 1.0666544e-38
0.67659438 0.25970289 2.3920002 1.0666544e-38
0.68638408 0.25347051 2.3911998 1.0666544e-38
0.42689699 0.29229549 2.3813334 1.0666544e-38
0.45874336 0.29373714 2.3874993 1.0666544e-38
0.49535015 0.29607347 2.3882344 1.0666544e-38
-0.13448885 -0.6101709 2.4090002 1.0666544e-38
-0.096734285 -0.61319166 2.412616 1.0666544e-38
-0.048180006 -0.60339713 2.4090002 1.0666544e-38
-0.018968334 -0.60330641 2.4132502 1.0666544e-38
0.017295495 -0.6058203 2.4101338 1.0666544e-38
0.072247811 -0.60325199 2.4158001 1.0666544e-38
0.088730909 -0.6032359 2.4165559 1.0666544e-38
-0.12618573 -0.59880865 2.4090002 1.0666544e-38
-0.095146194 -0.58279812 2.4140151 1.0666544e-38
-0.060558297 -0.58258933 2.4173713 1.0666544e-38
-0.02154466 -0.59490275 2.4195516 1.0666544e-38
0.019637005 -0.59728438 2.4179053 1.0666544e-38
0.058011122 -0.59558487 2.4205599 1.0666544e-38
0.1016008 -0.59286135 2.420769 1.0666544e-38
0.14180276 -0.58361852 2.4199286 1.0666544e-38
0.17959875 -0.58230591 2.4202204 1.0666544e-38
0.22194056 -0.58346415 2.4207962 1.0666544e-38
0.25978324 -0.58197963 2.4216733 1.0666544e-38
0.30039927 -0.57841909 2.4183018 1.0666544e-38
0.33965772 -0.57284236 2.4200191 1.0666544e-38
0.38068271 -0.57195622 2.4204364 1.0666544e-38
0.42178842 -0.57092935 2.4159997 1.0666544e-38
0.45886558 -0.56973904 2.4157996 1.0666544e-38
0.49327147 -0.56209999 2.4090002 1.0666544e-38
0.55215812 -0.56362951 2.4090004 1.0666544e-38
0.57934958 -0.56395096 2.4100003 1.0666544e-38
0.62351632 -0.56421781 2.4090004 1.0666544e-38
0.64886582 -0.56543714 2.4090004 1.0666544e-38
-0.087182857 -0.54604 2.4090004 1.0666544e-38
-0.055216674 -0.54019302 2.4163668 1.0666544e-38
-0.029112 -0.52632648 2.4260004 1.0666544e-38
0.35465813 -0.55566949 2.4260001 1.0666544e-38
0.38687643 -0.55579787 2.4260004 1.0666544e-38
0.41735601 -0.55556446 2.4260006 1.0666544e-38
0.45954624 -0.55595404 2.4222226 1.0666544e-38
0.49803567 -0.55270624 2.4140368 1.0666544e-38
0.54093164 -0.54996985 2.4169333 1.0666544e-38
0.57910573 -0.55490118 2.4205358 1.0666544e-38
0.61921215 -0.55025035 2.4174995 1.0666544e-38
0.658122 -0.55094242 2.4185362 1.0666544e-38
0.70015991 -0.54221797 2.4162853 1.0666544e-38
0.73968899 -0.5411734 2.4180665 1.0666544e-38
0.78021932 -0.54697889 2.4155385 1.0666544e-38
0.82011956 -0.53854454 2.4189167 1.0666544e-38
0.86232364 -0.53792667 2.4192889 1.0666544e-38
0.89950317 -0.53228033 2.4178393 1.0666544e-38
0.9200086 -0.52768576 2.4090002 1.0666544e-38
-0.080300003 -0.51392007 2.4090002 1.0666544e-38
-0.050493516 -0.50955915 2.4100628 1.0666544e-38
-0.021920895 -0.50024182 2.4194608 1.0666544e-38
0.87031996 -0.51012886 2.4259999 1.0666544e-38
0.89691752 -0.50118059 2.4199736 1.0666544e-38
-0.043591432 -0.47950572 2.4090002 1.0666544e-38
-0.016436318 -0.46355703 2.4165184 1.0666544e-38
0.0023104763 -0.44592196 2.4260001 1.0666544e-38
0.89835095 -0.46226886 2.4185295 1.0666544e-38
0.9245972 -0.47721145 2.4090002 1.0666544e-38
-0.0063194055 -0.43189561 2.4153752 1.0666544e-38
0.020569852 -0.41815057 2.419462 1.0666544e-38
0.043899048 -0.41126478 2.4260001 1.0666544e-38
0.87336004 -0.40664381 2.4260001 1.0666544e-38
0.88987309 -0.41905472 2.4192004 1.0666544e-38
0.028324971 -0.38625932 2.4108887 1.0666544e-38
0.053344682 -0.37403807 2.4224999 1.0666544e-38
0.86930281 -0.37996823 2.4218655 1.0666544e-38
0.88598895 -0.39193529 2.4170527 1.0666544e-38
0.039002858 -0.35332 2.4090002 1.0666544e-38
0.062593453 -0.34874105 2.4166768 1.0666544e-38
0.088377275 -0.34061801 2.4235718 1.0666544e-38
0.866696 -0.33996689 2.4152632 1.0666544e-38
0.85392094 -0.30315128 2.4211428 1.0666544e-38
0.83805859 -0.24175002 2.4175 1.0666544e-38
0.85048938 -0.26189783 2.4236817 1.0666544e-38
0.83562231 -0.22257589 2.4260004 1.0666544e-38
0.8448056 -0.22134909 2.4170527 1.0666544e-38
0.80940336 -0.18135017 2.4187143 1.0666544e-38
0.22668761 -0.12970024 2.4245832 1.0666544e-38
0.24260001 -0.12861651 2.4260001 1.0666544e-38
0.79711431 -0.1363181 2.4260001 1.0666544e-38
0.8104943 -0.15037158 2.4187145 1.0666544e-38
0.22516438 -0.1084137 2.4153745 1.0666544e-38
0.24652211 -0.096231237 2.4230435 1.0666544e-38
0.7767821 -0.091032766 2.4260004 1.0666544e-38
0.23506001 -0.05986001 2.4090004 1.0666544e-38
0.25457844 -0.056110032 2.4229095 1.0666544e-38
0.30087537 -0.055708159 2.4259999 1.0666544e-38
0.26558372 -0.023788435 2.4187145 1.0666544e-38
0.30049145 -0.014835875 2.4241116 1.0666544e-38
0.32775757 -0.0042908853 2.4260004 1.0666544e-38
0.27760857 0.0022942859 2.4090002 1.0666544e-38
0.30338883 0.021271572 2.4092865 1.0666544e-38
0.33511198 0.023108797 2.422667 1.0666544e-38
0.36274478 0.039278094 2.4260001 1.0666544e-38
0.30564988 0.045630801 2.4090002 1.0666544e-38
0.3423259 0.058753204 2.4177923 1.0666544e-38
0.37064508 0.062084731 2.4259999 1.0666544e-38
0.34368169 0.10008351 2.4102817 1.0666544e-38
0.37881458 0.1009425 2.4218702 1.0666544e-38
0.40433335 0.10397144 2.4260001 1.0666544e-38
0.71740288 0.10743715 2.4260001 1.0666544e-38
0.72548956 0.11783429 2.4260001 1.0666544e-38
0.34805661 0.12834504 2.4090002 1.0666544e-38
0.38246113 0.13658357 2.4118323 1.0666544e-38
0.41832745 0.14773043 2.4237833 1.0666544e-38
0.44245622 0.15595715 2.4260001 1.0666544e-38
0.39433041 0.17637323 2.4090002 1.0666544e-38
0.41935924 0.18147822 2.4182067 1.0666544e-38
0.4496187 0.18548502 2.4259996 1.0666544e-38
0.67696959 0.19408001 2.4260001 1.0666544e-38
0.70546895 0.18473835 2.4146664 1.0666544e-38
0.72270006 0.18033087 2.4090002 1.0666544e-38
0.39691144 0.20419145 2.4090002 1.0666544e-38
0.42430067 0.21732949 2.4096284 1.0666544e-38
0.45967454 0.22004877 2.4217494 1.0666544e-38
0.49149251 0.224389 2.4166496 1.0666544e-38
0.67581433 0.2148743 2.4260001 1.0666544e-38
0.69422758 0.21258879 2.4180429 1.0666544e-38
0.43260035 0.24497874 2.4090002 1.0666544e-38
0.46212 0.25904989 2.4105637 1.0666544e-38
0.50202477 0.2571409 2.4122229 1.0666544e-38
0.53140831 0.27261084 2.4212778 1.0666544e-38
0.67650956 0.26286194 2.4175005 1.0666544e-38
0.68247718 0.25796479 2.4226003 1.0666544e-38
0.46672332 0.28580251 2.4090002 1.0666544e-38
0.51208466 0.29183319 2.4090002 1.0666544e-38
0.5383696 0.30124161 2.4171956 1.0666544e-38
0.5618819 0.31350541 2.4146669 1.0666544e-38
0.6815905 0.28418857 2.4260001 1.0666544e-38
0.54758286 0.3211562 2.4260001 1.0666544e-38
-0.044206671 -0.57701337 2.4430001 1.0666544e-38
-0.020562503 -0.57764763 2.44925 1.0666544e-38
0.021350283 -0.58037376 2.4566169 1.0666544e-38
0.060766473 -0.57672328 2.4527447 1.0666544e-38
0.099199101 -0.57729232 2.4568419 1.0666544e-38
0.13878807 -0.5694831 2.446806 1.0666544e-38
0.17892733 -0.56638753 2.4441295 1.0666544e-38
0.22027512 -0.56851524 2.4516115 1.0666544e-38
0.26078263 -0.56718808 2.4576669 1.0666544e-38
0.29519904 -0.5662027 2.4474785 1.0666544e-38
0.33299464 -0.56237775 2.4451251 1.0666544e-38
0.37459335 -0.56072664 2.4430001 1.0666544e-38
0.47231334 -0.56072664 2.4430001 1.0666544e-38
0.48162001 -0.56072664 2.4430001 1.0666544e-38
-0.046533339 -0.54909337 2.4430001 1.0666544e-38
-0.018716091 -0.54423612 2.4472501 1.0666544e-38
0.018710772 -0.54157668 2.4655995 1.0666544e-38
0.050730817 -0.54451013 2.4764669 1.0666544e-38
0.11542144 -0.55829573 2.4735003 1.0666544e-38
0.13744234 -0.55458885 2.470588 1.0666544e-38
0.18165027 -0.55583906 2.4705515 1.0666544e-38
0.21418677 -0.55771214 2.4742107 1.0666544e-38
0.26432002 -0.55932003 2.4780002 1.0666544e-38
0.3058553 -0.55138433 2.4688914 1.0666544e-38
0.34066957 -0.54715276 2.4692371 1.0666544e-38
0.380061 -0.54554671 2.463213 1.0666544e-38
0.42049879 -0.54543555 2.4631634 1.0666544e-38
0.46057296 -0.54411101 2.4625151 1.0666544e-38
0.49983722 -0.53668237 2.4571621 1.0666544e-38
0.53986531 -0.53416085 2.4612975 1.0666544e-38
0.58120388 -0.53607583 2.4591193 1.0666544e-38
0.61982554 -0.5323956 2.4576559 1.0666544e-38
0.66262686 -0.53342474 2.4588375 1.0666544e-38
0.69852579 -0.52947098 2.4487116 1.0666544e-38
0.73955917 -0.528319 2.445194 1.0666544e-38
0.78147322 -0.53181475 2.4488959 1.0666544e-38
0.81937945 -0.52763855 2.4470301 1.0666544e-38
0.85354853 -0.5305841 2.4455187 1.0666544e-38
-0.004320953 -0.50621623 2.4430001 1.0666544e-38
0.021168441 -0.49867034 2.4519253 1.0666544e-38
0.058140568 -0.49668121 2.4729586 1.0666544e-38
0.086376004 -0.48663202 2.4780004 1.0666544e-38
0.50429076 -0.51400644 2.4757504 1.0666544e-38
0.53616959 -0.51279444 2.4780004 1.0666544e-38
0.58328313 -0.51502466 2.4780004 1.0666544e-38
0.62391168 -0.51390809 2.4770532 1.0666544e-38
0.65881765 -0.51136488 2.4780004 1.0666544e-38
0.69901603 -0.50846231 2.4608452 1.0666544e-38
0.74062383 -0.51215321 2.4631381 1.0666544e-38
0.77909738 -0.51458168 2.4701741 1.0666544e-38
0.81728548 -0.51447433 2.4667404 1.0666544e-38
0.86422372 -0.50410789 2.4599819 1.0666544e-38
0.88552934 -0.49092671 2.4430001 1.0666544e-38
-0.0023266666 -0.46998668 2.4430001 1.0666544e-38
0.020908769 -0.46033227 2.4472492 1.0666544e-38
0.061442044 -0.45990387 2.4562879 1.0666544e-38
0.09299738 -0.458433 2.4743068 1.0666544e-38
0.12036 -0.44368002 2.4780002 1.0666544e-38
0.87185335 -0.45670786 2.4629042 1.0666544e-38
0.88506025 -0.46374208 2.4456005 1.0666544e-38
0.029530775 -0.43544471 2.4430006 1.0666544e-38
0.060526028 -0.42090189 2.4452827 1.0666544e-38
0.098301098 -0.41892141 2.4606369 1.0666544e-38
0.12784691 -0.41658065 2.4779999 1.0666544e-38
0.86420667 -0.41995162 2.4612968 1.0666544e-38
0.88180673 -0.42810667 2.4430001 1.0666544e-38
0.068373963 -0.3857013 2.4430006 1.0666544e-38
0.099841043 -0.37835145 2.4485128 1.0666544e-38
0.14031433 -0.37953034 2.4630969 1.0666544e-38
0.16587432 -0.37220576 2.4780004 1.0666544e-38
0.83257002 -0.36715198 2.4765005 1.0666544e-38
0.85554308 -0.37987915 2.4638524 1.0666544e-38
0.10358953 -0.35383904 2.4528098 1.0666544e-38
0.14214236 -0.34700146 2.4508779 1.0666544e-38
0.17395301 -0.33610815 2.4730494 1.0666544e-38
0.83188671 -0.33954418 2.4709997 1.0666544e-38
0.85205615 -0.34084138 2.4511967 1.0666544e-38
0.18320255 -0.31016257 2.4693329 1.0666544e-38
0.22420001 -0.29028004 2.4780006 1.0666544e-38
0.8247872 -0.29929024 2.4622061 1.0666544e-38
0.84807205 -0.30244327 2.4450405 1.0666544e-38
0.79395533 -0.24996038 2.4701252 1.0666544e-38
0.82172817 -0.26052177 2.4572074 1.0666544e-38
0.84651887 -0.26485223 2.4430003 1.0666544e-38
0.26510668 -0.22577333 2.4780002 1.0666544e-38
0.79090238 -0.21861859 2.4633551 1.0666544e-38
0.82100266 -0.22103527 2.4468241 1.0666544e-38
0.84737206 -0.21219201 2.4430003 1.0666544e-38
0.23273501 -0.16687548 2.4559169 1.0666544e-38
0.2601245 -0.17455381 2.4699988 1.0666544e-38
0.28261003 -0.17169 2.4780004 1.0666544e-38
0.78323168 -0.17902131 2.461313 1.0666544e-38
0.81183475 -0.17873262 2.4450612 1.0666544e-38
0.2242752 -0.14613992 2.4457424 1.0666544e-38
0.26117289 -0.14103699 2.4482756 1.0666544e-38
0.30201623 -0.13362701 2.4779994 1.0666544e-38
0.32709605 -0.12649602 2.4780004 1.0666544e-38
0.75756001 -0.13216001 2.4780002 1.0666544e-38
0.7787109 -0.14036416 2.4572725 1.0666544e-38
0.81542706 -0.14286099 2.4475005 1.0666544e-38
0.26653337 -0.10130633 2.4476047 1.0666544e-38
0.30145252 -0.097089343 2.4664197 1.0666544e-38
0.33075723 -0.099298209 2.4769089 1.0666544e-38
0.75176936 -0.087679602 2.4690003 1.0666544e-38
0.77555728 -0.10322332 2.4543788 1.0666544e-38
0.80269998 -0.11633334 2.4430001 1.0666544e-38
0.2698743 -0.067941949 2.44381 1.0666544e-38
0.29881424 -0.061826807 2.4433341 1.0666544e-38
0.33840498 -0.059068333 2.4686992 1.0666544e-38
0.36521003 -0.044840004 2.4780004 1.0666544e-38
0.74474669 -0.058689386 2.4613609 1.0666544e-38
0.76789916 -0.063919358 2.4456568 1.0666544e-38
0.30186349 -0.030936057 2.4430006 1.0666544e-38
0.34034008 -0.021591136 2.451534 1.0666544e-38
0.37744972 -0.016329248 2.4745567 1.0666544e-38
0.40592003 -0.0047200001 2.4780002 1.0666544e-38
0.74141723 -0.021419803 2.4711628 1.0666544e-38
0.76327866 -0.036961336 2.4570005 1.0666544e-38
0.35119861 0.012183643 2.4440005 1.0666544e-38
0.38046584 0.020295691 2.4647391 1.0666544e-38
0.41337267 0.021488426 2.4779992 1.0666544e-38
0.71473885 0.028029142 2.4744003 1.0666544e-38
0.73261303 0.018184932 2.4577544 1.0666544e-38
0.38799867 0.057408169 2.4495773 1.0666544e-38
0.41942814 0.059101522 2.4723284 1.0666544e-38
0.4481855 0.059429094 2.4779997 1.0666544e-38
0.71107268 0.062130719 2.4667838 1.0666544e-38
0.72717345 0.057672694 2.4472504 1.0666544e-38
0.38932893 0.086862229 2.4430001 1.0666544e-38
0.42084575 0.099712238 2.4508615 1.0666544e-38
0.45746166 0.1015748 2.470551 1.0666544e-38
0.5063988 0.10176607 2.4779997 1.0666544e-38
0.52156007 0.11092001 2.4780002 1.0666544e-38
0.70624298 0.10156069 2.4595752 1.0666544e-38
0.72800177 0.099556834 2.4430003 1.0666544e-38
0.42575631 0.13001983 2.4474351 1.0666544e-38
0.46219492 0.13802588 2.4636931 1.0666544e-38
0.50147009 0.14131297 2.4720926 1.0666544e-38
0.53360844 0.14433263 2.4779992 1.0666544e-38
0.56404006 0.15812001 2.4780002 1.0666544e-38
0.67732 0.15812001 2.4780002 1.0666544e-38
0.70143992 0.14033954 2.4571829 1.0666544e-38
0.72758192 0.13926764 2.4430006 1.0666544e-38
0.46619737 0.17627886 2.4475002 1.0666544e-38
0.49987948 0.17973176 2.459429 1.0666544e-38
0.54042286 0.18024898 2.4693909 1.0666544e-38
0.5658555 0.17663696 2.4780004 1.0666544e-38
0.67522538 0.18488321 2.4696195 1.0666544e-38
0.69393533 0.1738793 2.4532037 1.0666544e-38
0.72824669 0.16286667 2.4430001 1.0666544e-38
0.47464001 0.20474666 2.4430001 1.0666544e-38
0.50715184 0.21389149 2.4476898 1.0666544e-38
0.54166543 0.22098219 2.4576893 1.0666544e-38
0.57811058 0.22182195 2.4674621 1.0666544e-38
0.60719436 0.23128001 2.4780004 1.0666544e-38
0.66976607 0.22158197 2.4706883 1.0666544e-38
0.68475145 0.22678006 2.4480004 1.0666544e-38
0.51884669 0.24430001 2.4430001 1.0666544e-38
0.54358906 0.25644925 2.4445117 1.0666544e-38
0.5798108 0.26027656 2.460108 1.0666544e-38
0.6150955 0.26464182 2.4764988 1.0666544e-38
0.66699737 0.25989369 2.4726179 1.0666544e-38
0.68233126 0.26058701 2.4536252 1.0666544e-38
0.55407912 0.29149812 2.4430001 1.0666544e-38
0.5811618 0.30019 2.4521334 1.0666544e-38
0.61995965 0.30024189 2.4630694 1.0666544e-38
0.65774244 0.29760861 2.4695451 1.0666544e-38
0.68565011 0.29484048 2.4766159 1.0666544e-38
0.55142003 0.32340667 2.4430001 1.0666544e-38
0.57701337 0.32573333 2.4430001 1.0666544e-38
0.63257146 0.32097143 2.46 1.0666544e-38
0.64897144 0.32097143 2.46 1.0666544e-38
0.078445718 -0.56338286 2.4960001 1.0666544e-38
0.097766541 -0.56443274 2.5037146 1.0666544e-38
0.25673142 -0.56496763 2.4960003 1.0666544e-38
0.070062563 -0.53953207 2.4978004 1.0666544e-38
0.10012203 -0.54036725 2.5087752 1.0666544e-38
0.13928083 -0.53730261 2.5043578 1.0666544e-38
0.18029124 -0.54154181 2.5068004 1.0666544e-38
0.22004202 -0.53927541 2.5022738 1.0666544e-38
0.25891867 -0.54447287 2.505002 1.0666544e-38
0.29653814 -0.53975052 2.5029478 1.0666544e-38
0.33926591 -0.52786762 2.4988127 1.0666544e-38
0.38015446 -0.52751994 2.4983222 1.0666544e-38
0.42150176 -0.527951 2.4980571 1.0666544e-38
0.45997709 -0.52687681 2.4959996 1.0666544e-38
0.48731431 -0.52297151 2.4960003 1.0666544e-38
0.073691435 -0.51061028 2.4960001 1.0666544e-38
0.10212144 -0.50236273 2.5037153 1.0666544e-38
0.13820837 -0.50069582 2.5131304 1.0666544e-38
0.16417962 -0.4908286 2.5140004 1.0666544e-38
0.2202743 -0.51956004 2.5140002 1.0666544e-38
0.31125718 -0.51956004 2.5140002 1.0666544e-38
0.34238288 -0.5195601 2.5140004 1.0666544e-38
0.38290161 -0.51808661 2.5140004 1.0666544e-38
0.42164442 -0.51624274 2.5129414 1.0666544e-38
0.46319327 -0.51608676 2.5108237 1.0666544e-38
0.50015032 -0.50821894 2.5077927 1.0666544e-38
0.54092121 -0.50490695 2.5028272 1.0666544e-38
0.5765391 -0.51052868 2.5049999 1.0666544e-38
0.62054139 -0.50669456 2.5052574 1.0666544e-38
0.66092598 -0.50171107 2.5046663 1.0666544e-38
0.69999081 -0.49448034 2.5057294 1.0666544e-38
0.74015903 -0.4959397 2.5089602 1.0666544e-38
0.78081512 -0.49658424 2.5065012 1.0666544e-38
0.81751603 -0.50003821 2.5102506 1.0666544e-38
0.86052889 -0.49645215 2.507401 1.0666544e-38
0.10944501 -0.46515357 2.4982495 1.0666544e-38
0.13871269 -0.461422 2.5030828 1.0666544e-38
0.16807891 -0.45698938 2.5140004 1.0666544e-38
0.69673717 -0.4764629 2.5140002 1.0666544e-38
0.78671974 -0.47078368 2.5131001 1.0666544e-38
0.83051789 -0.46419218 2.5140002 1.0666544e-38
0.85603648 -0.46153653 2.5083945 1.0666544e-38
0.14741071 -0.42297217 2.4964502 1.0666544e-38
0.1805235 -0.42078924 2.510345 1.0666544e-38
0.20766442 -0.41453075 2.5140004 1.0666544e-38
0.83439541 -0.42269263 2.5104001 1.0666544e-38
0.84763813 -0.42057845 2.5047431 1.0666544e-38
0.18485986 -0.38263896 2.5010402 1.0666544e-38
0.21179722 -0.37758538 2.5140002 1.0666544e-38
0.8238259 -0.38014141 2.5096803 1.0666544e-38
0.84514391 -0.3929286 2.5080001 1.0666544e-38
0.19033663 -0.34851754 2.4967821 1.0666544e-38
0.21950677 -0.33892727 2.5080011 1.0666544e-38
0.24884614 -0.3299326 2.5140004 1.0666544e-38
0.82101399 -0.33838224 2.5072002 1.0666544e-38
0.21914795 -0.30795944 2.4980001 1.0666544e-38
0.25514954 -0.30370179 2.5117021 1.0666544e-38
0.78819883 -0.28946921 2.5140002 1.0666544e-38
0.80510819 -0.29968217 2.5025997 1.0666544e-38
0.2645686 -0.26576576 2.5140002 1.0666544e-38
0.29689145 -0.24302001 2.5140002 1.0666544e-38
0.78234977 -0.25837827 2.5056214 1.0666544e-38
0.80449313 -0.27337146 2.4960001 1.0666544e-38
0.26851869 -0.21272363 2.4965999 1.0666544e-38
0.30025899 -0.2201753 2.5077286 1.0666544e-38
0.33058283 -0.21722543 2.5099351 1.0666544e-38
0.75898862 -0.20351431 2.5140002 1.0666544e-38
0.77694654 -0.22021855 2.5101929 1.0666544e-38
0.25873712 -0.19450925 2.4982498 1.0666544e-38
0.30221626 -0.18170963 2.5007379 1.0666544e-38
0.33431354 -0.17762654 2.5060005 1.0666544e-38
0.36153716 -0.16041715 2.5140002 1.0666544e-38
0.75450253 -0.17737581 2.5108235 1.0666544e-38
0.76701432 -0.18522455 2.4995995 1.0666544e-38
0.30053881 -0.14310399 2.4960001 1.0666544e-38
0.34189868 -0.14139895 2.4960008 1.0666544e-38
0.37078649 -0.13570161 2.5093334 1.0666544e-38
0.74792159 -0.13598482 2.5084617 1.0666544e-38
0.76315218 -0.14395642 2.4982502 1.0666544e-38
0.29782209 -0.11308409 2.4960001 1.0666544e-38
0.35189387 -0.099609964 2.4959996 1.0666544e-38
0.37944815 -0.098496974 2.5007379 1.0666544e-38
0.40811697 -0.092071176 2.5140002 1.0666544e-38
0.74498916 -0.10210888 2.5098224 1.0666544e-38
0.76425135 -0.11291429 2.4960001 1.0666544e-38
0.356096 -0.070838861 2.4960001 1.0666544e-38
0.38190287 -0.06121143 2.496001 1.0666544e-38
0.41318801 -0.055612929 2.5092633 1.0666544e-38
0.71019077 -0.051876187 2.5140002 1.0666544e-38
0.72998744 -0.061173301 2.5081396 1.0666544e-38
0.39143622 -0.030110478 2.4960003 1.0666544e-38
0.42121246 -0.020597821 2.5032008 1.0666544e-38
0.44909966 -0.0051306132 2.5140004 1.0666544e-38
0.70678395 -0.018435568 2.51355 1.0666544e-38
0.72601688 -0.02032101 2.502353 1.0666544e-38
0.76856577 -0.023942858 2.5140002 1.0666544e-38
0.43300584 0.015177147 2.4959993 1.0666544e-38
0.45409781 0.019917646 2.5055294 1.0666544e-38
0.51237714 0.035914287 2.5140002 1.0666544e-38
0.70395917 0.017580271 2.502429 1.0666544e-38
0.72217607 0.0061805719 2.4960001 1.0666544e-38
0.46913612 0.059568398 2.4960001 1.0666544e-38
0.50017011 0.059169702 2.5066597 1.0666544e-38
0.52895355 0.070635825 2.5116003 1.0666544e-38
0.69986922 0.058102369 2.5037143 1.0666544e-38
0.47542858 0.087954283 2.4960003 1.0666544e-38
0.49266177 0.097390376 2.49825 1.0666544e-38
0.53484672 0.10095195 2.5038464 1.0666544e-38
0.69464129 0.09797585 2.5033631 1.0666544e-38
0.49301943 0.12789029 2.4960001 1.0666544e-38
0.54844123 0.13489911 2.5003443 1.0666544e-38
0.57293373 0.14271861 2.5069091 1.0666544e-38
0.67196602 0.15094253 2.507 1.0666544e-38
0.68573624 0.13850699 2.5029995 1.0666544e-38
0.58518237 0.18205522 2.5032003 1.0666544e-38
0.61381769 0.1876903 2.5122001 1.0666544e-38
0.66681713 0.18010052 2.5052199 1.0666544e-38
0.58858061 0.20538513 2.4960001 1.0666544e-38
0.623124 0.21647072 2.5021203 1.0666544e-38
0.65365613 0.21857464 2.5080004 1.0666544e-38
0.63219833 0.25330636 2.4968567 1.0666544e-38
0.64915365 0.25680354 2.4967494 1.0666544e-38
0.10369143 -0.54980576 2.5320001 1.0666544e-38
0.15674286 -0.52569145 2.5320001 1.0666544e-38
0.17645365 -0.52831256 2.5320005 1.0666544e-38
0.2175184 -0.52330816 2.5455716 1.0666544e-38
0.25978974 -0.52531022 2.5418804 1.0666544e-38
0.29527232 -0.52470797 2.5375884 1.0666544e-38
0.32313144 -0.52328002 2.5320001 1.0666544e-38
0.15433143 -0.51604575 2.5320001 1.0666544e-38
0.18180549 -0.50505793 2.5379376 1.0666544e-38
0.21298826 -0.5158689 2.5510004 1.0666544e-38
0.3070119 -0.51349026 2.5454116 1.0666544e-38
0.3386476 -0.50978512 2.5440917 1.0666544e-38
0.37883341 -0.50467587 2.5432591 1.0666544e-38
0.42018235 -0.50443608 2.5439215 1.0666544e-38
0.45996708 -0.50401622 2.5416944 1.0666544e-38
0.5012961 -0.49658787 2.5395114 1.0666544e-38
0.54140502 -0.49102825 2.5378063 1.0666544e-38
0.57911366 -0.49413723 2.535234 1.0666544e-38
0.61840463 -0.49253604 2.5392203 1.0666544e-38
0.65802246 -0.48974538 2.5355625 1.0666544e-38
0.69219828 -0.49017838 2.5389097 1.0666544e-38
0.7419163 -0.48469716 2.5320001 1.0666544e-38
0.76683426 -0.48710859 2.5320001 1.0666544e-38
0.82912946 -0.49112761 2.5319998 1.0666544e-38
0.85324383 -0.49394101 2.5319998 1.0666544e-38
0.1852404 -0.46402189 2.5385773 1.0666544e-38
0.21275614 -0.45218632 2.5473461 1.0666544e-38
0.5153057 -0.47528648 2.5462503 1.0666544e-38
0.53864259 -0.47361857 2.5502689 1.0666544e-38
0.57710284 -0.4729383 2.549161 1.0666544e-38
0.61855704 -0.47262329 2.5510001 1.0666544e-38
0.66144049 -0.47484332 2.5481853 1.0666544e-38
0.70337087 -0.47093239 2.5456562 1.0666544e-38
0.73964918 -0.47417766 2.542784 1.0666544e-38
0.77793777 -0.46467045 2.5389509 1.0666544e-38
0.82040334 -0.46052015 2.5351088 1.0666544e-38
0.84399998 -0.45817143 2.5320001 1.0666544e-38
0.22354279 -0.42037681 2.5439432 1.0666544e-38
0.25380427 -0.40411079 2.5510004 1.0666544e-38
0.79249871 -0.40661934 2.5495389 1.0666544e-38
0.81934583 -0.41927451 2.5360975 1.0666544e-38
0.23036155 -0.3814922 2.5344789 1.0666544e-38
0.25517583 -0.38257906 2.5505254 1.0666544e-38
0.78756827 -0.38053843 2.538872 1.0666544e-38
0.80912709 -0.38063475 2.5320008 1.0666544e-38
0.23873143 -0.35930285 2.5320001 1.0666544e-38
0.26176861 -0.34241286 2.5392649 1.0666544e-38
0.30222312 -0.32974166 2.5499446 1.0666544e-38
0.7831049 -0.33951688 2.5399156 1.0666544e-38
0.8085705 -0.34446332 2.5320008 1.0666544e-38
0.26820159 -0.29210001 2.5328641 1.0666544e-38
0.29919985 -0.30112958 2.5460241 1.0666544e-38
0.33153659 -0.29677567 2.5509996 1.0666544e-38
0.78225148 -0.30129915 2.5405002 1.0666544e-38
0.8030057 -0.31107432 2.5320001 1.0666544e-38
0.27538514 -0.26622173 2.5319998 1.0666544e-38
0.29974237 -0.2626082 2.5391693 1.0666544e-38
0.33913988 -0.26021522 2.5464027 1.0666544e-38
0.36917195 -0.25139791 2.5509999 1.0666544e-38
0.75106668 -0.25608203 2.5417886 1.0666544e-38
0.76681018 -0.26548067 2.535959 1.0666544e-38
0.34889808 -0.22099262 2.5355189 1.0666544e-38
0.3756083 -0.21619552 2.5506053 1.0666544e-38
0.74998164 -0.21644005 2.5383334 1.0666544e-38
0.76549464 -0.22265525 2.5319998 1.0666544e-38
0.35317308 -0.1850498 2.5374289 1.0666544e-38
0.38012877 -0.18062794 2.5493896 1.0666544e-38
0.40411079 -0.168447 2.5510004 1.0666544e-38
0.71670955 -0.1724962 2.5510001 1.0666544e-38
0.73586655 -0.17947087 2.5413389 1.0666544e-38
0.38802055 -0.14417371 2.53808 1.0666544e-38
0.41105968 -0.13644518 2.5509999 1.0666544e-38
0.71401387 -0.13123642 2.5480773 1.0666544e-38
0.73049676 -0.14422187 2.5378809 1.0666544e-38
0.39668 -0.11454286 2.5320001 1.0666544e-38
0.42530957 -0.10315477 2.5428572 1.0666544e-38
0.45144153 -0.095651247 2.5509996 1.0666544e-38
0.71243268 -0.10114711 2.5452425 1.0666544e-38
0.72676748 -0.100909 2.5320008 1.0666544e-38
0.43092287 -0.064674594 2.5383337 1.0666544e-38
0.45954692 -0.057182051 2.5462506 1.0666544e-38
0.49643272 -0.04454127 2.5510004 1.0666544e-38
0.52234763 -0.055879053 2.5510001 1.0666544e-38
0.70289928 -0.060237437 2.5412562 1.0666544e-38
0.72487545 -0.077648006 2.5320001 1.0666544e-38
0.46227396 -0.021358661 2.5349801 1.0666544e-38
0.49816543 -0.015763653 2.5510008 1.0666544e-38
0.53044605 -0.0064787306 2.5510004 1.0666544e-38
0.67540765 -0.0048590479 2.5510001 1.0666544e-38
0.69439226 -0.017463472 2.5479357 1.0666544e-38
0.78164953 -0.018535875 2.5383334 1.0666544e-38
0.47544995 0.019742522 2.5387061 1.0666544e-38
0.5006845 0.01855352 2.5466387 1.0666544e-38
0.53838187 0.020421969 2.5477123 1.0666544e-38
0.56642622 0.028460139 2.5510004 1.0666544e-38
0.67425686 0.018796846 2.5509999 1.0666544e-38
0.6899429 0.019364266 2.541975 1.0666544e-38
0.54480821 0.057687961 2.5337269 1.0666544e-38
0.57346809 0.059906282 2.549675 1.0666544e-38
0.61126822 0.069241434 2.5509999 1.0666544e-38
0.67038959 0.061084703 2.5488894 1.0666544e-38
0.68818003 0.057924282 2.5344999 1.0666544e-38
0.55444312 0.096271656 2.5319998 1.0666544e-38
0.58025128 0.10025524 2.5412025 1.0666544e-38
0.61705267 0.10088409 2.5489213 1.0666544e-38
0.66468805 0.10163832 2.5439837 1.0666544e-38
0.68763816 0.099819019 2.5327313 1.0666544e-38
0.58804411 0.13331759 2.5320005 1.0666544e-38
0.61981881 0.14041595 2.5420935 1.0666544e-38
0.65879714 0.13860647 2.5419517 1.0666544e-38
0.68450129 0.12918368 2.5320001 1.0666544e-38
0.59562284 0.16156571 2.5320001 1.0666544e-38
0.62406015 0.17049415 2.5358002 1.0666544e-38
0.65231895 0.17698723 2.5357072 1.0666544e-38
0.65060347 0.20304227 2.5320001 1.0666544e-38
0.64626288 0.24355429 2.5320001 1.0666544e-38
0.23741907 -0.52134287 2.5700002 1.0666544e-38
0.26161024 -0.52172464 2.5719001 1.0666544e-38
0.2814762 -0.52134287 2.5700002 1.0666544e-38
0.19685851 -0.49057284 2.5700002 1.0666544e-38
0.22083849 -0.49884057 2.5700014 1.0666544e-38
0.25748211 -0.50045472 2.5833333 1.0666544e-38
0.3014946 -0.50245965 2.5816109 1.0666544e-38
0.34267879 -0.49244544 2.5743179 1.0666544e-38
0.38088974 -0.485618 2.5749028 1.0666544e-38
0.42109916 -0.48698929 2.5774846 1.0666544e-38
0.45970437 -0.48656163 2.5721111 1.0666544e-38
0.49334759 -0.48599976 2.5725908 1.0666544e-38
0.19662541 -0.47402227 2.5700002 1.0666544e-38
0.22579293 -0.46657726 2.5699999 1.0666544e-38
0.26010638 -0.45848665 2.5832322 1.0666544e-38
0.28602287 -0.44136289 2.5890002 1.0666544e-38
0.3920486 -0.47588289 2.5890002 1.0666544e-38
0.41694894 -0.4760583 2.5866253 1.0666544e-38
0.45966196 -0.47223097 2.5840743 1.0666544e-38
0.50188208 -0.47103792 2.5811381 1.0666544e-38
0.53769559 -0.46251982 2.5780389 1.0666544e-38
0.58317655 -0.46066332 2.582258 1.0666544e-38
0.62300855 -0.4643091 2.5808575 1.0666544e-38
0.66105789 -0.46210921 2.579787 1.0666544e-38
0.70318121 -0.46063513 2.5800583 1.0666544e-38
0.74047363 -0.45246992 2.5750191 1.0666544e-38
0.77794415 -0.45138711 2.5811212 1.0666544e-38
0.80853599 -0.44746223 2.575278 1.0666544e-38
0.23546098 -0.43420765 2.5700002 1.0666544e-38
0.26018143 -0.42430276 2.5712664 1.0666544e-38
0.29478452 -0.41596967 2.5883868 1.0666544e-38
0.71752292 -0.43643147 2.5890002 1.0666544e-38
0.73971432 -0.43643144 2.5890005 1.0666544e-38
0.78215873 -0.41785705 2.5836558 1.0666544e-38
0.80796427 -0.4305954 2.5747502 1.0666544e-38
0.27005398 -0.37666142 2.5699999 1.0666544e-38
0.29950276 -0.37938946 2.581717 1.0666544e-38
0.33607471 -0.37344873 2.5807667 1.0666544e-38
0.36246005 -0.36492574 2.5890002 1.0666544e-38
0.75389212 -0.3680079 2.5890005 1.0666544e-38
0.77251452 -0.37913767 2.5782161 1.0666544e-38
0.27535719 -0.35612857 2.5700002 1.0666544e-38
0.29988515 -0.34377888 2.5729554 1.0666544e-38
0.33928302 -0.34111163 2.5734558 1.0666544e-38
0.36656961 -0.33451527 2.5890007 1.0666544e-38
0.7541979 -0.33849111 2.587945 1.0666544e-38
0.76595587 -0.3406032 2.5740302 1.0666544e-38
0.30639747 -0.2972745 2.5699999 1.0666544e-38
0.35060298 -0.3009088 2.5699999 1.0666544e-38
0.37640488 -0.2989403 2.5848913 1.0666544e-38
0.74827546 -0.29770479 2.5879724 1.0666544e-38
0.76917112 -0.30412987 2.5770569 1.0666544e-38
0.35980004 -0.27658099 2.5700002 1.0666544e-38
0.38448408 -0.26340467 2.5761471 1.0666544e-38
0.40639457 -0.25352031 2.5890007 1.0666544e-38
0.73707837 -0.260268 2.5803635 1.0666544e-38
0.39293706 -0.22800514 2.5700002 1.0666544e-38
0.42004445 -0.22110584 2.5791838 1.0666544e-38
