# .PCD v0.7 - Point Cloud Data file format
VERSION 0.7
FIELDS x y z rgb
SIZE 4 4 4 4
TYPE F F F F
COUNT 1 1 1 1
WIDTH 1044
HEIGHT 1
VIEWPOINT 0 0 0 1 0 0 0
POINTS 1044
DATA ascii
0.40922037 0.1432182 2.4773335 2.255928e-38
0.78508121 0.13014126 2.4772804 2.255928e-38
0.35163227 0.16416964 2.4451251 2.255928e-38
0.38159183 0.17838603 2.4520662 2.255928e-38
0.41461098 0.18174927 2.470499 2.255928e-38
0.44320798 0.19210401 2.4780004 2.255928e-38
0.77554286 0.1840577 2.4707055 2.255928e-38
0.38948399 0.21017556 2.4430003 2.255928e-38
0.42187572 0.21858743 2.4667292 2.255928e-38
0.45540595 0.22209124 2.4764991 2.255928e-38
0.75756001 0.21240002 2.4780004 2.255928e-38
0.76554942 0.21245879 2.466857 2.255928e-38
0.42726895 0.25624651 2.452122 2.255928e-38
0.46058375 0.26012075 2.4714537 2.255928e-38
0.48784572 0.26701719 2.4780004 2.255928e-38
0.73868012 0.26061147 2.4780004 2.255928e-38
0.43210575 0.29284209 2.4486668 2.255928e-38
0.46077785 0.29311877 2.4615092 2.255928e-38
0.49852374 0.29399881 2.4722543 2.255928e-38
0.52333009 0.29677001 2.4780004 2.255928e-38
0.67035431 -0.60141718 2.4960001 2.255928e-38
0.68711627 -0.60111624 2.5080001 2.255928e-38
0.72740573 -0.60141718 2.4960001 2.255928e-38
0.82724571 -0.60141718 2.4960001 2.255928e-38
0.87716573 -0.60141718 2.4960001 2.255928e-38
0.89808458 -0.60141718 2.4960001 2.255928e-38
0.92708576 -0.60141718 2.4960001 2.255928e-38
0.065004349 -0.57461113 2.5060797 2.255928e-38
0.10149755 -0.57969177 2.5056002 2.255928e-38
0.13684896 -0.57012248 2.5062001 2.255928e-38
0.1784793 -0.56869549 2.5072498 2.255928e-38
0.21668924 -0.57481277 2.5054286 2.255928e-38
0.2587353 -0.57485425 2.5019999 2.255928e-38
0.30065754 -0.57630092 2.5035486 2.255928e-38
0.34096774 -0.57402688 2.5049996 2.255928e-38
0.382036 -0.57202142 2.5032003 2.255928e-38
0.41695201 -0.57242626 2.5044374 2.255928e-38
0.46245033 -0.57182086 2.5049999 2.255928e-38
0.50048286 -0.57922417 2.5058575 2.255928e-38
0.53826994 -0.57450527 2.5039194 2.255928e-38
0.57658327 -0.57600188 2.5046396 2.255928e-38
0.61998338 -0.58279037 2.509304 2.255928e-38
0.66203195 -0.58586943 2.5063505 2.255928e-38
0.70097059 -0.59020764 2.5060587 2.255928e-38
0.73795474 -0.58635283 2.5044003 2.255928e-38
0.78048527 -0.58413422 2.5054281 2.255928e-38
0.81801993 -0.59042042 2.5032003 2.255928e-38
0.86307746 -0.58899683 2.5050004 2.255928e-38
0.89962167 -0.59001768 2.5028822 2.255928e-38
0.93890923 -0.58984643 2.5075197 2.255928e-38
0.98207486 -0.5820936 2.5049996 2.255928e-38
1.0186056 -0.57501882 2.5094123 2.255928e-38
0.028525719 -0.53723437 2.4959996 2.255928e-38
0.049519397 -0.53587604 2.5095 2.255928e-38
0.14724857 -0.5566715 2.5140002 2.255928e-38
0.16281144 -0.5578686 2.5140002 2.255928e-38
0.99554414 -0.5272218 2.5140002 2.255928e-38
1.0159833 -0.54215997 2.5054736 2.255928e-38
0.066583298 -0.50514901 2.5012109 2.255928e-38
0.086673148 -0.49402097 2.5140004 2.255928e-38
0.98957485 -0.49876571 2.5068841 2.255928e-38
1.0072706 -0.50117165 2.4966919 2.255928e-38
0.077653341 -0.46671242 2.4960003 2.255928e-38
0.097635947 -0.45783716 2.5031054 2.255928e-38
0.95532006 -0.44533718 2.5140002 2.255928e-38
0.97806311 -0.46040544 2.5064075 2.255928e-38
1.0076114 -0.46799999 2.4959998 2.255928e-38
0.072106674 -0.43026286 2.4960001 2.255928e-38
0.10823924 -0.43153071 2.4960001 2.255928e-38
0.13130485 -0.41388404 2.5035484 2.255928e-38
0.95452189 -0.41500956 2.5140002 2.255928e-38
0.96922153 -0.42172059 2.5068004 2.255928e-38
0.13914315 -0.38165227 2.5026324 2.255928e-38
0.16041717 -0.38228762 2.5140004 2.255928e-38
0.95023018 -0.37875542 2.5085583 2.255928e-38
0.96619916 -0.3870725 2.4997892 2.255928e-38
0.14493847 -0.34237579 2.498512 2.255928e-38
0.17188954 -0.33141571 2.5125 2.255928e-38
0.94387835 -0.33908838 2.5045099 2.255928e-38
0.15926857 -0.31616002 2.4960001 2.255928e-38
0.18597758 -0.30232656 2.5056925 2.255928e-38
0.20351431 -0.29449716 2.5140002 2.255928e-38
0.93111211 -0.30019888 2.5056002 2.255928e-38
0.19224258 -0.26793197 2.4976366 2.255928e-38
0.20994596 -0.25475296 2.507077 2.255928e-38
0.90551388 -0.25412482 2.511158 2.255928e-38
0.93866873 -0.26260793 2.5072887 2.255928e-38
0.9621132 -0.26593488 2.5068004 2.255928e-38
0.22288331 -0.22344811 2.5056589 2.255928e-38
0.24302003 -0.21069714 2.5140002 2.255928e-38
0.87870288 -0.21069717 2.5140002 2.255928e-38
0.89521962 -0.2183729 2.5084 2.255928e-38
0.23394094 -0.18795238 2.4980001 2.255928e-38
0.25613934 -0.17867194 2.5089064 2.255928e-38
0.28492001 -0.16041715 2.5140002 2.255928e-38
0.87695736 -0.17539038 2.5083156 2.255928e-38
0.88766325 -0.18617642 2.4982495 2.255928e-38
0.26220015 -0.14108765 2.5021279 2.255928e-38
0.28292477 -0.14485429 2.5140002 2.255928e-38
0.86743563 -0.13478419 2.5140002 2.255928e-38
0.88296765 -0.15524572 2.5080001 2.255928e-38
0.26828721 -0.10810197 2.5045259 2.255928e-38
0.29946721 -0.093135372 2.5071723 2.255928e-38
0.32322857 -0.083800003 2.5140002 2.255928e-38
0.85954863 -0.11612286 2.5140002 2.255928e-38
0.31057933 -0.060935948 2.497241 2.255928e-38
0.32801712 -0.054312486 2.5140002 2.255928e-38
0.84837532 -0.07741525 2.5140004 2.255928e-38
0.3133074 -0.028050287 2.4960001 2.255928e-38
0.33828884 -0.019115005 2.5065005 2.255928e-38
0.36153716 -0.0023942858 2.5140002 2.255928e-38
0.81640869 -0.015358777 2.5075715 2.255928e-38
0.35382766 0.019289844 2.4989998 2.255928e-38
0.3708382 0.026059853 2.5121052 2.255928e-38
0.81485528 0.003990477 2.5140004 2.255928e-38
0.35894856 0.052297141 2.4960001 2.255928e-38
0.38136509 0.060878608 2.5055816 2.255928e-38
0.40889081 0.073158741 2.5140002 2.255928e-38
0.78684682 0.070463218 2.5083752 2.255928e-38
0.80208576 0.064645723 2.5140002 2.255928e-38
0.38451162 0.099097289 2.4964097 2.255928e-38
0.41152629 0.10144377 2.5066876 2.255928e-38
0.75898862 0.11492572 2.5140002 2.255928e-38
0.77948737 0.10309047 2.5030246 2.255928e-38
0.42899913 0.14027384 2.5013516 2.255928e-38
0.44912648 0.14531142 2.51175 2.255928e-38
0.7811476 0.1427227 2.5002353 2.255928e-38
0.80380344 0.15158857 2.5104001 2.255928e-38
0.43412575 0.17412573 2.4959998 2.255928e-38
0.45679578 0.18193178 2.5095 2.255928e-38
0.75898862 0.18196574 2.5140002 2.255928e-38
0.77288204 0.17763865 2.5065885 2.255928e-38
0.80687433 0.16041715 2.5140002 2.255928e-38
0.47207606 0.21343964 2.4971249 2.255928e-38
0.49648491 0.22218217 2.5074894 2.255928e-38
0.52913725 0.23703431 2.5140004 2.255928e-38
0.74952811 0.22613445 2.5055296 2.255928e-38
0.76543999 0.23295999 2.4960001 2.255928e-38
0.50521117 0.25653052 2.5037653 2.255928e-38
0.52953929 0.26390627 2.51 2.255928e-38
0.73659569 0.2534937 2.5069571 2.255928e-38
0.76443005 0.24291 2.5005002 2.255928e-38
0.51108575 0.28288001 2.4960001 2.255928e-38
0.53879428 0.2894502 2.5046084 2.255928e-38
0.73025721 0.28132859 2.5140002 2.255928e-38
0.9653753 -0.6020534 2.5320001 2.255928e-38
0.066885404 -0.56668568 2.5320003 2.255928e-38
0.10036532 -0.56851506 2.5320003 2.255928e-38
0.13081999 -0.56367141 2.5319998 2.255928e-38
0.18738669 -0.56398994 2.5349231 2.255928e-38
0.21890695 -0.56538016 2.5360301 2.255928e-38
0.26004621 -0.56751245 2.5372412 2.255928e-38
0.29992694 -0.56597805 2.5397193 2.255928e-38
0.33777189 -0.56559384 2.5358002 2.255928e-38
0.38031676 -0.56392986 2.5320001 2.255928e-38
0.42096654 -0.5639298 2.5320001 2.255928e-38
0.46102053 -0.56411356 2.5330005 2.255928e-38
0.50153416 -0.5662241 2.5342803 2.255928e-38
0.54117525 -0.56635666 2.5367506 2.255928e-38
0.58169174 -0.5666343 2.5335207 2.255928e-38
0.62107676 -0.56883156 2.5354891 2.255928e-38
0.65973043 -0.56904626 2.5369766 2.255928e-38
0.70028138 -0.57258195 2.539824 2.255928e-38
0.73856246 -0.56969374 2.5361297 2.255928e-38
0.78166837 -0.57121271 2.5446677 2.255928e-38
0.8209368 -0.57390332 2.5418804 2.255928e-38
0.8565625 -0.57736737 2.5431514 2.255928e-38
0.90042686 -0.57656968 2.5417571 2.255928e-38
0.94071388 -0.57477409 2.5421541 2.255928e-38
0.97731483 -0.57425576 2.5348909 2.255928e-38
1.0082451 -0.56454223 2.5319998 2.255928e-38
0.067921892 -0.54551876 2.5319998 2.255928e-38
0.10186178 -0.54137433 2.5393066 2.255928e-38
0.14069201 -0.54051512 2.5464497 2.255928e-38
0.17523919 -0.55090469 2.5444484 2.255928e-38
0.22055575 -0.54925531 2.5498827 2.255928e-38
0.26032898 -0.55162662 2.5475457 2.255928e-38
0.30239472 -0.54939651 2.5510001 2.255928e-38
0.34221709 -0.55117601 2.5474379 2.255928e-38
0.37934932 -0.55135608 2.5381293 2.255928e-38
0.41977248 -0.54949045 2.5428572 2.255928e-38
0.46043333 -0.5505445 2.5472009 2.255928e-38
0.5031113 -0.55018693 2.5474057 2.255928e-38
0.53796017 -0.54803008 2.5495758 2.255928e-38
0.57573533 -0.55380303 2.5464401 2.255928e-38
0.61908698 -0.55260634 2.5509999 2.255928e-38
0.6596157 -0.55247384 2.5509999 2.255928e-38
0.70091772 -0.55453885 2.5510004 2.255928e-38
0.73976105 -0.55173284 2.5502081 2.255928e-38
0.78076071 -0.55503589 2.5510006 2.255928e-38
0.81041974 -0.55427855 2.5510004 2.255928e-38
0.95379919 -0.54872417 2.549417 2.255928e-38
0.98032933 -0.54136002 2.5439095 2.255928e-38
1.0069624 -0.54938293 2.5362225 2.255928e-38
0.10544156 -0.50310194 2.5351667 2.255928e-38
0.14091238 -0.50104898 2.5510001 2.255928e-38
0.166943 -0.49284634 2.5510004 2.255928e-38
0.95184511 -0.49687484 2.5504065 2.255928e-38
0.97329468 -0.50080746 2.5354197 2.255928e-38
0.11237258 -0.47247925 2.5320001 2.255928e-38
0.14002655 -0.46043509 2.5390885 2.255928e-38
0.16719539 -0.46160954 2.5509999 2.255928e-38
0.94726086 -0.46081319 2.5433998 2.255928e-38
0.96658105 -0.47022861 2.5319998 2.255928e-38
0.14891696 -0.42702293 2.5365601 2.255928e-38
0.17513189 -0.41924545 2.5476966 2.255928e-38
0.94096833 -0.41888341 2.5440414 2.255928e-38
0.96457148 -0.43405718 2.5320001 2.255928e-38
0.15674286 -0.38502479 2.5320001 2.255928e-38
0.17932534 -0.38026729 2.5383327 2.255928e-38
0.20822448 -0.37000215 2.5510001 2.255928e-38
0.90700978 -0.37397271 2.5493717 2.255928e-38
0.93317556 -0.38072678 2.5397403 2.255928e-38
0.18210255 -0.34798935 2.5325274 2.255928e-38
0.21817304 -0.33935797 2.5450616 2.255928e-38
0.24457206 -0.33581418 2.5509999 2.255928e-38
0.90542531 -0.33871469 2.5485821 2.255928e-38
0.92905217 -0.34387642 2.5380003 2.255928e-38
0.21990503 -0.29974744 2.5344906 2.255928e-38
0.25118759 -0.29890776 2.5504415 2.255928e-38
0.90494865 -0.29971376 2.5418055 2.255928e-38
0.92652684 -0.29958567 2.5338101 2.255928e-38
0.22867239 -0.26257008 2.5319998 2.255928e-38
0.26024672 -0.26092601 2.5462496 2.255928e-38
0.28425428 -0.25024098 2.5510001 2.255928e-38
0.87198681 -0.2550725 2.548625 2.255928e-38
0.89488637 -0.26429358 2.5388727 2.255928e-38
0.93911743 -0.2537359 2.5319998 2.255928e-38
0.97968102 -0.26926666 2.5415001 2.255928e-38
0.23632 -0.23873143 2.5320001 2.255928e-38
0.26208881 -0.22014928 2.5382283 2.255928e-38
0.2975989 -0.21012555 2.546844 2.255928e-38
0.87026912 -0.21952951 2.5443504 2.255928e-38
0.89504188 -0.22707622 2.5320005 2.255928e-38
0.9374482 -0.23310937 2.54 2.255928e-38
0.27550572 -0.18628287 2.5319998 2.255928e-38
0.30038506 -0.1793939 2.5416503 2.255928e-38
0.32474637 -0.16439778 2.5510001 2.255928e-38
0.83818573 -0.16277809 2.5510001 2.255928e-38
0.86238235 -0.17738053 2.5443501 2.255928e-38
0.88017148 -0.18471543 2.5320001 2.255928e-38
0.30262381 -0.13864708 2.5349221 2.255928e-38
0.33765623 -0.13762736 2.5491381 2.255928e-38
0.36199906 -0.12390573 2.5510001 2.255928e-38
0.83631682 -0.13848288 2.5510006 2.255928e-38
0.85549361 -0.14176692 2.5403721 2.255928e-38
0.88285077 -0.14334603 2.5319998 2.255928e-38
0.30108404 -0.11161469 2.5320005 2.255928e-38
0.34031028 -0.10177239 2.5431585 2.255928e-38
0.3698158 -0.091159955 2.5509996 2.255928e-38
0.82803124 -0.096175201 2.5465817 2.255928e-38
0.84980541 -0.10299652 2.535897 2.255928e-38
0.34530479 -0.060910862 2.5353775 2.255928e-38
0.37881669 -0.058284245 2.54969 2.255928e-38
0.40087143 -0.048590481 2.5510001 2.255928e-38
0.79931343 -0.060738102 2.5510004 2.255928e-38
0.82096463 -0.059450686 2.5427034 2.255928e-38
0.84509611 -0.071246758 2.5319998 2.255928e-38
0.35662347 -0.02920508 2.5319998 2.255928e-38
0.38073981 -0.019390959 2.5421786 2.255928e-38
0.41045874 -0.015974315 2.5492733 2.255928e-38
0.79768294 -0.013524287 2.5469289 2.255928e-38
0.81205338 -0.023556668 2.5358 2.255928e-38
0.38600495 0.015115541 2.5319993 2.255928e-38
0.41766083 0.020475045 2.5404041 2.255928e-38
0.78995031 0.021855377 2.549191 2.255928e-38
0.80794698 0.014394986 2.5380003 2.255928e-38
0.39627811 0.044209525 2.5320001 2.255928e-38
0.42293254 0.057442565 2.5339987 2.255928e-38
0.45811442 0.061260741 2.5454311 2.255928e-38
0.78453404 0.057517789 2.5417023 2.255928e-38
0.8051492 0.051711749 2.5319998 2.255928e-38
0.43122637 0.098868571 2.5320005 2.255928e-38
0.46061698 0.10009757 2.5424628 2.255928e-38
0.48894209 0.10312721 2.5502689 2.255928e-38
0.75277615 0.10449782 2.5470414 2.255928e-38
0.76899016 0.095174745 2.5409718 2.255928e-38
0.4364686 0.12539428 2.5320001 2.255928e-38
0.46706909 0.13700114 2.5332117 2.255928e-38
0.5005542 0.14360611 2.5464568 2.255928e-38
0.52477717 0.15306002 2.5510004 2.255928e-38
0.75314611 0.14066359 2.5462501 2.255928e-38
0.76873243 0.14233427 2.5375004 2.255928e-38
0.4731966 0.17510682 2.5320008 2.255928e-38
0.50045919 0.17888349 2.5384457 2.255928e-38
0.53376645 0.18342909 2.5510006 2.255928e-38
0.56364954 0.19679144 2.5510001 2.255928e-38
0.71670955 0.19679144 2.5510001 2.255928e-38
0.74341649 0.18101406 2.5424917 2.255928e-38
0.7690388 0.16944395 2.5345335 2.255928e-38
0.50876302 0.20842253 2.5329504 2.255928e-38
0.54103744 0.21905543 2.5425899 2.255928e-38
0.57191765 0.22436148 2.5499451 2.255928e-38
0.7120617 0.21939659 2.5509996 2.255928e-38
0.73640466 0.21594478 2.5371559 2.255928e-38
0.76442289 0.20256001 2.5320001 2.255928e-38
0.54875076 0.25757068 2.5320001 2.255928e-38
0.57792062 0.26224005 2.5472751 2.255928e-38
0.60425735 0.27523035 2.5510004 2.255928e-38
0.70888084 0.26128405 2.5475109 2.255928e-38
0.72707325 0.26293525 2.5329504 2.255928e-38
0.77501816 0.25752956 2.5510004 2.255928e-38
0.55428517 0.30168793 2.534111 2.255928e-38
0.57742465 0.29918995 2.5375683 2.255928e-38
0.61426604 0.29673252 2.5432975 2.255928e-38
0.70176017 0.29166016 2.5418062 2.255928e-38
0.72432435 0.2905432 2.5351667 2.255928e-38
0.57093811 0.32312667 2.5510001 2.255928e-38
0.70858574 -0.5617286 2.5700002 2.255928e-38
0.78079057 -0.56050479 2.5700002 2.255928e-38
0.83463812 -0.56246293 2.5700002 2.255928e-38
0.86237788 -0.56344199 2.5700002 2.255928e-38
0.90066773 -0.56798232 2.5791202 2.255928e-38
0.93303061 -0.56439638 2.5747502 2.255928e-38
0.15909526 -0.52134287 2.5700002 2.255928e-38
0.18358879 -0.53559804 2.5781958 2.255928e-38
0.21915844 -0.53700852 2.5765769 2.255928e-38
0.25859475 -0.54344869 2.5785501 2.255928e-38
0.29993919 -0.53750157 2.5800934 2.255928e-38
0.34032664 -0.54016292 2.5820332 2.255928e-38
0.3824766 -0.5429095 2.5795002 2.255928e-38
0.41997156 -0.53631473 2.5798061 2.255928e-38
0.46071336 -0.53551936 2.5798061 2.255928e-38
0.49627569 -0.53383541 2.580555 2.255928e-38
0.54059982 -0.53371316 2.5768402 2.255928e-38
0.58326232 -0.5450542 2.5784442 2.255928e-38
0.62064266 -0.54240775 2.5771248 2.255928e-38
0.66147059 -0.54177576 2.5781429 2.255928e-38
0.70137197 -0.54597199 2.5794992 2.255928e-38
0.73883772 -0.53914386 2.5777948 2.255928e-38
0.77883476 -0.54466444 2.5785496 2.255928e-38
0.8169471 -0.54601049 2.5797567 2.255928e-38
0.85443944 -0.55489564 2.586467 2.255928e-38
0.90069038 -0.55619472 2.5890005 2.255928e-38
0.9448514 -0.54121745 2.5826662 2.255928e-38
0.96599364 -0.54010797 2.5699999 2.255928e-38
0.18054886 -0.50316268 2.5772066 2.255928e-38
0.48574576 -0.51533437 2.5890002 2.255928e-38
0.9390353 -0.49937952 2.5802701 2.255928e-38
0.18680446 -0.45692664 2.5817928 2.255928e-38
0.21451715 -0.45005155 2.5890005 2.255928e-38
0.91587597 -0.44684225 2.5890005 2.255928e-38
0.93239069 -0.45817375 2.5781424 2.255928e-38
0.1950914 -0.423978 2.5712669 2.255928e-38
0.21832024 -0.41808245 2.5789175 2.255928e-38
0.24410574 -0.41670576 2.5890002 2.255928e-38
0.91412622 -0.41922608 2.5804825 2.255928e-38
0.92764765 -0.42741543 2.5699999 2.255928e-38
0.22459024 -0.38420072 2.5774143 2.255928e-38
0.25038239 -0.37228149 2.5858338 2.255928e-38
0.89619017 -0.38056448 2.5807176 2.255928e-38
0.26352412 -0.34036767 2.5792429 2.255928e-38
0.28355715 -0.3230086 2.5890002 2.255928e-38
0.89119303 -0.34356344 2.5837586 2.255928e-38
0.26969695 -0.30486068 2.5733044 2.255928e-38
0.28716147 -0.30057588 2.5868893 2.255928e-38
0.87356025 -0.28746948 2.5838187 2.255928e-38
0.88847584 -0.30041876 2.5789058 2.255928e-38
0.29761255 -0.25665626 2.5834997 2.255928e-38
0.32795286 -0.25038242 2.585834 2.255928e-38
0.86215878 -0.26028365 2.5788369 2.255928e-38
0.88848573 -0.27168572 2.5700002 2.255928e-38
0.30456224 -0.22940275 2.5735185 2.255928e-38
0.334703 -0.22153065 2.5775993 2.255928e-38
0.83673972 -0.20822206 2.5808575 2.255928e-38
0.85416496 -0.22044843 2.5773075 2.255928e-38
0.34131652 -0.18127266 2.5796931 2.255928e-38
0.37456444 -0.16385795 2.5890007 2.255928e-38
0.82816434 -0.17818788 2.5812593 2.255928e-38
0.84994107 -0.19032477 2.5718999 2.255928e-38
0.35151577 -0.15457657 2.5700002 2.255928e-38
0.37695384 -0.1394091 2.5777023 2.255928e-38
0.83065575 -0.14311312 2.5820332 2.255928e-38
0.84080863 -0.14054573 2.5890002 2.255928e-38
0.38409358 -0.10274167 2.5766752 2.255928e-38
0.40985811 -0.092066564 2.5878828 2.255928e-38
0.79519296 -0.087532863 2.5890002 2.255928e-38
0.81583774 -0.098248065 2.5789716 2.255928e-38
0.39896196 -0.070980959 2.5700002 2.255928e-38
0.42025405 -0.058999605 2.5785296 2.255928e-38
0.44136289 -0.056711432 2.5890002 2.255928e-38
0.79438013 -0.057418015 2.5823915 2.255928e-38
0.80184013 -0.057763811 2.5699999 2.255928e-38
0.42838499 -0.024032265 2.5738001 2.255928e-38
0.45297262 -0.015100806 2.5884061 2.255928e-38
0.79079622 -0.020236954 2.583194 2.255928e-38
0.80135053 -0.028881907 2.5700002 2.255928e-38
0.43812379 0.017133335 2.5700002 2.255928e-38
0.45335546 0.019499207 2.5832999 2.255928e-38
0.48574576 0.036985718 2.5890002 2.255928e-38
0.77587372 0.019859243 2.5816917 2.255928e-38
0.47336957 0.043567624 2.5700002 2.255928e-38
0.49968961 0.058767863 2.5824072 2.255928e-38
0.75182289 0.063741431 2.5824237 2.255928e-38
0.76925725 0.056645606 2.5742218 2.255928e-38
0.50778335 0.099129207 2.5734546 2.255928e-38
0.53558922 0.1052722 2.5842493 2.255928e-38
0.74328214 0.098521635 2.5766497 2.255928e-38
0.76284134 0.082403183 2.5700002 2.255928e-38
0.51015371 0.12762587 2.5700002 2.255928e-38
0.5417158 0.136362 2.580754 2.255928e-38
0.56588149 0.12945001 2.5890002 2.255928e-38
0.7421062 0.14304616 2.5785496 2.255928e-38
0.54801512 0.1742508 2.5714617 2.255928e-38
0.57465655 0.18932401 2.5785501 2.255928e-38
0.71559775 0.18747401 2.587539 2.255928e-38
0.7273348 0.17548469 2.5791483 2.255928e-38
0.5889774 0.21277496 2.5786366 2.255928e-38
0.6134699 0.22364031 2.5890005 2.255928e-38
0.67807144 0.23917431 2.5890002 2.255928e-38
0.70056725 0.22563256 2.5800586 2.255928e-38
0.59721905 0.25210479 2.5699999 2.255928e-38
0.6224857 0.25986528 2.5791342 2.255928e-38
0.66387993 0.26512274 2.5847244 2.255928e-38
0.69214708 0.25858763 2.5699999 2.255928e-38
0.63148582 0.28596354 2.5699999 2.255928e-38
0.66214925 0.29048571 2.5783823 2.255928e-38
0.68931079 0.29432625 2.5699999 2.255928e-38
0.21925068 -0.52854437 2.6090009 2.255928e-38
0.26164424 -0.53164077 2.6137373 2.255928e-38
0.29423556 -0.52881676 2.614186 2.255928e-38
0.33888677 -0.52802157 2.6131387 2.255928e-38
0.37796485 -0.53038561 2.6133251 2.255928e-38
0.4180316 -0.52783442 2.6090009 2.255928e-38
0.45968103 -0.52808505 2.6090007 2.255928e-38
0.51150602 -0.52570468 2.6090002 2.255928e-38
0.54191244 -0.52695578 2.6132109 2.255928e-38
0.58311617 -0.53162497 2.6173728 2.255928e-38
0.62110496 -0.52976108 2.616648 2.255928e-38
0.65860528 -0.52923471 2.6154711 2.255928e-38
0.70237029 -0.52983975 2.6119421 2.255928e-38
0.73964775 -0.5273062 2.6149263 2.255928e-38
0.7829473 -0.52977657 2.6168792 2.255928e-38
0.82060885 -0.52945638 2.6135721 2.255928e-38
0.86181515 -0.53777629 2.609741 2.255928e-38
0.90056664 -0.53911239 2.6159997 2.255928e-38
0.93559551 -0.53723383 2.6110008 2.255928e-38
0.19403733 -0.495823 2.6090004 2.255928e-38
0.2193114 -0.50336301 2.6164987 2.255928e-38
0.2574828 -0.50288993 2.6275449 2.255928e-38
0.30461225 -0.513592 2.626693 2.255928e-38
0.34023088 -0.51041681 2.6278887 2.255928e-38
0.38195586 -0.51178026 2.6277499 2.255928e-38
0.42022544 -0.51249188 2.6224999 2.255928e-38
0.46002427 -0.5105288 2.623348 2.255928e-38
0.50437564 -0.51398277 2.6190004 2.255928e-38
0.53750545 -0.51062804 2.6249998 2.255928e-38
0.5883953 -0.51703668 2.6290002 2.255928e-38
0.62040824 -0.5116713 2.6290004 2.255928e-38
0.6655575 -0.51812804 2.6240001 2.255928e-38
0.70146006 -0.51420105 2.6273341 2.255928e-38
0.73754144 -0.51465279 2.627948 2.255928e-38
0.78091043 -0.51717579 2.6289999 2.255928e-38
0.82241803 -0.51651227 2.6256671 2.255928e-38
0.85975254 -0.51432139 2.6255519 2.255928e-38
0.90501338 -0.50303841 2.6289995 2.255928e-38
0.92851013 -0.50345963 2.6154709 2.255928e-38
0.1943084 -0.47458956 2.6090002 2.255928e-38
0.22178093 -0.46783608 2.6090009 2.255928e-38
0.25869796 -0.46036458 2.6233325 2.255928e-38
0.87758523 -0.44693005 2.6290002 2.255928e-38
0.90376234 -0.46043405 2.6191885 2.255928e-38
0.92643398 -0.47114921 2.6090007 2.255928e-38
0.23439591 -0.41882044 2.6090004 2.255928e-38
0.26065987 -0.42049673 2.6196663 2.255928e-38
0.29335174 -0.41718882 2.6289997 2.255928e-38
0.87488383 -0.41813621 2.6290004 2.255928e-38
0.89724213 -0.42065266 2.6157634 2.255928e-38
0.26519886 -0.38269448 2.6107149 2.255928e-38
0.29852143 -0.37880388 2.6255512 2.255928e-38
0.32911187 -0.36694723 2.6289999 2.255928e-38
0.86812544 -0.37920493 2.619417 2.255928e-38
0.88735247 -0.3836765 2.6090007 2.255928e-38
0.2758086 -0.35283622 2.6090002 2.255928e-38
0.30013239 -0.33948585 2.6117582 2.255928e-38
0.33199099 -0.33825049 2.6283751 2.255928e-38
0.86604232 -0.33796594 2.6239018 2.255928e-38
0.88674426 -0.33745673 2.612201 2.255928e-38
0.30629736 -0.29729849 2.6090009 2.255928e-38
0.33916453 -0.29968512 2.6204276 2.255928e-38
0.36555621 -0.30496401 2.6289999 2.255928e-38
0.83098674 -0.29072011 2.6290004 2.255928e-38
0.85845381 -0.29989097 2.6169996 2.255928e-38
0.88457531 -0.31059524 2.6090002 2.255928e-38
0.30743286 -0.2685802 2.6090004 2.255928e-38
0.34166348 -0.26376331 2.6131866 2.255928e-38
0.3741816 -0.25777009 2.6252789 2.255928e-38
0.83100575 -0.25961918 2.6290002 2.255928e-38
0.84808147 -0.26014912 2.6140008 2.255928e-38
0.35532096 -0.21865906 2.6090002 2.255928e-38
0.3787894 -0.21920919 2.6202891 2.255928e-38
0.40987369 -0.2143261 2.6290004 2.255928e-38
0.79621148 -0.20531239 2.6290002 2.255928e-38
0.82309836 -0.21611832 2.6206665 2.255928e-38
0.84349906 -0.23112597 2.6165004 2.255928e-38
0.38055876 -0.18384926 2.6116097 2.255928e-38
0.41467255 -0.17893867 2.623893 2.255928e-38
0.79477525 -0.17588541 2.6256673 2.255928e-38
0.81103098 -0.18178652 2.6126847 2.255928e-38
0.3950772 -0.14080319 2.6090002 2.255928e-38
0.4180097 -0.1388077 2.6171956 2.255928e-38
0.4475143 -0.13336959 2.6290002 2.255928e-38
0.78632706 -0.13790013 2.6220901 2.255928e-38
0.81659222 -0.13825212 2.6090007 2.255928e-38
0.42529094 -0.10275898 2.6094358 2.255928e-38
0.46171248 -0.099933662 2.6229279 2.255928e-38
0.48740828 -0.090554461 2.6289999 2.255928e-38
0.78517807 -0.099967353 2.6205783 2.255928e-38
0.81052935 -0.10833564 2.6090009 2.255928e-38
0.43980289 -0.072058104 2.6090002 2.255928e-38
0.46151957 -0.059285093 2.6139116 2.255928e-38
0.4927811 -0.057744112 2.6289999 2.255928e-38
0.75264519 -0.054082286 2.6290004 2.255928e-38
0.77828342 -0.060422488 2.6179223 2.255928e-38
0.47013408 -0.025790116 2.6090009 2.255928e-38
0.50162435 -0.019342896 2.6227033 2.255928e-38
0.53025132 -0.011406243 2.6290004 2.255928e-38
0.74832731 -0.019115012 2.6261995 2.255928e-38
0.77378881 -0.020111967 2.6103053 2.255928e-38
0.473198 0.018188456 2.6090007 2.255928e-38
0.50164461 0.020241508 2.6141722 2.255928e-38
0.53835279 0.021576814 2.6261425 2.255928e-38
0.57086861 0.037557144 2.6290002 2.255928e-38
0.74559367 0.021288468 2.6193569 2.255928e-38
0.76883781 0.012946919 2.6090007 2.255928e-38
0.51765883 0.050523501 2.6090002 2.255928e-38
0.54009819 0.05972001 2.6132851 2.255928e-38
0.57127237 0.061787561 2.6289999 2.255928e-38
0.71358585 0.062595241 2.6289999 2.255928e-38
0.73717868 0.058392711 2.6191685 2.255928e-38
0.5453555 0.088755704 2.6090007 2.255928e-38
0.58003134 0.10168704 2.6231666 2.255928e-38
0.61243188 0.11467449 2.6290002 2.255928e-38
0.71197623 0.10140429 2.6290004 2.255928e-38
0.7307905 0.10024983 2.6185005 2.255928e-38
0.55907142 0.15654002 2.6090002 2.255928e-38
0.58289999 0.1412895 2.6116927 2.255928e-38
0.61457628 0.14154769 2.6283548 2.255928e-38
0.70607227 0.14224361 2.6223333 2.255928e-38
0.73177147 0.1343189 2.6119421 2.255928e-38
0.55907142 0.16150953 2.6090002 2.255928e-38
0.58312851 0.17382038 2.6090012 2.255928e-38
0.62046564 0.18033391 2.6199434 2.255928e-38
0.65499657 0.1915414 2.6290004 2.255928e-38
0.70068961 0.17907445 2.6183741 2.255928e-38
0.72555047 0.16399428 2.6090002 2.255928e-38
0.59882766 0.20126572 2.6090002 2.255928e-38
0.62486482 0.21925841 2.6122441 2.255928e-38
0.6608749 0.22047383 2.6262872 2.255928e-38
0.69332969 0.21522553 2.6153643 2.255928e-38
0.63858384 0.24102192 2.6090002 2.255928e-38
0.66504669 0.25381848 2.6090009 2.255928e-38
0.58278006 -0.52223152 2.6490002 2.255928e-38
0.77451718 -0.52223146 2.6490002 2.255928e-38
0.91411531 -0.52559531 2.6490002 2.255928e-38
0.27499148 -0.50373054 2.6490002 2.255928e-38
0.29585621 -0.49836966 2.6583025 2.255928e-38
0.34001148 -0.49931309 2.6613812 2.255928e-38
0.37724429 -0.49929896 2.6570008 2.255928e-38
0.42143986 -0.49775335 2.6586554 2.255928e-38
0.45899487 -0.49422038 2.6589999 2.255928e-38
0.4993847 -0.5008347 2.6623335 2.255928e-38
0.53977752 -0.49352559 2.6590002 2.255928e-38
0.57972074 -0.50491947 2.6615005 2.255928e-38
0.61922842 -0.5001967 2.6573877 2.255928e-38
0.66122913 -0.50658745 2.6624877 2.255928e-38
0.70051402 -0.50612199 2.6613083 2.255928e-38
0.74106228 -0.50661725 2.6565008 2.255928e-38
0.78254414 -0.50779265 2.6566477 2.255928e-38
0.81763804 -0.50793612 2.6596665 2.255928e-38
0.85847521 -0.50447226 2.6578891 2.255928e-38
0.89277232 -0.49479768 2.6590006 2.255928e-38
0.29392546 -0.4579953 2.6568792 2.255928e-38
0.8718468 -0.45037228 2.659667 2.255928e-38
0.88894504 -0.46710688 2.6540005 2.255928e-38
0.31264398 -0.42407268 2.6504288 2.255928e-38
0.32736921 -0.42188781 2.6663911 2.255928e-38
0.86824697 -0.42113706 2.6608748 2.255928e-38
0.31535718 -0.39356574 2.6490002 2.255928e-38
0.34219369 -0.38219002 2.6575003 2.255928e-38
0.36991408 -0.37633571 2.6689997 2.255928e-38
0.85562968 -0.37826344 2.6646755 2.255928e-38
0.34932896 -0.34359169 2.6526372 2.255928e-38
0.37434453 -0.33685881 2.6644833 2.255928e-38
0.83374482 -0.32536381 2.6690001 2.255928e-38
0.84840602 -0.34111741 2.6592567 2.255928e-38
0.38458663 -0.29852709 2.6572614 2.255928e-38
0.40416288 -0.29486096 2.6690004 2.255928e-38
0.82424402 -0.29907453 2.6572356 2.255928e-38
0.84212971 -0.3113206 2.6490002 2.255928e-38
0.39450637 -0.26592201 2.6534448 2.255928e-38
0.41681102 -0.25709152 2.664263 2.255928e-38
0.44737524 -0.24148096 2.6690001 2.255928e-38
0.79561627 -0.24656478 2.6690001 2.255928e-38
0.81421047 -0.25781125 2.6556673 2.255928e-38
0.42412037 -0.2250949 2.6490014 2.255928e-38
0.45059726 -0.21722028 2.6681993 2.255928e-38
0.79474443 -0.2150145 2.664 2.255928e-38
0.81165493 -0.22937076 2.6540008 2.255928e-38
0.43533304 -0.18697177 2.6490002 2.255928e-38
0.45591959 -0.17613904 2.6614325 2.255928e-38
0.48042002 -0.16014001 2.6690001 2.255928e-38
0.78416973 -0.17972387 2.6579478 2.255928e-38
0.43645433 -0.15894 2.6490002 2.255928e-38
0.46371484 -0.14305636 2.6495142 2.255928e-38
0.49397278 -0.13618386 2.6643333 2.255928e-38
0.77059394 -0.14186852 2.6570005 2.255928e-38
0.47177431 -0.11857429 2.6490002 2.255928e-38
0.5034008 -0.10435592 2.6545563 2.255928e-38
0.52395016 -0.10072298 2.6689999 2.255928e-38
0.75494576 -0.088966668 2.6690001 2.255928e-38
0.76782149 -0.10143557 2.6626842 2.255928e-38
0.51082224 -0.064284772 2.652334 2.255928e-38
0.5294497 -0.057782896 2.665 2.255928e-38
0.74418986 -0.060898259 2.6578894 2.255928e-38
0.76442575 -0.075685717 2.6490002 2.255928e-38
0.51718575 -0.037842859 2.6490002 2.255928e-38
0.54519117 -0.023235997 2.6550615 2.255928e-38
0.5683499 -0.019192804 2.6667778 2.255928e-38
0.7193591 -0.0076257149 2.6690001 2.255928e-38
0.73253232 -0.018584764 2.6596668 2.255928e-38
0.55166483 0.0058866665 2.6490002 2.255928e-38
0.57938993 0.020064434 2.6592331 2.255928e-38
0.60808015 0.033609629 2.6690004 2.255928e-38
0.71418536 0.026140371 2.6636155 2.255928e-38
0.72914839 0.015984442 2.6512234 2.255928e-38
0.59054399 0.059837431 2.651001 2.255928e-38
0.61511391 0.061187126 2.6672852 2.255928e-38
0.70947212 0.061426338 2.6603513 2.255928e-38
0.72406006 0.059034862 2.6490002 2.255928e-38
0.59623528 0.084936202 2.6490002 2.255928e-38
0.62219882 0.099708498 2.6542842 2.255928e-38
0.64927995 0.10091905 2.6668947 2.255928e-38
0.70247757 0.099440068 2.659667 2.255928e-38
0.63178098 0.13760021 2.6499534 2.255928e-38
0.65961552 0.14407761 2.6606281 2.255928e-38
0.69229889 0.1413758 2.6568263 2.255928e-38
0.66550577 0.17527768 2.6531873 2.255928e-38
0.68538928 0.17512128 2.6523337 2.255928e-38
0.67864859 0.2068743 2.6490002 2.255928e-38
0.6836943 0.20435144 2.6490002 2.255928e-38
0.3099905 -0.48932382 2.6900003 2.255928e-38
0.33896726 -0.48961303 2.6916153 2.255928e-38
0.38044286 -0.48953736 2.6899996 2.255928e-38
0.41840225 -0.48881796 2.6909125 2.255928e-38
0.46028894 -0.48659113 2.6900001 2.255928e-38
0.49991301 -0.48727432 2.6900001 2.255928e-38
0.54113132 -0.48533863 2.6900003 2.255928e-38
0.58373898 -0.4871006 2.6934998 2.255928e-38
0.61702389 -0.48852378 2.695091 2.255928e-38
0.66113669 -0.48831776 2.6948998 2.255928e-38
0.70063484 -0.49218097 2.6916583 2.255928e-38
0.74189961 -0.49189916 2.6972189 2.255928e-38
0.77783597 -0.49278384 2.698936 2.255928e-38
0.82155204 -0.49073794 2.695122 2.255928e-38
0.85978365 -0.49194491 2.6922708 2.255928e-38
0.88385719 -0.49188572 2.6900001 2.255928e-38
0.31156707 -0.46882859 2.6900003 2.255928e-38
0.3393766 -0.46260327 2.6918113 2.255928e-38
0.37921894 -0.46165392 2.701 2.255928e-38
0.41740808 -0.46893862 2.7058663 2.255928e-38
0.4592832 -0.46783134 2.6991873 2.255928e-38
0.50116569 -0.47259372 2.7021933 2.255928e-38
0.54018998 -0.47126552 2.7016666 2.255928e-38
0.57715917 -0.47287655 2.7079995 2.255928e-38
0.62080532 -0.47254556 2.7101593 2.255928e-38
0.66169709 -0.47203711 2.7094996 2.255928e-38
0.70219445 -0.47492471 2.7062268 2.255928e-38
0.73360628 -0.47280231 2.7099996 2.255928e-38
0.78193462 -0.47114983 2.7109995 2.255928e-38
0.82521266 -0.46348155 2.7105618 2.255928e-38
0.85839504 -0.46192601 2.6982622 2.255928e-38
0.88385719 -0.47395238 2.6900001 2.255928e-38
0.34833643 -0.42122671 2.6900001 2.255928e-38
0.37762246 -0.42007357 2.7007058 2.255928e-38
0.40627033 -0.4111304 2.7109997 2.255928e-38
0.82836169 -0.41729599 2.7062747 2.255928e-38
0.8530935 -0.42234281 2.6915007 2.255928e-38
0.35098094 -0.39709523 2.6900001 2.255928e-38
0.38560551 -0.38079232 2.6900005 2.255928e-38
0.41825625 -0.37763596 2.7105324 2.255928e-38
0.44298109 -0.37216318 2.7110002 2.255928e-38
0.79485786 -0.37068778 2.7110002 2.255928e-38
0.82224756 -0.37839466 2.6981292 2.255928e-38
0.84638929 -0.38396543 2.6899998 2.255928e-38
0.39037025 -0.34809881 2.6899998 2.255928e-38
0.42096728 -0.3390106 2.699101 2.255928e-38
0.45203999 -0.33678368 2.7109995 2.255928e-38
0.79361302 -0.33500218 2.7109997 2.255928e-38
0.81888616 -0.34016842 2.6992652 2.255928e-38
0.84286672 -0.34585714 2.6900003 2.255928e-38
0.42485908 -0.30010036 2.6900008 2.255928e-38
0.46153036 -0.29987568 2.7089801 2.255928e-38
0.49162507 -0.28932527 2.7109997 2.255928e-38
0.78967166 -0.29895335 2.7109993 2.255928e-38
0.81068033 -0.30094787 2.6982892 2.255928e-38
0.43262032 -0.27036637 2.6900001 2.255928e-38
0.46194053 -0.26050192 2.7023261 2.255928e-38
0.4973 -0.2621578 2.710999 2.255928e-38
0.75649816 -0.25044477 2.7110002 2.255928e-38
0.78060126 -0.25765452 2.6996391 2.255928e-38
0.80657303 -0.27198893 2.6900003 2.255928e-38
0.47099888 -0.21922512 2.6915555 2.255928e-38
0.50015843 -0.21832339 2.7007232 2.255928e-38
0.53058147 -0.20719789 2.7110002 2.255928e-38
0.75185072 -0.21016705 2.7110002 2.255928e-38
0.77799773 -0.22070262 2.6975472 2.255928e-38
0.47322041 -0.18921496 2.6900001 2.255928e-38
0.50043494 -0.17986447 2.6930552 2.255928e-38
0.5374918 -0.17900619 2.7080591 2.255928e-38
0.56428969 -0.16897133 2.7110002 2.255928e-38
0.7455641 -0.17992881 2.7100658 2.255928e-38
0.76830357 -0.18146876 2.6931503 2.255928e-38
0.50863659 -0.14996997 2.6900003 2.255928e-38
0.53685796 -0.13876635 2.6911261 2.255928e-38
0.57647365 -0.13694216 2.7109993 2.255928e-38
0.60158384 -0.13942286 2.7110002 2.255928e-38
0.71518767 -0.1303862 2.7110002 2.255928e-38
0.7403394 -0.13826962 2.7045145 2.255928e-38
0.76396006 -0.14295429 2.6900001 2.255928e-38
0.54544073 -0.098840512 2.6920323 2.255928e-38
0.57907355 -0.099113129 2.7094436 2.255928e-38
0.6033051 -0.081760325 2.7110002 2.255928e-38
0.71461385 -0.099546768 2.7110002 2.255928e-38
0.73695713 -0.099306315 2.6989095 2.255928e-38
0.76088572 -0.10401334 2.6900003 2.255928e-38
0.54853231 -0.065945327 2.6899998 2.255928e-38
0.5783658 -0.059219602 2.6942005 2.255928e-38
0.61423063 -0.059046522 2.7091463 2.255928e-38
0.70790607 -0.056262154 2.7057495 2.255928e-38
0.73110056 -0.063839398 2.6936002 2.255928e-38
0.55593336 -0.038428575 2.6900001 2.255928e-38
0.58696908 -0.022764353 2.6900005 2.255928e-38
0.61829919 -0.019650787 2.6971323 2.255928e-38
0.6494664 -0.0091540264 2.7110004 2.255928e-38
0.7047137 -0.017942358 2.7033634 2.255928e-38
0.72650713 -0.03029448 2.6956 2.255928e-38
0.58838415 0.002561905 2.6900001 2.255928e-38
0.62243664 0.017628707 2.6904209 2.255928e-38
0.66010791 0.020779775 2.6999276 2.255928e-38
0.69865471 0.018623617 2.7010341 2.255928e-38
0.630741 0.059692383 2.6899996 2.255928e-38
0.66006631 0.061883841 2.6915011 2.255928e-38
0.6936509 0.060062215 2.698791 2.255928e-38
0.67103612 0.098999307 2.6900001 2.255928e-38
0.69112301 0.10050549 2.6899998 2.255928e-38
0.67164606 0.12596032 2.6900003 2.255928e-38
0.69139403 0.12937619 2.6899998 2.255928e-38
0.76263714 -0.48152858 2.733 2.255928e-38
0.42457783 -0.4516212 2.7362318 2.255928e-38
0.45922568 -0.45007709 2.744251 2.255928e-38
0.50014091 -0.45727634 2.74103 2.255928e-38
0.53878343 -0.45591098 2.7450914 2.255928e-38
0.58064616 -0.45792392 2.7414005 2.255928e-38
0.61790282 -0.45670158 2.745075 2.255928e-38
0.66224152 -0.45699099 2.7437842 2.255928e-38
0.70079058 -0.4586682 2.7482247 2.255928e-38
0.73758483 -0.4601832 2.7431819 2.255928e-38
0.78194565 -0.45722631 2.7426929 2.255928e-38
0.81417167 -0.45284796 2.7397208 2.255928e-38
0.42369503 -0.42395952 2.7363167 2.255928e-38
0.45850137 -0.41640648 2.7528 2.255928e-38
0.48697719 -0.40479434 2.7540004 2.255928e-38
0.61637145 -0.43801716 2.7540002 2.255928e-38
0.79734862 -0.43801716 2.7540002 2.255928e-38
0.81434518 -0.42379281 2.7440839 2.255928e-38
0.43641233 -0.39389908 2.7330003 2.255928e-38
0.464183 -0.3804104 2.7395005 2.255928e-38
0.49161473 -0.37963015 2.7540009 2.255928e-38
0.78929693 -0.37683865 2.7454693 2.255928e-38
0.80948859 -0.3904286 2.733 2.255928e-38
0.46999788 -0.34658074 2.7380009 2.255928e-38
0.49791965 -0.33854157 2.7491872 2.255928e-38
0.52391571 -0.33179146 2.7539999 2.255928e-38
0.78461218 -0.34005085 2.7426925 2.255928e-38
0.47372001 -0.28631431 2.733 2.255928e-38
0.50477207 -0.30320248 2.736001 2.255928e-38
0.53732193 -0.29556504 2.7512004 2.255928e-38
0.77512294 -0.29971138 2.7420003 2.255928e-38
0.50480121 -0.2518647 2.7330005 2.255928e-38
0.53826708 -0.26101568 2.7460001 2.255928e-38
0.7531262 -0.25192526 2.7458339 2.255928e-38
0.76732999 -0.26548633 2.7405005 2.255928e-38
0.54457873 -0.22320513 2.7424505 2.255928e-38
0.5704053 -0.21634544 2.750685 2.255928e-38
0.74293548 -0.21957512 2.7421541 2.255928e-38
0.76263714 -0.23165429 2.7330003 2.255928e-38
0.55701143 -0.19261143 2.733 2.255928e-38
0.58089387 -0.17964727 2.7426932 2.255928e-38
0.60885149 -0.16977975 2.7501819 2.255928e-38
0.71604002 -0.17310858 2.7540002 2.255928e-38
0.72941524 -0.18073173 2.7451942 2.255928e-38
0.59159219 -0.15505593 2.7330003 2.255928e-38
0.61949241 -0.14103523 2.7410431 2.255928e-38
0.64828289 -0.12983145 2.7540002 2.255928e-38
0.71486062 -0.137768 2.7428005 2.255928e-38
0.7236532 -0.15328799 2.7372 2.255928e-38
0.62099671 -0.10092602 2.7398574 2.255928e-38
0.65405786 -0.09856423 2.7539997 2.255928e-38
0.71039081 -0.097297497 2.7474377 2.255928e-38
0.63509721 -0.062989153 2.733 2.255928e-38
0.66304767 -0.059595253 2.7468679 2.255928e-38
0.69571286 -0.062909551 2.7395182 2.255928e-38
0.63770002 -0.039042857 2.733 2.255928e-38
0.66674799 -0.02374596 2.7412179 2.255928e-38
0.69236124 -0.026993249 2.73491 2.255928e-38
0.67934567 0.0052057141 2.733 2.255928e-38
0.47447029 -0.44379106 2.7770002 2.255928e-38
0.49986005 -0.44432002 2.7770002 2.255928e-38
0.53844243 -0.44478673 2.7770002 2.255928e-38
0.57975972 -0.44640797 2.7770002 2.255928e-38
0.6190778 -0.44411656 2.7770002 2.255928e-38
0.65707642 -0.44637707 2.7770002 2.255928e-38
0.70042121 -0.44387922 2.7770002 2.255928e-38
0.74461728 -0.44773078 2.7789133 2.255928e-38
0.77661914 -0.44881412 2.7803004 2.255928e-38
0.46812293 -0.42798468 2.7770002 2.255928e-38
0.50389522 -0.42406583 2.7897918 2.255928e-38
0.53937334 -0.42261517 2.7930779 2.255928e-38
0.57940245 -0.42922306 2.7907503 2.255928e-38
0.62109637 -0.42947641 2.7918835 2.255928e-38
0.66139764 -0.42785555 2.7896507 2.255928e-38
0.70276505 -0.42820829 2.7896671 2.255928e-38
0.74237323 -0.42175359 2.7935002 2.255928e-38
0.78087306 -0.42114872 2.7902756 2.255928e-38
0.80637401 -0.41940355 2.7770002 2.255928e-38
0.51094288 -0.38223109 2.7770002 2.255928e-38
0.5384286 -0.37918165 2.7930017 2.255928e-38
0.5673871 -0.37504551 2.7990003 2.255928e-38
0.7534278 -0.37925848 2.799 2.255928e-38
0.77426583 -0.38241279 2.7838104 2.255928e-38
0.80136287 -0.39935908 2.7770002 2.255928e-38
0.51572859 -0.35704288 2.7770002 2.255928e-38
0.54190826 -0.34077325 2.7805007 2.255928e-38
0.57763147 -0.3380034 2.798502 2.255928e-38
0.74845284 -0.33838707 2.7925305 2.255928e-38
0.77227056 -0.34268561 2.7770002 2.255928e-38
0.5467605 -0.30837926 2.7770004 2.255928e-38
0.58243442 -0.30023378 2.790751 2.255928e-38
0.60938227 -0.29802689 2.7990003 2.255928e-38
0.74440467 -0.29969317 2.7927146 2.255928e-38
0.76751 -0.29885814 2.7770004 2.255928e-38
0.55011052 -0.24596287 2.7770002 2.255928e-38
0.57995671 -0.25953051 2.7805352 2.255928e-38
0.61728752 -0.258982 2.7955797 2.255928e-38
0.71085715 -0.25746357 2.7990003 2.255928e-38
0.73729771 -0.26156005 2.7858698 2.255928e-38
0.76698101 -0.27770001 2.7770002 2.255928e-38
0.58951747 -0.22216001 2.7770002 2.255928e-38
0.61775142 -0.22006042 2.783735 2.255928e-38
0.65724671 -0.21592283 2.7990012 2.255928e-38
0.70501536 -0.21824622 2.7945015 2.255928e-38
0.72917038 -0.22392942 2.7786927 2.255928e-38
0.59242666 -0.19571239 2.7770002 2.255928e-38
0.62137979 -0.18636273 2.7775505 2.255928e-38
0.66210431 -0.18114784 2.7969637 2.255928e-38
0.70086014 -0.18054935 2.7876551 2.255928e-38
0.72413588 -0.19200973 2.7770002 2.255928e-38
0.66654611 -0.1438562 2.7798209 2.255928e-38
0.70053124 -0.14050305 2.7770002 2.255928e-38
0.67500204 -0.10079482 2.7770002 2.255928e-38
0.69612914 -0.10244972 2.7770002 2.255928e-38
0.66912478 -0.071408577 2.7770002 2.255928e-38
0.69292766 -0.076698102 2.7770002 2.255928e-38
0.55499333 -0.40583047 2.822 2.255928e-38
0.57913566 -0.41250315 2.8219993 2.255928e-38
0.62137765 -0.41362458 2.8219995 2.255928e-38
0.65769881 -0.416197 2.822 2.255928e-38
0.70460415 -0.41702896 2.8220003 2.255928e-38
0.73533267 -0.40583047 2.8220003 2.255928e-38
0.76059622 -0.40045524 2.822 2.255928e-38
0.55633712 -0.39508 2.822 2.255928e-38
0.58267581 -0.37841681 2.8219995 2.255928e-38
0.60471427 -0.36282858 2.822 2.255928e-38
0.74357468 -0.38074601 2.8219998 2.255928e-38
0.59288877 -0.35261565 2.8220003 2.255928e-38
0.61438978 -0.33982262 2.8219995 2.255928e-38
0.71759427 -0.3252019 2.822 2.255928e-38
0.73372 -0.34025261 2.8220003 2.255928e-38
0.62755907 -0.3025811 2.8219995 2.255928e-38
0.6584667 -0.2884711 2.8220003 2.255928e-38
0.70953149 -0.29241294 2.8219995 2.255928e-38
0.72680891 -0.30715647 2.822 2.255928e-38
0.63696575 -0.27144954 2.822 2.255928e-38
0.64738029 -0.26002717 2.8219998 2.255928e-38
0.69975829 -0.26363102 2.8219995 2.255928e-38
0.67056096 -0.23315099 2.8219998 2.255928e-38
0.69225389 -0.23190314 2.822 2.255928e-38
0.67996764 -0.19619618 2.822 2.255928e-38
0.68534285 -0.18544571 2.822 2.255928e-38
0.5933857 -0.40642858 2.845 2.255928e-38
0.61790597 -0.40547484 2.8498001 2.255928e-38
0.66253239 -0.40727717 2.8510001 2.255928e-38
0.69962764 -0.40799838 2.8585007 2.255928e-38
0.73050135 -0.40497318 2.8484285 2.255928e-38
0.59519207 -0.3910746 2.8449998 2.255928e-38
0.62256533 -0.3823064 2.8570011 2.255928e-38
0.65664428 -0.38189101 2.8651614 2.255928e-38
0.70009679 -0.3804082 2.8690016 2.255928e-38
0.73258716 -0.38063115 2.8585398 2.255928e-38
0.63476759 -0.34164631 2.8449998 2.255928e-38
0.65835589 -0.33923492 2.8614225 2.255928e-38
0.70298195 -0.33807319 2.8675017 2.255928e-38
0.73044086 -0.34666127 2.8552861 2.255928e-38
0.63673812 -0.31159526 2.845 2.255928e-38
0.6612078 -0.30377534 2.8456864 2.255928e-38
0.6969294 -0.30454695 2.8474007 2.255928e-38
0.66789764 -0.26417857 2.8450003 2.255928e-38
0.6872437 -0.26217353 2.8450003 2.255928e-38
0.67503333 -0.36644667 2.8930004 2.255928e-38
0.68949836 -0.36300263 2.8929999 2.255928e-38
0.67503333 -0.35542575 2.8930001 2.255928e-38
0.69363123 -0.35335931 2.8929999 2.255928e-38
-0.089442022 0.10753416 0.47075576 8.9055937e-39
-0.070821248 0.10718671 0.47256562 8.9055937e-39
-0.085088097 0.12158513 0.47776318 8.9055937e-39
-0.076188445 0.12214108 0.47817501 8.9055937e-39
-0.097595155 0.11739033 0.48110005 8.9055937e-39
-0.052304395 0.1115408 0.49087808 8.9055937e-39
-0.037263833 0.1162949 0.51388109 8.9055937e-39
-0.093046464 0.13986428 0.49410719 8.9055937e-39
-0.059470698 0.13975725 0.49835858 8.9055937e-39
-0.034186706 0.12805857 0.51756692 8.9055937e-39
-0.26743311 0.19762689 0.51225585 8.9055937e-39
-0.088758416 0.17139378 0.51268071 8.9055937e-39
-0.063845202 0.17202769 0.51236922 8.9055937e-39
-0.30615351 0.23002949 0.51431674 8.9055937e-39
-0.27045175 0.2089535 0.51519048 8.9055937e-39
-0.29643783 0.14019147 0.53699481 8.9055937e-39
-0.040598754 0.15126519 0.52106261 8.9055937e-39
-0.034921732 0.14637944 0.52888197 8.9055937e-39
-0.32217073 0.19925131 0.5358572 8.9055937e-39
-0.29689398 0.18374465 0.53270632 8.9055937e-39
-0.26464012 0.1919571 0.54934132 8.9055937e-39
-0.09294267 0.18796729 0.52725869 8.9055937e-39
-0.054075133 0.18761881 0.52707517 8.9055937e-39
-0.031042224 0.17887338 0.54480624 8.9055937e-39
-0.32426423 0.2262969 0.54208446 8.9055937e-39
-0.30160624 0.21832654 0.53473508 8.9055937e-39
-0.27045184 0.21136393 0.53582662 8.9055937e-39
-0.086243778 0.20591924 0.53677887 8.9055937e-39
-0.058912728 0.21339858 0.54347622 8.9055937e-39
-0.034209423 0.20725362 0.55302733 8.9055937e-39
-0.24472047 0.19563828 0.56249994 8.9055937e-39
-0.23384342 0.19763783 0.56880689 8.9055937e-39
-0.018890558 0.18766211 0.56931841 8.9055937e-39
-0.25023925 0.22051215 0.56925994 8.9055937e-39
-0.22218943 0.22120245 0.58207357 8.9055937e-39
-0.19886106 0.23488012 0.59829998 8.9055937e-39
-0.05487638 0.23480211 0.56462771 8.9055937e-39
-0.025879988 0.22255014 0.57536721 8.9055937e-39
-0.25650582 0.2431245 0.58459383 8.9055937e-39
-0.21628159 0.24177207 0.59359109 8.9055937e-39
-0.049086161 0.24933729 0.57976913 8.9055937e-39
-0.030987443 0.2493607 0.59142184 8.9055937e-39
-0.0060423552 0.19825613 0.63758332 8.9055937e-39
0.0083058653 0.19797356 0.63775462 8.9055937e-39
-0.20898877 0.2335539 0.60135299 8.9055937e-39
-0.0057562245 0.22007921 0.62233967 8.9055937e-39
0.017120093 0.22121334 0.63089031 8.9055937e-39
-0.013941171 0.26061958 0.61430621 8.9055937e-39
0.015227254 0.25482988 0.6292873 8.9055937e-39
0.19681846 0.27526155 0.63708496 8.9055937e-39
0.22212894 0.26603633 0.6295172 8.9055937e-39
0.25788337 0.26508409 0.63030893 8.9055937e-39
0.28315896 0.27166632 0.63740987 8.9055937e-39
0.19526702 0.28274396 0.63584465 8.9055937e-39
0.20763564 0.28138763 0.62937504 8.9055937e-39
0.26997769 0.2814565 0.6294055 8.9055937e-39
0.28569192 0.28332177 0.63646173 8.9055937e-39
0.045913331 0.15972666 0.67900002 8.9055937e-39
-0.0090416307 0.17932698 0.65407461 8.9055937e-39
0.020276127 0.17922561 0.65584266 8.9055937e-39
0.058475938 0.18131879 0.66565198 8.9055937e-39
0.086439572 0.18957245 0.67576444 8.9055937e-39
0.034993969 0.2102268 0.64168406 8.9055937e-39
0.059526943 0.21952449 0.6540041 8.9055937e-39
0.088547692 0.21793395 0.67341614 8.9055937e-39
0.19770066 0.23825411 0.6775791 8.9055937e-39
0.22349107 0.23472744 0.66929054 8.9055937e-39
0.25809887 0.23320687 0.6666646 8.9055937e-39
0.28812537 0.23614557 0.67264122 8.9055937e-39
0.031572372 0.26585484 0.64520645 8.9055937e-39
0.058343802 0.2567018 0.66029149 8.9055937e-39
0.083916157 0.24871108 0.67590791 8.9055937e-39
0.15792404 0.2781432 0.6774444 8.9055937e-39
0.18364909 0.26313528 0.66151112 8.9055937e-39
0.21544278 0.24851972 0.65041888 8.9055937e-39
0.26228726 0.24661915 0.64737242 8.9055937e-39
0.29927513 0.25887182 0.65699512 8.9055937e-39
0.32501227 0.26921043 0.67176342 8.9055937e-39
0.028091205 0.28259254 0.65565789 8.9055937e-39
0.053471081 0.28113681 0.67231584 8.9055937e-39
0.15274538 0.29225489 0.67409939 8.9055937e-39
0.17341101 0.28603595 0.65473807 8.9055937e-39
0.30618501 0.28626946 0.65021092 8.9055937e-39
0.32975394 0.29101384 0.66969955 8.9055937e-39
0.028589301 0.15404356 0.69824314 8.9055937e-39
0.059957363 0.15041909 0.69809455 8.9055937e-39
0.097473003 0.15143746 0.70739919 8.9055937e-39
0.12692858 0.15713698 0.71670604 8.9055937e-39
-0.0016197618 0.16240643 0.68075001 8.9055937e-39
0.018718163 0.16098948 0.68411905 8.9055937e-39
0.071312554 0.16321564 0.68237072 8.9055937e-39
0.10267992 0.17739023 0.69012398 8.9055937e-39
0.13294615 0.17977791 0.7082355 8.9055937e-39
0.18200125 0.18682505 0.71361405 8.9055937e-39
0.21740228 0.18985792 0.71271801 8.9055937e-39
0.25215358 0.19589572 0.7157042 8.9055937e-39
0.10820287 0.22024417 0.68766212 8.9055937e-39
0.1418536 0.22099598 0.70895433 8.9055937e-39
0.17983598 0.22075973 0.69902611 8.9055937e-39
0.21916938 0.21571383 0.69363022 8.9055937e-39
0.26012188 0.21421814 0.69702047 8.9055937e-39
0.2982111 0.22385599 0.70097977 8.9055937e-39
0.32617915 0.23356223 0.71211272 8.9055937e-39
0.073564939 0.2735976 0.68213016 8.9055937e-39
0.099458121 0.25652656 0.69394106 8.9055937e-39
0.14525281 0.26182589 0.7030316 8.9055937e-39
0.17086241 0.25091386 0.68695396 8.9055937e-39
0.31429186 0.2435637 0.68582612 8.9055937e-39
0.33657968 0.25788414 0.69805384 8.9055937e-39
0.065890387 0.28754595 0.68579435 8.9055937e-39
0.11462731 0.30585709 0.71302992 8.9055937e-39
0.13331711 0.29324469 0.69659889 8.9055937e-39
0.34019426 0.28195068 0.68246675 8.9055937e-39
0.1061381 0.32115334 0.71900004 8.9055937e-39
0.11289568 0.11871321 0.75546163 8.9055937e-39
0.14123039 0.11779914 0.75477904 8.9055937e-39
0.16987191 0.11783818 0.75713146 8.9055937e-39
0.03797096 0.14443144 0.73150009 8.9055937e-39
0.063502938 0.13665383 0.73534232 8.9055937e-39
0.10137342 0.13260171 0.73716742 8.9055937e-39
0.1404127 0.13900305 0.7344715 8.9055937e-39
0.17961255 0.1404289 0.73932248 8.9055937e-39
0.21629855 0.14719015 0.74462444 8.9055937e-39
0.24693674 0.15583593 0.75285482 8.9055937e-39
0.15343416 0.17913462 0.72190392 8.9055937e-39
0.17608266 0.16883364 0.72223288 8.9055937e-39
0.22232366 0.17092071 0.72689772 8.9055937e-39
0.25997439 0.17879626 0.73562205 8.9055937e-39
0.29499373 0.19048963 0.74474877 8.9055937e-39
0.32375628 0.19862778 0.75668764 8.9055937e-39
0.14608693 0.21750532 0.72072834 8.9055937e-39
