# .PCD v0.7 - Point Cloud Data file format
VERSION 0.7
FIELDS x y z rgb
SIZE 4 4 4 4
TYPE F F F F
COUNT 1 1 1 1
WIDTH 263
HEIGHT 1
VIEWPOINT 0 0 0 1 0 0 0
POINTS 263
DATA ascii
-0.090119243 -0.048854191 0.54846066 8.680866e-39
-0.076982804 -0.050088916 0.5556637 9.2380181e-39
-0.10112919 -0.02675592 0.54391962 1.0703752e-38
-0.07932476 -0.039928574 0.55900002 9.0536156e-39
-0.058728963 -0.051619519 0.57867265 7.4834088e-39
-0.028640779 -0.059066169 0.58692366 9.2239392e-39
-0.081234135 -0.01878391 0.59460717 1.0318372e-38
-0.063013144 -0.027051637 0.59169513 6.5560085e-39
-0.036454607 -0.036052547 0.59580392 9.3291305e-39
-0.081692189 0.029322479 0.59900004 1.1598992e-38
-0.064695962 0.022775153 0.5986017 1.3810968e-38
-0.080308095 -0.080894768 0.61550003 1.5061466e-38
-0.065702453 -0.082574897 0.61242586 8.0092139e-39
-0.0042600003 -0.080940008 0.63900006 1.2830739e-38
-0.080155879 -0.077816196 0.61433339 1.7691809e-38
-0.06480702 -0.072283648 0.60820633 8.3084653e-39
-0.012126276 -0.059061009 0.63429946 8.3974296e-39
0.0036423001 -0.066852979 0.63819212 1.4289996e-38
-0.095215037 -0.014841853 0.61563236 1.1050879e-38
-0.055268295 -0.010411806 0.60676515 7.0177139e-39
-0.028914379 -0.020780882 0.61958116 1.2360033e-38
-0.12299954 0.022778101 0.62368828 1.5378652e-38
-0.10152746 0.020350967 0.61367971 1.14164e-38
-0.059856389 0.011356821 0.61362612 9.4903737e-39
-0.031267062 0.017289963 0.6274389 1.4824767e-38
-0.12119207 0.041666038 0.63100004 2.1198821e-38
-0.096021973 0.057886761 0.61402291 1.2982644e-38
-0.059512399 0.066174477 0.62677264 1.565235e-38
-0.032789674 0.061768532 0.63589883 1.6668679e-38
-0.087655678 0.09211798 0.61696422 1.2986239e-38
-0.059322275 0.098956324 0.6190632 1.4548176e-38
-0.035743602 0.094354197 0.63478279 1.9153987e-38
-0.059809569 0.13444261 0.63354558 1.1785188e-38
-0.048558749 -0.088091224 0.65367711 7.1920368e-39
-0.027927229 -0.086090155 0.65347058 1.9918218e-38
-0.050526615 -0.078954972 0.65049994 4.6185018e-39
-0.0063781664 -0.048416827 0.64183927 1.0617697e-38
0.0066969651 -0.066761918 0.64165318 1.337346e-38
-0.12160546 -0.0061188503 0.64270842 1.5011313e-38
-0.11700635 -0.0088761253 0.64093196 1.2520952e-38
-0.015650097 -0.029770706 0.64319992 1.328775e-38
-0.081591427 0.03954 0.65900004 9.2926659e-39
-0.054682191 0.035819203 0.64897126 8.7405683e-39
-0.028105728 0.036137186 0.64282334 1.7777546e-38
-0.081453368 0.047744241 0.65512902 1.1225512e-38
-0.064671144 0.051057719 0.64794034 9.7547119e-39
-0.022592807 0.057974614 0.6431812 2.0545938e-38
-0.027045885 0.10155505 0.64873266 1.9251952e-38
-0.081075408 0.15739667 0.65150005 1.4922377e-38
-0.056907427 0.14915383 0.64372772 1.3258517e-38
-0.031626191 0.13951094 0.65854448 1.8419307e-38
-0.082983173 0.18362504 0.66162032 1.0495898e-38
-0.059272762 0.17985931 0.6514309 1.0127107e-38
-0.032083757 0.17970687 0.66723186 1.7681741e-38
-0.083863229 0.21954021 0.67288554 8.0098444e-39
-0.059528273 0.21980006 0.66307122 8.7452529e-39
-0.031742252 0.2197924 0.67061764 1.5377938e-38
-0.081846319 0.24673633 0.67825931 7.7325443e-39
-0.057820402 0.25740635 0.67340374 7.9158523e-39
-0.033684082 0.25359595 0.67537516 1.196922e-38
0.18723822 0.26731539 0.67109126 9.8490739e-39
0.21963245 0.26240584 0.66593379 1.2152886e-38
0.25660521 0.26589856 0.67011678 1.7592065e-38
0.28340605 0.27522302 0.67678946 2.0451573e-38
-0.057553332 0.28000668 0.67900002 6.9013389e-39
0.18084434 0.28984541 0.6686402 8.4679387e-39
0.2193267 0.28768757 0.65732288 9.8505158e-39
0.26064414 0.28871182 0.66362566 1.5287892e-38
0.28957447 0.29264352 0.67525822 1.7960846e-38
-0.0026446939 -0.046299323 0.69521439 1.2739286e-38
0.0064231809 -0.05021983 0.70197541 1.3748369e-38
0.004694921 -0.039576828 0.70433342 2.1386865e-38
-0.021274056 0.15243423 0.68137848 1.7786567e-38
-0.020206515 0.1874112 0.68762672 1.4086465e-38
-0.09184593 0.22801544 0.68466657 1.0126388e-38
-0.017051935 0.22089133 0.69042212 1.6482836e-38
0.18978594 0.23541225 0.71066034 1.1876283e-38
0.22005174 0.23198357 0.70535231 1.3534726e-38
0.25668225 0.23289545 0.70794386 1.6945245e-38
0.28423142 0.23697454 0.71643734 1.9802591e-38
-0.087759763 0.25862378 0.68856299 8.191363e-39
-0.070089385 0.27270535 0.68213713 7.4555973e-39
-0.016877035 0.26263121 0.69398195 1.3719132e-38
0.001195 0.27772716 0.71650004 1.2336913e-38
0.14984395 0.26831761 0.70651543 1.0862497e-38
0.17536391 0.25402936 0.69444817 1.1231278e-38
0.21921276 0.24349585 0.68606853 1.3535087e-38
0.26372007 0.24823962 0.68918043 1.8512575e-38
0.29749539 0.26144177 0.69966757 2.1004023e-38
0.32565987 0.27514526 0.71488136 2.0912907e-38
-0.084133103 0.29396778 0.70111465 7.2730095e-39
-0.059776105 0.29614314 0.68997264 6.6261953e-39
-0.019032853 0.29723039 0.69931954 9.4810173e-39
0.0015205818 0.29228032 0.71805543 1.0955772e-38
0.11955943 0.31814042 0.71900004 8.4665038e-39
0.14083697 0.29684943 0.70013887 9.1118676e-39
0.16225861 0.29114529 0.6809358 8.9278393e-39
0.30926397 0.29280928 0.68768114 1.9343057e-38
0.33741581 0.30020589 0.70447779 1.7961206e-38
0.36086956 0.30198002 0.71900004 1.8423262e-38
-0.0047800001 0.32026002 0.71700001 8.5583407e-39
0.11914857 0.32115334 0.71900004 8.4657835e-39
0.15768464 0.19934887 0.75800002 1.2888642e-38
0.18366647 0.19613382 0.75504488 1.3809878e-38
0.21786232 0.19500723 0.75327325 1.5191369e-38
0.24805763 0.19797806 0.75592494 1.731151e-38
0.070193842 0.23684943 0.75698757 1.1875933e-38
0.086664036 0.2343027 0.75651294 1.206033e-38
0.1480111 0.22384375 0.74779415 1.1783735e-38
0.17871435 0.21852578 0.73693013 1.2612772e-38
0.2195255 0.21218953 0.73429948 1.4271212e-38
0.26001051 0.21410282 0.73764175 1.7496978e-38
0.29766765 0.22768998 0.74193096 1.9986623e-38
0.32625684 0.2351639 0.75403446 2.0631997e-38
-0.0023463855 0.25728559 0.72261357 1.3718757e-38
0.022406787 0.26707125 0.75021899 9.7554349e-39
0.059990313 0.26015645 0.75214583 9.848711e-39
0.092782803 0.26119736 0.75468504 9.019672e-39
0.13654646 0.25746399 0.73691773 1.0493717e-38
0.16331768 0.24281862 0.7227143 1.1691891e-38
0.31049916 0.24696361 0.72867095 2.1095134e-38
0.34046125 0.26045898 0.7417264 1.9897673e-38
0.36826241 0.26796341 0.75054693 1.6302764e-38
-0.0010290476 0.31564954 0.72050011 8.8352779e-39
0.020495959 0.29974583 0.73997021 8.1899127e-39
0.058093823 0.29868829 0.74983484 7.4527078e-39
0.10657995 0.30100706 0.74293685 8.0058802e-39
0.12373303 0.29165414 0.72667468 9.5721255e-39
0.35055023 0.28739101 0.7265144 1.8607653e-38
0.36527219 0.28866184 0.73438603 1.6671544e-38
-0.0020577782 0.32121146 0.72066677 8.5565428e-39
0.022017838 0.32506627 0.73763281 6.9920954e-39
0.050946474 0.3273772 0.75173211 5.8861094e-39
0.099800974 0.32639256 0.74302065 7.2693955e-39
0.15468767 0.15808964 0.79668003 1.4361974e-38
0.17961875 0.15740202 0.79570836 1.5467598e-38
0.20731355 0.15828925 0.79676694 1.6573584e-38
0.038760003 0.19988 0.79800004 1.3807724e-38
0.064456917 0.19484977 0.79113841 1.3808803e-38
0.10125944 0.18921249 0.7895909 1.3716966e-38
0.14192712 0.18220799 0.78208643 1.2888286e-38
0.17928891 0.17703123 0.77519536 1.4546005e-38
0.22007896 0.17598382 0.77704108 1.611225e-38
0.2586883 0.18573132 0.77864271 1.8139831e-38
0.29483584 0.19388777 0.78991681 1.8601887e-38
0.3233189 0.19915703 0.79771435 1.9802226e-38
-0.0055431374 0.23533471 0.79114723 1.1414599e-38
0.023300374 0.22516213 0.77995896 1.1781578e-38
0.058825083 0.21817297 0.77081525 1.2520223e-38
0.1006502 0.21813662 0.76964289 1.2428385e-38
0.13088809 0.21592247 0.77091056 9.9412653e-39
0.27403367 0.20161386 0.76272011 1.8970309e-38
0.30343258 0.20999515 0.77225703 1.9340171e-38
0.33917949 0.22234057 0.77791291 1.9986266e-38
0.37570107 0.2315978 0.78780818 1.9157584e-38
0.40052003 0.23636001 0.79800004 1.85133e-38
-0.0052229385 0.2488531 0.7749846 1.012242e-38
0.015086204 0.25000504 0.76433831 1.0030583e-38
0.042383071 0.24263705 0.76000011 1.0768504e-38
0.11028172 0.25887212 0.76444155 6.7169434e-39
0.12320127 0.24862422 0.76477319 7.1790006e-39
0.35283038 0.24495873 0.7624284 1.9343418e-38
0.37642509 0.24934894 0.76982576 1.7868646e-38
0.075445384 0.3144545 0.76235718 5.1492632e-39
0.097054943 0.29928151 0.76428914 4.5986075e-39
0.070809536 0.33556399 0.77147585 2.9426931e-39
0.085185878 0.33005691 0.76698411 4.4152981e-39
0.41756275 -0.045450695 0.83805567 3.4994781e-39
0.38903943 -0.0084890956 0.83245665 8.5651846e-39
0.40943217 -0.019154705 0.83191955 1.0589521e-38
0.35635638 0.032604847 0.83529067 1.1231654e-38
0.38123524 0.020267859 0.825104 9.5753751e-39
0.40505186 0.022459505 0.81752574 9.4864249e-39
0.35005036 0.062653944 0.82794642 1.0126744e-38
0.37883908 0.05981205 0.81372041 1.1417488e-38
0.40395546 0.060196891 0.81370544 1.0956147e-38
0.34673989 0.099788815 0.8242383 7.4570322e-39
0.38032848 0.10111138 0.81034917 8.1949658e-39
0.40265676 0.09576381 0.80944574 9.4828291e-39
0.10626599 0.15125771 0.82859731 1.3901713e-38
0.14066206 0.14437602 0.82084846 1.4546364e-38
0.17889845 0.14168707 0.81796438 1.6021127e-38
0.21869273 0.14952144 0.8184883 1.6297353e-38
0.25298256 0.15490347 0.82886702 1.5560504e-38
0.35086092 0.1312089 0.82656765 6.6269128e-39
0.37931183 0.13869844 0.81282163 5.9844301e-39
0.40278623 0.14292525 0.81035835 8.1085379e-39
0.034575328 0.19739188 0.812837 1.3716967e-38
0.062628485 0.18223089 0.81881469 1.4086104e-38
0.097376123 0.16998538 0.81205678 1.3900994e-38
0.12931605 0.16490495 0.80343854 1.3716967e-38
0.23484659 0.16155048 0.80258828 1.666506e-38
0.26394978 0.16765113 0.81243533 1.6850529e-38
0.30061546 0.17758901 0.81825477 1.6851969e-38
0.33608419 0.18909281 0.82683146 1.9249776e-38
0.37041038 0.18784289 0.83342117 1.8147024e-38
-0.0027633701 0.22847562 0.8027693 1.2245441e-38
0.017465249 0.21180345 0.80932063 1.2980844e-38
0.34839535 0.20643257 0.81104517 1.9617839e-38
0.38121682 0.21327874 0.81746507 1.87888e-38
0.40805098 0.2186507 0.82444769 1.7774651e-38
0.067610845 0.35627872 0.80184627 1.5630013e-39
0.35820881 -0.042400956 0.87725008 2.9466658e-39
0.38567179 -0.053736683 0.86352396 3.5001955e-39
0.41122702 -0.057908054 0.84982389 3.5927555e-39
0.35318026 -0.016410816 0.87204295 3.592394e-39
0.37590793 -0.022939727 0.85330474 5.5259728e-39
0.40649799 -0.034893479 0.84281242 7.5474328e-39
0.34600714 0.021860937 0.85939634 8.8388862e-39
0.36306304 0.0078807892 0.84410113 1.0402969e-38
0.31883636 0.077174023 0.87671435 1.1416044e-38
0.33145332 0.058797322 0.85691619 1.0035625e-38
0.14678305 0.11747652 0.86144334 1.4731118e-38
0.17325322 0.11727131 0.85909879 1.5008791e-38
0.31491646 0.10507018 0.87268388 1.1691536e-38
0.32706323 0.099500664 0.85314429 9.2062198e-39
0.076271296 0.15739478 0.85587889 1.3718402e-38
0.10003676 0.14134167 0.85564113 1.4178662e-38
0.13708727 0.12548201 0.85130584 1.4823668e-38
0.18222064 0.12451991 0.84968138 1.5745263e-38
0.21484487 0.13676324 0.84649289 1.5192804e-38
0.26679507 0.1500809 0.86243117 1.3349976e-38
0.30301917 0.14298929 0.8637774 1.1968839e-38
0.33572304 0.14235102 0.85124415 9.7568713e-39
0.36504662 0.15686066 0.8503077 9.0189461e-39
0.038857143 0.19104764 0.85000002 1.4459209e-38
0.061258044 0.17185718 0.84913582 1.3994272e-38
0.30562922 0.16328108 0.84525537 1.381095e-38
0.3437359 0.17227571 0.84953642 1.5931812e-38
0.37752885 0.1820471 0.85714525 1.8143788e-38
0.40913281 0.19575702 0.86942667 1.7222195e-38
0.39594769 0.2022669 0.84407693 1.9064663e-38
0.41903815 0.20520389 0.85512245 1.7314396e-38
0.35025719 -0.049499694 0.89628941 3.131776e-39
0.37492612 -0.060924627 0.88876027 3.4087202e-39
0.31773579 -0.0040330407 0.90300006 1.0857472e-38
0.33679166 -0.020066166 0.895266 5.2479482e-39
0.31429902 0.022445554 0.89823121 1.1414237e-38
0.3301543 0.015801752 0.88937747 1.0585914e-38
0.31412658 0.061504211 0.89815068 1.1508953e-38
0.3214879 0.055287551 0.88255316 1.1506792e-38
0.30482379 0.1008324 0.89758855 1.2061398e-38
0.10979048 0.12990476 0.88000005 1.3806292e-38
0.23421246 0.13983701 0.90702778 1.3535089e-38
0.25991604 0.13768648 0.89657754 1.3442893e-38
0.29040846 0.12857912 0.89319003 1.2522013e-38
0.39773718 0.18028232 0.88044447 1.9065023e-38
0.42373174 0.19130042 0.89920592 1.713072e-38
0.45038909 0.19687967 0.90888894 1.5747785e-38
0.43557093 0.20157064 0.88330775 1.6853418e-38
0.44578007 0.20161246 0.88852632 1.6761222e-38
0.32832927 -0.02956605 0.92105883 3.9604548e-39
0.31178033 0.027611613 0.92917478 5.9869538e-39
0.30957589 0.0580074 0.92824048 7.3688008e-39
0.27871463 0.1193635 0.93300009 1.4361993e-38
0.29481381 0.10459655 0.92729747 1.2061766e-38
0.22625022 0.13105644 0.92500961 1.3904603e-38
0.26072952 0.12695731 0.92418963 1.2981566e-38
0.28334397 0.12195104 0.92314297 1.233726e-38
0.43598208 0.18955825 0.92627794 1.6576116e-38
0.44936347 0.19280076 0.92307997 1.5564125e-38
0.11704655 0.25754163 0.70538849 1.2798249e-38
0.03853577 0.096127547 0.83586711 1.2711836e-38
