# .PCD v0.7 - Point Cloud Data file format
VERSION 0.7
FIELDS x y z rgb
SIZE 4 4 4 4
TYPE F F F F
COUNT 1 1 1 1
WIDTH 1018
HEIGHT 1
VIEWPOINT 0 0 0 1 0 0 0
POINTS 1018
DATA ascii
0.25457144 -0.60606855 2.3759999 4.4947783e-39
0.28285718 -0.6041829 2.3760002 4.4947783e-39
-0.16247316 -0.58276117 2.3760002 4.4947783e-39
-0.14315793 -0.57793373 2.3900681 4.4947783e-39
-0.11466414 -0.56420827 2.3920002 4.4947783e-39
-0.056041151 -0.59549421 2.3920004 4.4947783e-39
-0.034171432 -0.59913909 2.3920002 4.4947783e-39
0.034171432 -0.59913909 2.3920002 4.4947783e-39
0.066064768 -0.59913915 2.3920002 4.4947783e-39
0.10626733 -0.5971815 2.386353 4.4947783e-39
0.13580996 -0.59425491 2.3889992 4.4947783e-39
0.18370366 -0.59688073 2.3877897 4.4947783e-39
0.21749337 -0.59728432 2.3854542 4.4947783e-39
0.25993791 -0.59302306 2.3829737 4.4947783e-39
0.29855824 -0.58679628 2.3846149 4.4947783e-39
0.33933479 -0.58332789 2.3839996 4.4947783e-39
0.3795118 -0.58297735 2.3839996 4.4947783e-39
0.41933054 -0.58420295 2.388 4.4947783e-39
0.46241033 -0.58238757 2.3834281 4.4947783e-39
0.49898726 -0.57222986 2.3860383 4.4947783e-39
0.54332197 -0.57208711 2.3851423 4.4947783e-39
0.58029217 -0.57409692 2.3862634 4.4947783e-39
0.62019813 -0.57750601 2.385411 4.4947783e-39
0.65468234 -0.57324225 2.3823993 4.4947783e-39
0.69532204 -0.57065457 2.3781815 4.4947783e-39
0.74512213 -0.5677368 2.3767271 4.4947783e-39
0.77797872 -0.56834286 2.3785944 4.4947783e-39
0.82068723 -0.56571329 2.3782859 4.4947783e-39
-0.16066287 -0.55666292 2.3760002 4.4947783e-39
-0.1352172 -0.54414964 2.3842955 4.4947783e-39
-0.10800506 -0.53733855 2.391999 4.4947783e-39
-0.069937535 -0.53216308 2.392 4.4947783e-39
0.51257151 -0.55699432 2.3920002 4.4947783e-39
0.53079629 -0.55585527 2.3920002 4.4947783e-39
0.66976929 -0.55096221 2.3895996 4.4947783e-39
0.69822425 -0.55342436 2.3876748 4.4947783e-39
0.73698044 -0.55329359 2.3875549 4.4947783e-39
0.78755879 -0.55395013 2.3885214 4.4947783e-39
0.81916988 -0.55113661 2.3850901 4.4947783e-39
0.86202604 -0.54437679 2.3831995 4.4947783e-39
0.90038252 -0.53879964 2.3836915 4.4947783e-39
0.93244189 -0.53315938 2.378526 4.4947783e-39
-0.12504974 -0.50902104 2.3777778 4.4947783e-39
-0.10172991 -0.50040501 2.3865752 4.4947783e-39
-0.06388776 -0.49493611 2.3910933 4.4947783e-39
0.91001827 -0.49651468 2.3804796 4.4947783e-39
0.92580277 -0.50281727 2.3788235 4.4947783e-39
-0.084857136 -0.46841145 2.3760002 4.4947783e-39
-0.060974602 -0.45952639 2.3820851 4.4947783e-39
-0.028733395 -0.45451671 2.3919992 4.4947783e-39
0.91325873 -0.46054167 2.3810906 4.4947783e-39
0.92575854 -0.46413261 2.3783996 4.4947783e-39
-0.054034766 -0.42607483 2.3764997 4.4947783e-39
-0.023703102 -0.41867822 2.3837419 4.4947783e-39
0.90027273 -0.41982245 2.3850429 4.4947783e-39
-0.015261813 -0.38203743 2.3820372 4.4947783e-39
0.011384762 -0.37273151 2.3899994 4.4947783e-39
0.87125039 -0.37344179 2.380923 4.4947783e-39
0.89378774 -0.38248312 2.3786662 4.4947783e-39
-0.011960818 -0.35850129 2.3760004 4.4947783e-39
0.018611027 -0.33939189 2.3844845 4.4947783e-39
0.046827517 -0.32678017 2.3920002 4.4947783e-39
0.8707599 -0.33905402 2.3842158 4.4947783e-39
0.88994944 -0.34664819 2.3759999 4.4947783e-39
0.025707869 -0.31362522 2.3835788 4.4947783e-39
0.060634404 -0.29772022 2.3902757 4.4947783e-39
0.085200764 -0.28749564 2.3920002 4.4947783e-39
0.86364484 -0.3002246 2.3821752 4.4947783e-39
0.88025153 -0.30774862 2.3760004 4.4947783e-39
0.069488041 -0.26065242 2.3893943 4.4947783e-39
0.091232307 -0.25829265 2.3919997 4.4947783e-39
0.8509025 -0.25906405 2.377939 4.4947783e-39
0.076072387 -0.23726097 2.3840003 4.4947783e-39
0.099710487 -0.23639625 2.3920002 4.4947783e-39
0.12301715 -0.23236573 2.3920002 4.4947783e-39
0.17605029 -0.21497145 2.3760002 4.4947783e-39
0.83649307 -0.21236034 2.3825881 4.4947783e-39
0.84361494 -0.22678515 2.3876367 4.4947783e-39
0.83341378 -0.19034159 2.3888001 4.4947783e-39
0.8425194 -0.19093335 2.386667 4.4947783e-39
0.23533715 0.020365715 2.3760002 4.4947783e-39
0.25801384 0.024313683 2.3759995 4.4947783e-39
0.28460321 0.031122541 2.390667 4.4947783e-39
0.27018514 0.059545476 2.3759997 4.4947783e-39
0.2982522 0.061306506 2.3847015 4.4947783e-39
0.3223505 0.076316193 2.3920002 4.4947783e-39
0.27216002 0.087839991 2.3759999 4.4947783e-39
0.30261001 0.098645709 2.3809996 4.4947783e-39
0.32348955 0.088845722 2.3920002 4.4947783e-39
0.31349543 0.12987913 2.3774548 4.4947783e-39
0.33891487 0.14217708 2.3875735 4.4947783e-39
0.3680751 0.14482176 2.3920002 4.4947783e-39
0.34654042 0.16551185 2.3760002 4.4947783e-39
0.37718603 0.17628877 2.3851423 4.4947783e-39
0.70924699 0.17237589 2.3920002 4.4947783e-39
0.38778472 0.21455139 2.3822608 4.4947783e-39
0.40701976 0.22705014 2.392 4.4947783e-39
0.70696896 0.22173463 2.3920002 4.4947783e-39
0.39600003 0.24212573 2.3760002 4.4947783e-39
0.42257568 0.25890204 2.3828566 4.4947783e-39
0.44650668 0.27564955 2.3920002 4.4947783e-39
0.48816329 0.26914072 2.3920002 4.4947783e-39
0.67545533 0.25856382 2.3920002 4.4947783e-39
0.68297297 0.25605795 2.3920002 4.4947783e-39
0.43406987 0.28747687 2.3800001 4.4947783e-39
0.45420566 0.29762334 2.3889992 4.4947783e-39
0.4930279 0.29507333 2.391999 4.4947783e-39
0.54598355 0.32678017 2.3920002 4.4947783e-39
-0.13253911 -0.61681008 2.4089992 4.4947783e-39
-0.099494226 -0.61645907 2.4157445 4.4947783e-39
-0.073417142 -0.60798573 2.4090004 4.4947783e-39
-0.012928132 -0.60358268 2.4168465 4.4947783e-39
0.018222922 -0.60487837 2.411267 4.4947783e-39
0.045885719 -0.60339713 2.4090002 4.4947783e-39
0.16289429 -0.60339713 2.4090002 4.4947783e-39
-0.12672557 -0.58936155 2.4090002 4.4947783e-39
-0.098116234 -0.58135241 2.4137866 4.4947783e-39
-0.064102575 -0.58095801 2.4166317 4.4947783e-39
-0.02620375 -0.59680814 2.4206877 4.4947783e-39
0.019492956 -0.5983184 2.4169335 4.4947783e-39
0.061009236 -0.59640217 2.4207687 4.4947783e-39
0.10034416 -0.59134912 2.4182281 4.4947783e-39
0.1426774 -0.5829376 2.4198174 4.4947783e-39
0.18118456 -0.58149254 2.419148 4.4947783e-39
0.2201874 -0.58522332 2.4202268 4.4947783e-39
0.25995237 -0.58037049 2.4209354 4.4947783e-39
0.30049607 -0.57595557 2.4184439 4.4947783e-39
0.3399719 -0.57310325 2.419431 4.4947783e-39
0.38033211 -0.57163924 2.4203336 4.4947783e-39
0.42106199 -0.5717352 2.4149806 4.4947783e-39
0.45883736 -0.57106608 2.4170351 4.4947783e-39
0.49392703 -0.56275553 2.4090002 4.4947783e-39
0.54833436 -0.563411 2.4090002 4.4947783e-39
0.57968962 -0.56324714 2.4090004 4.4947783e-39
0.62351626 -0.56421781 2.4090004 4.4947783e-39
0.65243828 -0.56455845 2.4121878 4.4947783e-39
-0.088028103 -0.54121006 2.4089992 4.4947783e-39
-0.056581855 -0.54042536 2.4146664 4.4947783e-39
-0.035427302 -0.5275588 2.4260004 4.4947783e-39
0.30267239 -0.55682474 2.4260001 4.4947783e-39
0.35196257 -0.55528444 2.4260001 4.4947783e-39
0.38238385 -0.55682474 2.4260001 4.4947783e-39
0.41735601 -0.55556446 2.4260006 4.4947783e-39
0.45667386 -0.55365872 2.4243004 4.4947783e-39
0.49706447 -0.55229795 2.4163663 4.4947783e-39
0.54073411 -0.55255765 2.4175 4.4947783e-39
0.57994723 -0.55525583 2.4199283 4.4947783e-39
0.61912036 -0.5502277 2.4152627 4.4947783e-39
0.65797204 -0.54947245 2.4205358 4.4947783e-39
0.70097768 -0.54197007 2.4183226 4.4947783e-39
0.73888063 -0.54237276 2.418715 4.4947783e-39
0.77788901 -0.54903418 2.4167712 4.4947783e-39
0.82143164 -0.53791821 2.4172428 4.4947783e-39
0.86087137 -0.53667003 2.4179718 4.4947783e-39
0.89902651 -0.52761054 2.4159055 4.4947783e-39
0.9200086 -0.52539146 2.4090002 4.4947783e-39
-0.083359055 -0.51315534 2.4090004 4.4947783e-39
-0.052003816 -0.50907654 2.4090002 4.4947783e-39
-0.022746198 -0.49912894 2.4187534 4.4947783e-39
0.87058747 -0.50876689 2.4259999 4.4947783e-39
0.89841676 -0.50122046 2.4231312 4.4947783e-39
-0.014348189 -0.46499401 2.4140992 4.4947783e-39
0.0023104763 -0.44823241 2.4260001 4.4947783e-39
0.87567055 -0.45516384 2.4260001 4.4947783e-39
0.89754122 -0.4607338 2.4209855 4.4947783e-39
0.92130059 -0.47283432 2.4124002 4.4947783e-39
-0.0065373625 -0.42890659 2.4142311 4.4947783e-39
0.019222397 -0.4180333 2.4200494 4.4947783e-39
0.87091225 -0.41674018 2.4245217 4.4947783e-39
0.88814467 -0.42045438 2.4173019 4.4947783e-39
0.026479302 -0.38380474 2.4107335 4.4947783e-39
0.054033261 -0.37478188 2.4219737 4.4947783e-39
0.86962479 -0.38117227 2.4204752 4.4947783e-39
0.88241261 -0.39397106 2.4192002 4.4947783e-39
0.036135003 -0.349305 2.4090002 4.4947783e-39
0.059944019 -0.34141988 2.4160831 4.4947783e-39
0.099350482 -0.32423687 2.4260006 4.4947783e-39
0.12245524 -0.32346666 2.4260001 4.4947783e-39
0.86315745 -0.34073702 2.4132497 4.4947783e-39
0.074564286 -0.31202286 2.4090002 4.4947783e-39
0.10079302 -0.29980341 2.4191406 4.4947783e-39
0.12751627 -0.29585102 2.4259999 4.4947783e-39
0.85332799 -0.3019799 2.4189167 4.4947783e-39
0.10554051 -0.26142278 2.4101324 4.4947783e-39
0.13877535 -0.26035249 2.4238744 4.4947783e-39
0.16404381 -0.25184193 2.4260001 4.4947783e-39
0.83870292 -0.27032572 2.4260001 4.4947783e-39
0.84650284 -0.26151434 2.416846 4.4947783e-39
0.10783144 -0.23478192 2.4090002 4.4947783e-39
0.14186345 -0.23381494 2.4233851 4.4947783e-39
0.18169801 -0.22779743 2.4209003 4.4947783e-39
0.8317337 -0.21723069 2.4191997 4.4947783e-39
0.84238034 -0.22957268 2.4138575 4.4947783e-39
0.79711431 -0.17559619 2.4260001 4.4947783e-39
0.81919557 -0.1805144 2.4185619 4.4947783e-39
0.79711431 -0.14093906 2.4260004 4.4947783e-39
0.81115341 -0.15058719 2.4251499 4.4947783e-39
0.76780432 -0.058424208 2.4233158 4.4947783e-39
0.31468686 -0.0069314293 2.4260004 4.4947783e-39
0.32577717 -0.0056111575 2.4260004 4.4947783e-39
0.73935241 -0.0069314288 2.4260001 4.4947783e-39
0.30638602 0.023263037 2.4150207 4.4947783e-39
0.33281162 0.022255365 2.4223049 4.4947783e-39
0.73657984 0.013400763 2.4260004 4.4947783e-39
0.31176797 0.046650488 2.4090002 4.4947783e-39
0.34126046 0.059398524 2.4172246 4.4947783e-39
0.37049159 0.060344197 2.4260004 4.4947783e-39
0.71624768 0.076245718 2.4260001 4.4947783e-39
0.34131423 0.10009708 2.4092638 4.4947783e-39
0.37592623 0.1021475 2.4215262 4.4947783e-39
0.7119444 0.088709667 2.4168465 4.4947783e-39
0.34597823 0.12893887 2.4090002 4.4947783e-39
0.38221648 0.13800892 2.4114661 4.4947783e-39
0.41858804 0.14541472 2.4222229 4.4947783e-39
0.44130099 0.15018095 2.4260001 4.4947783e-39
0.71104914 0.15769002 2.4260004 4.4947783e-39
0.39479366 0.18124861 2.4090004 4.4947783e-39
0.41919738 0.18171354 2.4179707 4.4947783e-39
0.45092803 0.18772623 2.4259996 4.4947783e-39
0.48288953 0.19639048 2.4260001 4.4947783e-39
0.70443678 0.18180309 2.4193661 4.4947783e-39
0.39461714 0.20419145 2.4090002 4.4947783e-39
0.4247604 0.21755078 2.4093192 4.4947783e-39
0.46018282 0.21910901 2.4197733 4.4947783e-39
0.49182698 0.22401427 2.418951 4.4947783e-39
0.67696959 0.23335811 2.4260001 4.4947783e-39
0.69996303 0.22030996 2.4170132 4.4947783e-39
0.43150222 0.24584159 2.4090004 4.4947783e-39
0.46182659 0.25865766 2.4096689 4.4947783e-39
0.50084269 0.25791362 2.4133325 4.4947783e-39
0.53200519 0.27472165 2.4211433 4.4947783e-39
0.67618006 0.25726253 2.4168465 4.4947783e-39
0.69597268 0.251477 2.4101722 4.4947783e-39
0.4690381 0.29711002 2.4089997 4.4947783e-39
0.50301903 0.30487987 2.4099438 4.4947783e-39
0.53531504 0.30191416 2.4173508 4.4947783e-39
0.50496083 0.32394442 2.4124 4.4947783e-39
0.54062951 0.32444662 2.4104171 4.4947783e-39
0.56209999 0.32349432 2.4090002 4.4947783e-39
0.034899998 -0.60260665 2.4430001 4.4947783e-39
-0.048416838 -0.5762378 2.4430006 4.4947783e-39
-0.020362994 -0.57971632 2.4487402 4.4947783e-39
0.020923223 -0.58182824 2.4548545 4.4947783e-39
0.060791366 -0.57737195 2.4546185 4.4947783e-39
0.098745361 -0.57669473 2.4565897 4.4947783e-39
0.13973705 -0.56860834 2.4538951 4.4947783e-39
0.17432602 -0.56523138 2.4513202 4.4947783e-39
0.22084895 -0.56923842 2.4455004 4.4947783e-39
0.25878254 -0.56740868 2.4572356 4.4947783e-39
0.29525405 -0.56607801 2.4430006 4.4947783e-39
0.33999479 -0.56398892 2.4464004 4.4947783e-39
0.38296935 -0.56072664 2.4430001 4.4947783e-39
0.47231334 -0.56072664 2.4430003 4.4947783e-39
0.48162001 -0.56072664 2.4430001 4.4947783e-39
-0.045137335 -0.55048937 2.4430001 4.4947783e-39
-0.018785629 -0.54259229 2.447113 4.4947783e-39
0.02051783 -0.5421589 2.4596121 4.4947783e-39
0.051858436 -0.54206538 2.4747264 4.4947783e-39
0.11521143 -0.55963141 2.4690001 4.4947783e-39
0.1388851 -0.55714983 2.4761057 4.4947783e-39
0.18372889 -0.55750477 2.47 4.4947783e-39
0.2202208 -0.55784637 2.4715202 4.4947783e-39
0.26205635 -0.5588237 2.4728575 4.4947783e-39
0.30507895 -0.54837751 2.4678073 4.4947783e-39
0.3393783 -0.54556233 2.4711897 4.4947783e-39
0.38071069 -0.54285657 2.463712 4.4947783e-39
0.42015609 -0.54155397 2.4624732 4.4947783e-39
0.45939982 -0.54245532 2.4633536 4.4947783e-39
0.50016451 -0.53571266 2.4556956 4.4947783e-39
0.54046255 -0.53479099 2.4600134 4.4947783e-39
0.58093637 -0.53630012 2.4595599 4.4947783e-39
0.61964518 -0.53284055 2.4569106 4.4947783e-39
0.66243875 -0.53476936 2.4583783 4.4947783e-39
0.69997197 -0.52831316 2.4492276 4.4947783e-39
0.73962414 -0.52850628 2.4459147 4.4947783e-39
0.78170842 -0.53191453 2.4493151 4.4947783e-39
0.81800485 -0.52870208 2.4485409 4.4947783e-39
0.85343331 -0.5295822 2.4470801 4.4947783e-39
-0.0083760014 -0.50954002 2.4430003 4.4947783e-39
0.020856936 -0.49908468 2.4501009 4.4947783e-39
0.058561131 -0.49711892 2.4694901 4.4947783e-39
0.086376004 -0.48757601 2.4780004 4.4947783e-39
0.50315201 -0.514952 2.4780004 4.4947783e-39
0.5363943 -0.51346862 2.4780004 4.4947783e-39
0.58592367 -0.51469457 2.4780006 4.4947783e-39
0.62466973 -0.51370859 2.4761055 4.4947783e-39
0.66032809 -0.51306409 2.4780004 4.4947783e-39
0.69973314 -0.50888276 2.4638534 4.4947783e-39
0.74155444 -0.51310813 2.4652898 4.4947783e-39
0.78027523 -0.51256752 2.4695292 4.4947783e-39
0.81922096 -0.51496965 2.4653749 4.4947783e-39
0.86482537 -0.50554276 2.4595222 4.4947783e-39
0.88104337 -0.49211669 2.4605002 4.4947783e-39
-0.0023266666 -0.47231334 2.4430001 4.4947783e-39
0.021700971 -0.46095717 2.4467185 4.4947783e-39
0.06147977 -0.45957258 2.4576716 4.4947783e-39
0.091715656 -0.45742226 2.4727054 4.4947783e-39
0.12036 -0.44604003 2.4780002 4.4947783e-39
0.86887169 -0.45692647 2.4589584 4.4947783e-39
0.88313633 -0.46433622 2.4430001 4.4947783e-39
0.031092731 -0.43297154 2.4430003 4.4947783e-39
0.060050976 -0.42022789 2.4457901 4.4947783e-39
0.097708404 -0.41812447 2.4601722 4.4947783e-39
0.12803 -0.41418004 2.4780006 4.4947783e-39
0.8621121 -0.42130625 2.4599512 4.4947783e-39
0.069633797 -0.38489711 2.4430006 4.4947783e-39
0.099685781 -0.37892997 2.4488151 4.4947783e-39
0.13894735 -0.3785046 2.4677584 4.4947783e-39
0.83426005 -0.36226004 2.4780002 4.4947783e-39
0.85699534 -0.37845168 2.4624903 4.4947783e-39
0.076779999 -0.3443467 2.4430001 4.4947783e-39
0.10014167 -0.34265408 2.4452665 4.4947783e-39
0.14088017 -0.3399629 2.4507487 4.4947783e-39
0.17390072 -0.32990551 2.4757504 4.4947783e-39
0.83296537 -0.33728886 2.4660664 4.4947783e-39
0.85114938 -0.3411853 2.4505925 4.4947783e-39
0.10702668 -0.31332448 2.4430001 4.4947783e-39
0.14478733 -0.30400851 2.4459753 4.4947783e-39
0.17751051 -0.29950249 2.4640319 4.4947783e-39
0.82619631 -0.29828346 2.4621179 4.4947783e-39
0.84786755 -0.30286515 2.4437397 4.4947783e-39
0.15588666 -0.26524001 2.4430001 4.4947783e-39
0.18007812 -0.2602618 2.4492221 4.4947783e-39
0.21269014 -0.25573272 2.4750965 4.4947783e-39
0.79418534 -0.25072387 2.4679997 4.4947783e-39
0.82084781 -0.26068109 2.4557042 4.4947783e-39
0.84561414 -0.26084518 2.4430001 4.4947783e-39
0.15588668 -0.23499334 2.4430003 4.4947783e-39
0.17876558 -0.23324835 2.4430006 4.4947783e-39
0.22211258 -0.22177346 2.4630349 4.4947783e-39
0.2483906 -0.21579085 2.4756527 4.4947783e-39
0.78943199 -0.21860062 2.4617851 4.4947783e-39
0.81884599 -0.22219145 2.4528556 4.4947783e-39
0.84457999 -0.23964667 2.4430001 4.4947783e-39
0.23252003 -0.19805525 2.4660001 4.4947783e-39
0.26266435 -0.18684976 2.4774191 4.4947783e-39
0.28438002 -0.18526001 2.4780002 4.4947783e-39
0.78375387 -0.17796168 2.4587624 4.4947783e-39
0.80828404 -0.18070447 2.4430003 4.4947783e-39
0.31411603 -0.13381201 2.4780004 4.4947783e-39
0.32509005 -0.12803002 2.4780004 4.4947783e-39
0.75756007 -0.13452002 2.4780004 4.4947783e-39
0.77892667 -0.14016649 2.4571006 4.4947783e-39
0.82102257 -0.14745249 2.4430003 4.4947783e-39
0.31645456 -0.10491274 2.4780006 4.4947783e-39
0.32996303 -0.095711112 2.4780002 4.4947783e-39
0.74739057 -0.09135887 2.4719996 4.4947783e-39
0.7782169 -0.10220812 2.4561503 4.4947783e-39
0.80456132 -0.11493733 2.4430001 4.4947783e-39
0.31402531 -0.058445536 2.4528575 4.4947783e-39
0.33806604 -0.059631646 2.4674065 4.4947783e-39
0.36748582 -0.046188574 2.4780004 4.4947783e-39
0.74375671 -0.059833203 2.4620304 4.4947783e-39
0.76654446 -0.066736549 2.4478574 4.4947783e-39
0.31268322 -0.024301412 2.4450405 4.4947783e-39
0.34070775 -0.021429297 2.4524136 4.4947783e-39
0.37918687 -0.018140705 2.4759331 4.4947783e-39
0.4096286 -0.0043828576 2.4780004 4.4947783e-39
0.73836017 -0.021855308 2.4581106 4.4947783e-39
0.76189983 -0.034229681 2.4514999 4.4947783e-39
0.30944666 0.0023266666 2.4430001 4.4947783e-39
0.35174435 0.016694123 2.4444788 4.4947783e-39
0.38036335 0.019416889 2.4651818 4.4947783e-39
0.41536003 0.020213919 2.477999 4.4947783e-39
0.71420473 0.026971746 2.4750004 4.4947783e-39
0.72997695 0.020369878 2.4556324 4.4947783e-39
0.38919061 0.05651252 2.4557779 4.4947783e-39
0.41895786 0.058820706 2.4712491 4.4947783e-39
0.44621485 0.060223699 2.4780002 4.4947783e-39
0.50268 0.073160008 2.4780002 4.4947783e-39
0.70858556 0.062110312 2.46645 4.4947783e-39
0.72959626 0.054824397 2.4620767 4.4947783e-39
0.39146164 0.092484996 2.4430003 4.4947783e-39
0.42002693 0.10016023 2.4547153 4.4947783e-39
0.45700839 0.1010246 2.4759221 4.4947783e-39
0.50566936 0.10415466 2.4779999 4.4947783e-39
0.52313346 0.11013334 2.4780004 4.4947783e-39
0.70346224 0.10246275 2.4616899 4.4947783e-39
0.72794056 0.11340629 2.4498003 4.4947783e-39
0.4264425 0.12812705 2.4520669 4.4947783e-39
0.46249533 0.13737442 2.4677184 4.4947783e-39
0.50165021 0.14090256 2.4743984 4.4947783e-39
0.5337534 0.141305 2.4779987 4.4947783e-39
0.6999678 0.14014368 2.4566667 4.4947783e-39
0.72980434 0.13692293 2.4538798 4.4947783e-39
0.46399081 0.1749561 2.4463418 4.4947783e-39
0.49965227 0.17933866 2.4576197 4.4947783e-39
0.54009324 0.18049158 2.4689994 4.4947783e-39
0.56575644 0.18257821 2.4780006 4.4947783e-39
0.67338675 0.18840669 2.4780006 4.4947783e-39
0.68872797 0.17813952 2.4538772 4.4947783e-39
0.50835866 0.21456079 2.4508932 4.4947783e-39
0.54206395 0.22114904 2.4594672 4.4947783e-39
0.57766205 0.22259712 2.4726374 4.4947783e-39
0.60737824 0.23106545 2.4780006 4.4947783e-39
0.67002511 0.2236879 2.4693522 4.4947783e-39
0.68546528 0.21467416 2.4502923 4.4947783e-39
0.51884669 0.25128001 2.4430001 4.4947783e-39
0.54328614 0.25788397 2.4514999 4.4947783e-39
0.57973242 0.26007947 2.4646766 4.4947783e-39
0.61597335 0.26391438 2.4769187 4.4947783e-39
0.66875434 0.25974405 2.4709077 4.4947783e-39
0.68298733 0.256585 2.4602499 4.4947783e-39
0.55540866 0.29149812 2.4430001 4.4947783e-39
0.58010453 0.30061826 2.4540002 4.4947783e-39
0.62001711 0.29884604 2.4664285 4.4947783e-39
0.66057426 0.29807365 2.4738903 4.4947783e-39
0.68298 0.29573113 2.4663339 4.4947783e-39
0.54909337 0.32340667 2.4430001 4.4947783e-39
0.581002 0.32606572 2.4430003 4.4947783e-39
0.62391788 0.32656533 2.4613843 4.4947783e-39
0.64811844 0.32737771 2.4632726 4.4947783e-39
0.078445718 -0.56338286 2.4960001 4.4947783e-39
0.09546756 -0.56452519 2.5023525 4.4947783e-39
0.26101026 -0.56433374 2.4960001 4.4947783e-39
0.070850641 -0.54181755 2.5024998 4.4947783e-39
0.10018169 -0.54184484 2.5126419 4.4947783e-39
0.13893808 -0.54117996 2.5068014 4.4947783e-39
0.18061294 -0.54314309 2.505621 4.4947783e-39
0.21915199 -0.53908253 2.503201 4.4947783e-39
0.25967762 -0.54380643 2.5056736 4.4947783e-39
0.29462755 -0.53691995 2.5018849 4.4947783e-39
0.34122977 -0.52581793 2.4982495 4.4947783e-39
0.37603703 -0.52604496 2.4983473 4.4947783e-39
0.42075431 -0.52349967 2.4959996 4.4947783e-39
0.4623026 -0.5253486 2.4959993 4.4947783e-39
0.48663509 -0.52399027 2.4960001 4.4947783e-39
0.55862856 -0.5205943 2.4960001 4.4947783e-39
0.56972194 -0.5205943 2.4960001 4.4947783e-39
0.075049803 -0.51176494 2.4960001 4.4947783e-39
0.10206734 -0.50211424 2.5078998 4.4947783e-39
0.13791087 -0.50032586 2.5140014 4.4947783e-39
0.16607638 -0.49256986 2.5140002 4.4947783e-39
0.21309145 -0.51956004 2.5140002 4.4947783e-39
0.31365144 -0.51956004 2.5140004 4.4947783e-39
0.33827841 -0.5195601 2.5140004 4.4947783e-39
0.3843402 -0.51435649 2.5083158 4.4947783e-39
0.41931796 -0.51340008 2.5041816 4.4947783e-39
0.45962289 -0.51421553 2.5079999 4.4947783e-39
0.50149041 -0.50830877 2.5078285 4.4947783e-39
0.53892577 -0.50890493 2.5026662 4.4947783e-39
0.57623589 -0.50979364 2.5049996 4.4947783e-39
0.62066758 -0.50553054 2.5067999 4.4947783e-39
0.65989757 -0.50193733 2.5036364 4.4947783e-39
0.70043749 -0.49551201 2.5078425 4.4947783e-39
0.74147254 -0.49650106 2.5074232 4.4947783e-39
0.77975786 -0.49577388 2.5044713 4.4947783e-39
0.82010144 -0.49661523 2.5057395 4.4947783e-39
0.86020017 -0.49772319 2.5084074 4.4947783e-39
0.88191998 -0.49919999 2.4960001 4.4947783e-39
0.10904995 -0.46328655 2.4993329 4.4947783e-39
0.13834396 -0.46082276 2.5012271 4.4947783e-39
0.16735235 -0.4574737 2.5140002 4.4947783e-39
0.69673717 -0.4764629 2.5140002 4.4947783e-39
0.82779276 -0.46713778 2.5140002 4.4947783e-39
0.85327452 -0.46291324 2.5038552 4.4947783e-39
0.10887314 -0.43691888 2.4960001 4.4947783e-39
0.14553632 -0.42272443 2.4967351 4.4947783e-39
0.18055223 -0.42016223 2.5110502 4.4947783e-39
0.20830292 -0.41250128 2.5140004 4.4947783e-39
0.83188134 -0.41766992 2.5140002 4.4947783e-39
0.84855247 -0.42069304 2.5061741 4.4947783e-39
0.1584762 -0.38826668 2.4960003 4.4947783e-39
0.18149091 -0.38116023 2.5034781 4.4947783e-39
0.21090236 -0.37836555 2.5140002 4.4947783e-39
0.82468879 -0.37748232 2.5091541 4.4947783e-39
0.84744662 -0.39108524 2.5045712 4.4947783e-39
0.18356411 -0.34792072 2.4964619 4.4947783e-39
0.21911949 -0.33864275 2.5067425 4.4947783e-39
0.24714348 -0.32695305 2.5140002 4.4947783e-39
0.82365847 -0.34009606 2.5074232 4.4947783e-39
0.19730285 -0.30665144 2.4960001 4.4947783e-39
0.21872365 -0.29955566 2.4962821 4.4947783e-39
0.2554608 -0.29852656 2.5124493 4.4947783e-39
0.78783476 -0.29157761 2.5126157 4.4947783e-39
0.80723292 -0.30133203 2.5037143 4.4947783e-39
0.22723724 -0.26668021 2.4959993 4.4947783e-39
0.25701368 -0.25760475 2.5035946 4.4947783e-39
0.28950906 -0.25080144 2.5140002 4.4947783e-39
0.78277147 -0.25900126 2.5075939 4.4947783e-39
0.80228573 -0.27456003 2.4960001 4.4947783e-39
0.26727396 -0.21931681 2.497 4.4947783e-39
0.29894149 -0.21900192 2.5104601 4.4947783e-39
0.33041808 -0.21476147 2.5125003 4.4947783e-39
0.78026587 -0.21904866 2.5108502 4.4947783e-39
0.26624003 -0.1862095 2.4960003 4.4947783e-39
0.30050933 -0.17921896 2.4999385 4.4947783e-39
0.33288726 -0.17740957 2.5054502 4.4947783e-39
0.36153716 -0.16041715 2.5140002 4.4947783e-39
0.75074661 -0.17477925 2.5122437 4.4947783e-39
0.7692889 -0.18707268 2.5039194 4.4947783e-39
0.30363172 -0.14532016 2.5041289 4.4947783e-39
0.34219369 -0.14061096 2.4966111 4.4947783e-39
0.37007713 -0.13592522 2.5109999 4.4947783e-39
0.74838334 -0.13802446 2.5039206 4.4947783e-39
0.76306283 -0.15689144 2.4960001 4.4947783e-39
0.31219807 -0.098255239 2.4960003 4.4947783e-39
0.34781355 -0.10184184 2.4960003 4.4947783e-39
0.38035306 -0.098301344 2.5111079 4.4947783e-39
0.40942287 -0.089546286 2.5140002 4.4947783e-39
0.71589148 -0.086194292 2.5140002 4.4947783e-39
0.73677433 -0.10258227 2.5048432 4.4947783e-39
0.31140572 -0.076068573 2.4960001 4.4947783e-39
0.35657144 -0.07072001 2.4960001 4.4947783e-39
0.38333488 -0.062643632 2.4994149 4.4947783e-39
0.41156664 -0.058188584 2.51 4.4947783e-39
0.71055025 -0.055989452 2.5140004 4.4947783e-39
0.72610956 -0.060520552 2.5025854 4.4947783e-39
0.39603201 -0.029952003 2.4960001 4.4947783e-39
0.42042425 -0.019346181 2.5018611 4.4947783e-39
0.45131359 -0.0059707146 2.5072501 4.4947783e-39
0.70745516 -0.018501461 2.5126829 4.4947783e-39
0.72422928 -0.018775087 2.5024796 4.4947783e-39
0.43528131 0.015583492 2.4959996 4.4947783e-39
0.45508444 0.0211982 2.5016844 4.4947783e-39
0.50451028 0.035914287 2.5140004 4.4947783e-39
0.70392126 0.017728364 2.5034635 4.4947783e-39
0.72231191 0.008489795 2.4960001 4.4947783e-39
0.46812731 0.058798168 2.4968185 4.4947783e-39
0.50037134 0.058952898 2.505002 4.4947783e-39
0.52802694 0.068992279 2.5087059 4.4947783e-39
0.6997242 0.056134775 2.503448 4.4947783e-39
0.47447774 0.090331428 2.4960001 4.4947783e-39
0.49444476 0.095945731 2.4980004 4.4947783e-39
0.5369767 0.1005594 2.5028112 4.4947783e-39
0.56265718 0.11732001 2.5140002 4.4947783e-39
0.69185483 0.099240825 2.5062857 4.4947783e-39
0.49365336 0.1302146 2.4960001 4.4947783e-39
0.55198318 0.13501745 2.4969997 4.4947783e-39
0.57214022 0.14271159 2.5095 4.4947783e-39
0.67399144 0.15084001 2.5140002 4.4947783e-39
0.6852001 0.14171427 2.5038259 4.4947783e-39
0.58428311 0.18068631 2.5024617 4.4947783e-39
0.61383057 0.18666092 2.5078425 4.4947783e-39
0.66764879 0.17884135 2.507143 4.4947783e-39
0.68227291 0.16668715 2.5005002 4.4947783e-39
0.59081149 0.20790859 2.4960003 4.4947783e-39
0.62083477 0.21697494 2.5004158 4.4947783e-39
0.65626383 0.21730821 2.506228 4.4947783e-39
0.63098657 0.25121295 2.4992723 4.4947783e-39
0.65258723 0.25781313 2.4970586 4.4947783e-39
0.10480442 -0.54405546 2.5319998 4.4947783e-39
0.15384915 -0.52713835 2.5320001 4.4947783e-39
0.17876655 -0.52756923 2.5350406 4.4947783e-39
0.22528069 -0.52341264 2.5491004 4.4947783e-39
0.25880674 -0.52487481 2.539773 4.4947783e-39
0.29298857 -0.52448577 2.5319998 4.4947783e-39
0.35448 -0.52328002 2.5320001 4.4947783e-39
0.15288459 -0.51652801 2.5320001 4.4947783e-39
0.17968056 -0.50351375 2.5368507 4.4947783e-39
0.2160911 -0.51669312 2.5492733 4.4947783e-39
0.25857106 -0.51768225 2.5472 4.4947783e-39
0.30316216 -0.51622558 2.5424502 4.4947783e-39
0.34280249 -0.50841874 2.5441604 4.4947783e-39
0.37787223 -0.50347155 2.5440581 4.4947783e-39
0.42199332 -0.50213581 2.5439787 4.4947783e-39
0.46077061 -0.5009827 2.5428567 4.4947783e-39
0.49971816 -0.49456161 2.5410676 4.4947783e-39
0.5406667 -0.49366817 2.5410676 4.4947783e-39
0.57876903 -0.49378338 2.5394506 4.4947783e-39
0.61696178 -0.49081364 2.5375605 4.4947783e-39
0.66092968 -0.48919785 2.5370667 4.4947783e-39
0.69196385 -0.49001306 2.5380459 4.4947783e-39
0.73565674 -0.48599932 2.5367498 4.4947783e-39
0.78585786 -0.48630476 2.5319998 4.4947783e-39
0.18599334 -0.46254599 2.5383334 4.4947783e-39
0.21762292 -0.45487005 2.5493717 4.4947783e-39
0.51477414 -0.47692424 2.5472 4.4947783e-39
0.54129791 -0.47472897 2.5509999 4.4947783e-39
0.5767315 -0.47282264 2.5509996 4.4947783e-39
0.61769944 -0.47247809 2.5487649 4.4947783e-39
0.66092229 -0.47468558 2.5487199 4.4947783e-39
0.70217276 -0.47293881 2.5457587 4.4947783e-39
0.74084133 -0.4743405 2.5424192 4.4947783e-39
0.77996767 -0.47059318 2.5404453 4.4947783e-39
0.82180458 -0.46114233 2.5361793 4.4947783e-39
0.22164947 -0.42205021 2.5432816 4.4947783e-39
0.2648181 -0.40087143 2.5510001 4.4947783e-39
0.81868821 -0.41890079 2.5390785 4.4947783e-39
0.22926049 -0.38145193 2.5363185 4.4947783e-39
0.25360495 -0.37919262 2.5510006 4.4947783e-39
0.79205805 -0.37676367 2.5452428 4.4947783e-39
0.81072944 -0.38521105 2.5355191 4.4947783e-39
0.23873143 -0.35448 2.5320001 4.4947783e-39
0.26050979 -0.34079355 2.5396006 4.4947783e-39
0.30703104 -0.33163005 2.5510001 4.4947783e-39
0.78528029 -0.33820236 2.541193 4.4947783e-39
0.809551 -0.34362856 2.5320005 4.4947783e-39
0.27607554 -0.30118334 2.5339 4.4947783e-39
0.29951239 -0.30085248 2.5470235 4.4947783e-39
0.33063611 -0.29375154 2.5509999 4.4947783e-39
0.77947426 -0.30299303 2.5415001 4.4947783e-39
0.27731428 -0.27731428 2.5320001 4.4947783e-39
0.30415598 -0.26575178 2.5377004 4.4947783e-39
0.33975032 -0.26101792 2.5486245 4.4947783e-39
0.3700271 -0.25108603 2.5509996 4.4947783e-39
0.74812233 -0.25483882 2.5433197 4.4947783e-39
0.76711458 -0.26438871 2.5356195 4.4947783e-39
0.30818054 -0.23294401 2.5320001 4.4947783e-39
0.34472042 -0.22232364 2.5329995 4.4947783e-39
0.37494236 -0.21659113 2.5501564 4.4947783e-39
0.74901807 -0.21835661 2.5384529 4.4947783e-39
0.76968431 -0.22492054 2.5320005 4.4947783e-39
0.35179949 -0.18320654 2.5331178 4.4947783e-39
0.37977868 -0.18055315 2.5490999 4.4947783e-39
0.40396354 -0.17161272 2.5510006 4.4947783e-39
0.73620689 -0.18132141 2.5385008 4.4947783e-39
0.2939724 -0.15063047 2.5510001 4.4947783e-39
0.38672823 -0.14304343 2.5333574 4.4947783e-39
0.41203403 -0.13756359 2.5510006 4.4947783e-39
0.71320528 -0.12760477 2.5472002 4.4947783e-39
0.732373 -0.13979572 2.5366216 4.4947783e-39
0.39547428 -0.11333714 2.5320001 4.4947783e-39
0.42389986 -0.10435592 2.5403123 4.4947783e-39
0.4552044 -0.09298452 2.5510004 4.4947783e-39
0.71178579 -0.10105717 2.5429397 4.4947783e-39
0.72391081 -0.10996114 2.5319998 4.4947783e-39
0.43110979 -0.06242919 2.5320005 4.4947783e-39
0.45841253 -0.057474345 2.5486255 4.4947783e-39
0.50997913 -0.04969481 2.5510006 4.4947783e-39
0.52950829 -0.052042965 2.5509999 4.4947783e-39
0.70400083 -0.060773648 2.5383334 4.4947783e-39
0.43550405 -0.030384002 2.5320001 4.4947783e-39
0.46101156 -0.022480693 2.5352879 4.4947783e-39
0.50077045 -0.016090319 2.5494175 4.4947783e-39
0.52666676 -0.022675553 2.5509999 4.4947783e-39
0.67394996 -0.0043731434 2.5510004 4.4947783e-39
0.69416797 -0.016143318 2.5464137 4.4947783e-39
0.47486913 0.016198777 2.5347145 4.4947783e-39
0.50084943 0.017581798 2.5423045 4.4947783e-39
0.53786165 0.022279432 2.5479076 4.4947783e-39
0.57174802 0.029559214 2.5510006 4.4947783e-39
0.60009241 0.036442861 2.5510001 4.4947783e-39
0.67297816 0.01598371 2.5509999 4.4947783e-39
0.68994486 0.01937964 2.5419748 4.4947783e-39
0.54560703 0.057646401 2.535707 4.4947783e-39
0.57460946 0.059010439 2.5510008 4.4947783e-39
0.61172479 0.064124696 2.5510004 4.4947783e-39
0.6699369 0.064622045 2.5470881 4.4947783e-39
0.69023621 0.058938354 2.5412683 4.4947783e-39
0.55353248 0.092730381 2.5319998 4.4947783e-39
0.58031499 0.098528512 2.5414994 4.4947783e-39
0.61642927 0.10146178 2.5485482 4.4947783e-39
0.66459554 0.10220233 2.5433383 4.4947783e-39
0.68653363 0.10007431 2.5320003 4.4947783e-39
0.59029245 0.13592842 2.5320003 4.4947783e-39
0.618752 0.1401754 2.5377564 4.4947783e-39
0.66029477 0.13930921 2.5424922 4.4947783e-39
0.68450129 0.12918368 2.5320001 4.4947783e-39
0.59562284 0.16156571 2.5320001 4.4947783e-39
0.62427896 0.17049168 2.5336285 4.4947783e-39
0.65350252 0.17780486 2.5350811 4.4947783e-39
0.64867425 0.20359348 2.5320001 4.4947783e-39
0.26597464 -0.52215874 2.5700002 4.4947783e-39
0.19764525 -0.495031 2.5699999 4.4947783e-39
0.22044373 -0.49876153 2.5700014 4.4947783e-39
0.25827029 -0.5012567 2.5816665 4.4947783e-39
0.30108312 -0.50010568 2.5831776 4.4947783e-39
0.33589685 -0.49266744 2.5743845 4.4947783e-39
0.38262689 -0.4853811 2.5772066 4.4947783e-39
0.42050025 -0.48639485 2.5774848 4.4947783e-39
0.46129343 -0.48627359 2.57095 4.4947783e-39
0.49385425 -0.48481694 2.5700002 4.4947783e-39
0.19662541 -0.47402227 2.5700002 4.4947783e-39
0.22251086 -0.4681628 2.5699999 4.4947783e-39
0.26046407 -0.45908371 2.5856829 4.4947783e-39
0.28567064 -0.45650944 2.5890005 4.4947783e-39
0.38711718 -0.47588292 2.5890005 4.4947783e-39
0.41670576 -0.47588292 2.5890005 4.4947783e-39
0.46190789 -0.47222281 2.5807667 4.4947783e-39
0.49894267 -0.47010365 2.5807834 4.4947783e-39
0.53627104 -0.46397325 2.5769088 4.4947783e-39
0.5803476 -0.46318325 2.57988 4.4947783e-39
0.62286323 -0.46021429 2.57532 4.4947783e-39
0.66072923 -0.46616372 2.5815656 4.4947783e-39
0.70149547 -0.46336019 2.5816925 4.4947783e-39
0.740363 -0.45508704 2.5821209 4.4947783e-39
0.77892017 -0.45230642 2.5821269 4.4947783e-39
0.81149089 -0.45281151 2.5733526 4.4947783e-39
0.23497145 -0.42833334 2.5699999 4.4947783e-39
0.25931621 -0.41976735 2.5716674 4.4947783e-39
0.29966184 -0.41727224 2.5852735 4.4947783e-39
0.32794955 -0.41541544 2.5871005 4.4947783e-39
0.71752292 -0.43643147 2.5890002 4.4947783e-39
0.72738576 -0.43643147 2.5890002 4.4947783e-39
0.78368324 -0.41878647 2.5846448 4.4947783e-39
0.80701864 -0.42492163 2.5756297 4.4947783e-39
0.26857057 -0.38360873 2.5699999 4.4947783e-39
0.2995708 -0.38093147 2.5784454 4.4947783e-39
0.33501652 -0.37737757 2.5834994 4.4947783e-39
0.36246005 -0.36246005 2.5890002 4.4947783e-39
0.7569744 -0.36739147 2.5890002 4.4947783e-39
0.77604741 -0.38026872 2.5787392 4.4947783e-39
0.80037147 -0.39896193 2.5700002 4.4947783e-39
0.27462289 -0.35588384 2.5700002 4.4947783e-39
0.29826692 -0.34310567 2.5707452 4.4947783e-39
0.3390412 -0.34033528 2.5708921 4.4947783e-39
0.36797169 -0.33403179 2.5890005 4.4947783e-39
0.75491375 -0.33419681 2.5864673 4.4947783e-39
0.76830995 -0.34305188 2.576514 4.4947783e-39
0.30622438 -0.30051321 2.5699999 4.4947783e-39
0.34917045 -0.30371457 2.5699999 4.4947783e-39
0.37767112 -0.30028087 2.5825222 4.4947783e-39
0.74624258 -0.29772183 2.587642 4.4947783e-39
0.76610672 -0.30162886 2.5749257 4.4947783e-39
0.35980004 -0.27658099 2.5700002 4.4947783e-39
0.38483441 -0.26437929 2.5777187 4.4947783e-39
0.40388402 -0.25100973 2.5890005 4.4947783e-39
0.73467451 -0.26257595 2.5804996 4.4947783e-39
0.39374039 -0.22534414 2.5700002 4.4947783e-39
0.41887471 -0.21974628 2.5796857 4.4947783e-39
0.44629434 -0.21418838 2.5890005 4.4947783e-39
0.71744066 -0.21637113 2.5847783 4.4947783e-39
0.73240918 -0.22237036 2.5799313 4.4947783e-39
0.42314923 -0.18285882 2.5743539 4.4947783e-39
0.45776108 -0.17802547 2.5874786 4.4947783e-39
0.71743035 -0.18293041 2.5842505 4.4947783e-39
0.72599685 -0.17969152 2.5747502 4.4947783e-39
0.43002784 -0.147422 2.5700002 4.4947783e-39
0.45872375 -0.1413964 2.5771694 4.4947783e-39
0.49014872 -0.13191573 2.5890002 4.4947783e-39
0.52149856 -0.12451858 2.5890002 4.4947783e-39
0.71196318 -0.13483313 2.5847783 4.4947783e-39
0.72627276 -0.15113449 2.5713573 4.4947783e-39
0.4664824 -0.10862365 2.5699999 4.4947783e-39
0.49885237 -0.096949331 2.5741873 4.4947783e-39
0.52986437 -0.095300034 2.5842502 4.4947783e-39
0.70423466 -0.096702375 2.5866246 4.4947783e-39
0.47728574 -0.070980959 2.5700002 4.4947783e-39
0.50036377 -0.060537558 2.5746672 4.4947783e-39
0.54463077 -0.062392008 2.5764997 4.4947783e-39
0.56852335 -0.053188987 2.5890005 4.4947783e-39
0.69478494 -0.057787053 2.5807173 4.4947783e-39
0.50339371 -0.030840002 2.5700002 4.4947783e-39
0.54764533 -0.01808699 2.5784996 4.4947783e-39
0.57599783 -0.015393568 2.5884857 4.4947783e-39
0.67286402 -0.015673185 2.5820003 4.4947783e-39
0.6897518 -0.028072173 2.577435 4.4947783e-39
0.55012286 0.0069011268 2.5734546 4.4947783e-39
0.58210337 0.017240347 2.5747497 4.4947783e-39
0.61714119 0.024294144 2.5828528 4.4947783e-39
0.66300565 0.024259873 2.582324 4.4947783e-39
0.68288571 0.034266669 2.5700002 4.4947783e-39
0.59599525 0.054459523 2.5699999 4.4947783e-39
0.62658757 0.051930591 2.5776 4.4947783e-39
0.65460145 0.056475796 2.5784886 4.4947783e-39
0.68288571 0.044057146 2.5700002 4.4947783e-39
0.63699287 0.09117382 2.5699999 4.4947783e-39
0.64988256 0.092532516 2.5716522 4.4947783e-39
0.27332383 -0.49695244 2.6090002 4.4947783e-39
0.28947011 -0.49544019 2.610429 4.4947783e-39
0.34363037 -0.48434386 2.6118574 4.4947783e-39
0.36526 -0.4845286 2.6090002 4.4947783e-39
0.30432442 -0.46418121 2.6190004 4.4947783e-39
0.34058005 -0.46350369 2.6257153 4.4947783e-39
0.37800154 -0.46658027 2.6249993 4.4947783e-39
0.42191193 -0.46727434 2.6220436 4.4947783e-39
0.45980224 -0.45760566 2.6185837 4.4947783e-39
0.50282496 -0.45387107 2.6215003 4.4947783e-39
0.54189795 -0.45141503 2.6126375 4.4947783e-39
0.58184904 -0.45031357 2.6146414 4.4947783e-39
0.61924857 -0.45045957 2.6132431 4.4947783e-39
0.66152918 -0.45247203 2.6095891 4.4947783e-39
0.70092547 -0.45225388 2.611052 4.4947783e-39
0.30704561 -0.43696317 2.6090002 4.4947783e-39
0.34548029 -0.42090526 2.6117036 4.4947783e-39
0.37226397 -0.41453409 2.6269312 4.4947783e-39
0.47822765 -0.43816671 2.6290002 4.4947783e-39
0.50076193 -0.43816671 2.6290002 4.4947783e-39
0.53729409 -0.43411794 2.6220777 4.4947783e-39
0.58251679 -0.43315905 2.6290007 4.4947783e-39
0.62410295 -0.43357223 2.6265008 4.4947783e-39
0.6579529 -0.43153402 2.6200531 4.4947783e-39
0.70298833 -0.43417832 2.6244841 4.4947783e-39
0.74404997 -0.42197806 2.6166921 4.4947783e-39
0.7686789 -0.42063469 2.6090009 4.4947783e-39
0.35112077 -0.38941664 2.6110005 4.4947783e-39
0.37990004 -0.37989292 2.6241846 4.4947783e-39
0.41391933 -0.37412193 2.6290004 4.4947783e-39
0.74778777 -0.3787531 2.6198001 4.4947783e-39
0.76530671 -0.38762292 2.6090002 4.4947783e-39
0.3858068 -0.34409794 2.6174853 4.4947783e-39
0.41786614 -0.33752817 2.6266468 4.4947783e-39
0.4431743 -0.32799906 2.6290002 4.4947783e-39
0.74332261 -0.33910519 2.6172609 4.4947783e-39
0.39507717 -0.3006562 2.6090002 4.4947783e-39
0.41862378 -0.29899794 2.6161864 4.4947783e-39
0.45537239 -0.29692605 2.6289997 4.4947783e-39
0.48573908 -0.28293049 2.6290002 4.4947783e-39
0.71692419 -0.28626892 2.6290002 4.4947783e-39
0.73180455 -0.30126187 2.6118581 4.4947783e-39
0.42376959 -0.25979996 2.6101325 4.4947783e-39
0.46156037 -0.2603862 2.6234825 4.4947783e-39
0.48538145 -0.25968087 2.6290002 4.4947783e-39
0.53655171 -0.24964456 2.6290002 4.4947783e-39
0.71859342 -0.26039621 2.6290002 4.4947783e-39
0.72480404 -0.26100248 2.6153166 4.4947783e-39
0.42986387 -0.23439591 2.6090002 4.4947783e-39
0.4672313 -0.22060698 2.6116674 4.4947783e-39
0.4941031 -0.21820131 2.6268578 4.4947783e-39
0.53751129 -0.21702373 2.6289999 4.4947783e-39
0.71271861 -0.21178755 2.6258426 4.4947783e-39
0.72360098 -0.22534287 2.6290002 4.4947783e-39
0.46962002 -0.19353536 2.6090004 4.4947783e-39
0.50120133 -0.17884862 2.6236153 4.4947783e-39
0.53910631 -0.17814064 2.6260362 4.4947783e-39
0.57387322 -0.16475068 2.6289999 4.4947783e-39
0.6735248 -0.1777705 2.6290002 4.4947783e-39
0.70455372 -0.17907821 2.6253924 4.4947783e-39
0.72360098 -0.18027429 2.6290002 4.4947783e-39
0.50793791 -0.14352435 2.6113534 4.4947783e-39
0.54176569 -0.14012602 2.6120505 4.4947783e-39
0.5799191 -0.13941589 2.625226 4.4947783e-39
0.60675651 -0.12685969 2.6290002 4.4947783e-39
0.67202252 -0.12719353 2.6289999 4.4947783e-39
0.6985442 -0.14157973 2.6196439 4.4947783e-39
0.5193153 -0.11429906 2.6090002 4.4947783e-39
0.55057514 -0.1034783 2.6090009 4.4947783e-39
0.58118629 -0.09978164 2.6189995 4.4947783e-39
0.61076277 -0.098149359 2.6290002 4.4947783e-39
0.67199242 -0.098830573 2.6241353 4.4947783e-39
0.69078523 -0.10209928 2.6107657 4.4947783e-39
0.58474743 -0.062809259 2.6090009 4.4947783e-39
0.6198746 -0.059786893 2.6232851 4.4947783e-39
0.66707724 -0.056595445 2.6226168 4.4947783e-39
0.68765795 -0.06584619 2.6090007 4.4947783e-39
0.59137338 -0.025593052 2.6090009 4.4947783e-39
0.6204403 -0.020811094 2.6139998 4.4947783e-39
0.65862221 -0.021315672 2.6198192 4.4947783e-39
0.6306327 0.010932955 2.6090009 4.4947783e-39
0.65367538 0.013529559 2.6104822 4.4947783e-39
0.31535718 -0.46925145 2.6490002 4.4947783e-39
0.32040292 -0.46672863 2.6490002 4.4947783e-39
0.38383466 -0.44798738 2.6490011 4.4947783e-39
0.41724807 -0.44914991 2.6490014 4.4947783e-39
0.45544994 -0.44535854 2.6490006 4.4947783e-39
0.50154406 -0.44503203 2.6490002 4.4947783e-39
0.38829064 -0.4256748 2.6490011 4.4947783e-39
0.41961044 -0.41958246 2.6540015 4.4947783e-39
0.45561719 -0.42849889 2.6634822 4.4947783e-39
0.50030082 -0.43289766 2.6537626 4.4947783e-39
0.53884858 -0.4253023 2.658231 4.4947783e-39
0.58018512 -0.42280146 2.6561437 4.4947783e-39
0.62090439 -0.41841346 2.6560845 4.4947783e-39
0.66192079 -0.41742542 2.6620433 4.4947783e-39
0.70501834 -0.42051163 2.6625481 4.4947783e-39
0.73143035 -0.41336051 2.6566191 4.4947783e-39
0.3960886 -0.3960886 2.6490002 4.4947783e-39
0.42253008 -0.38159505 2.6495569 4.4947783e-39
0.45526776 -0.37691745 2.6576366 4.4947783e-39
0.48042002 -0.3634924 2.6690001 4.4947783e-39
0.73559809 -0.3830542 2.6542635 4.4947783e-39
0.43519288 -0.35067716 2.6490002 4.4947783e-39
0.46079102 -0.33943239 2.6505399 4.4947783e-39
0.49266395 -0.33486736 2.6636667 4.4947783e-39
0.71935904 -0.32282192 2.6690001 4.4947783e-39
0.73298377 -0.33775029 2.6601114 4.4947783e-39
0.47022176 -0.30526572 2.6490004 4.4947783e-39
0.50025082 -0.29948717 2.6572363 4.4947783e-39
0.5363462 -0.28890699 2.664238 4.4947783e-39
0.7143501 -0.29578552 2.6625717 4.4947783e-39
0.72578454 -0.30833346 2.6512225 4.4947783e-39
0.50627607 -0.26026347 2.6490016 4.4947783e-39
0.5384171 -0.26223648 2.654264 4.4947783e-39
0.56793416 -0.25564304 2.6690001 4.4947783e-39
0.70183271 -0.25788152 2.6580331 4.4947783e-39
0.72574198 -0.26237717 2.6490002 4.4947783e-39
0.51214004 -0.22549538 2.6490011 4.4947783e-39
0.53967011 -0.22443363 2.6515818 4.4947783e-39
0.57876611 -0.21516179 2.665585 4.4947783e-39
0.60649854 -0.20284401 2.6690004 4.4947783e-39
0.67664713 -0.2035522 2.6650002 4.4947783e-39
0.69888556 -0.22350015 2.6562736 4.4947783e-39
0.72406006 -0.22705716 2.6490002 4.4947783e-39
0.51718575 -0.19930573 2.6490002 4.4947783e-39
0.53295362 -0.19489074 2.6490002 4.4947783e-39
0.58089572 -0.1841438 2.6579483 4.4947783e-39
0.61126107 -0.18094236 2.6683328 4.4947783e-39
0.6710555 -0.17435969 2.6618576 4.4947783e-39
0.68755275 -0.18505901 2.6490006 4.4947783e-39
0.5979172 -0.15641715 2.6490002 4.4947783e-39
0.61975908 -0.14159612 2.6593034 4.4947783e-39
0.66283727 -0.14231618 2.663902 4.4947783e-39
0.6836943 -0.14884858 2.6490002 4.4947783e-39
0.63147056 -0.10215981 2.6498706 4.4947783e-39
0.65417135 -0.10219616 2.6549098 4.4947783e-39
0.65866756 -0.066906184 2.6490011 4.4947783e-39
0.46793693 -0.41754848 2.6946664 4.4947783e-39
0.50092536 -0.41683716 2.7059305 4.4947783e-39
0.53878129 -0.41091987 2.7012677 4.4947783e-39
0.57909268 -0.41053295 2.7005 4.4947783e-39
0.61576998 -0.40505156 2.6952496 4.4947783e-39
0.6646595 -0.40534526 2.6945648 4.4947783e-39
0.70065457 -0.40750003 2.6960001 4.4947783e-39
0.73021889 -0.40615162 2.6935003 4.4947783e-39
0.4745217 -0.39197144 2.6900003 4.4947783e-39
0.50315106 -0.37935159 2.7056377 4.4947783e-39
0.53951967 -0.37985465 2.7042639 4.4947783e-39
0.57423049 -0.38338524 2.7098324 4.4947783e-39
0.62053543 -0.39386347 2.7046082 4.4947783e-39
0.66603434 -0.38872278 2.7071104 4.4947783e-39
0.70166624 -0.38003287 2.7092848 4.4947783e-39
0.72984672 -0.37869394 2.6987071 4.4947783e-39
0.50803751 -0.3491168 2.6914001 4.4947783e-39
0.53874528 -0.33897015 2.7013898 4.4947783e-39
0.5758993 -0.33867383 2.7042637 4.4947783e-39
0.60305923 -0.33159035 2.7110002 4.4947783e-39
0.70624298 -0.33904466 2.7012496 4.4947783e-39
0.73102218 -0.34771958 2.6911664 4.4947783e-39
0.54201019 -0.30656561 2.6915555 4.4947783e-39
0.57871968 -0.29997373 2.6967206 4.4947783e-39
0.61358207 -0.29509661 2.7109993 4.4947783e-39
0.67594272 -0.29588634 2.711 4.4947783e-39
0.69687259 -0.30166832 2.6982355 4.4947783e-39
0.58570313 -0.26247278 2.6936207 4.4947783e-39
0.6201424 -0.25919455 2.7098744 4.4947783e-39
0.6626308 -0.25623983 2.7044826 4.4947783e-39
0.68813944 -0.2684595 2.6914001 4.4947783e-39
0.59180003 -0.23313335 2.6900003 4.4947783e-39
0.62048697 -0.22096701 2.6950223 4.4947783e-39
0.66138697 -0.22061142 2.6990004 4.4947783e-39
0.68402863 -0.22544764 2.6900003 4.4947783e-39
0.63325626 -0.17816883 2.6899996 4.4947783e-39
0.65776575 -0.18237337 2.6921883 4.4947783e-39
0.6379143 -0.14859048 2.6900001 4.4947783e-39
0.64909357 -0.14137056 2.6900005 4.4947783e-39
0.58889639 -0.3722086 2.7330005 4.4947783e-39
0.61933994 -0.37618282 2.7396824 4.4947783e-39
0.65960938 -0.37585801 2.7439382 4.4947783e-39
0.68901557 -0.36442533 2.7360003 4.4947783e-39
0.59431905 -0.35485619 2.7330003 4.4947783e-39
0.62367451 -0.34143227 2.7405005 4.4947783e-39
0.66060752 -0.34311855 2.7520905 4.4947783e-39
0.68877077 -0.34278437 2.7410779 4.4947783e-39
0.62699938 -0.30626956 2.7330008 4.4947783e-39
0.65882349 -0.299954 2.7356262 4.4947783e-39
0.65379047 -0.27519298 2.733 4.4947783e-39
0.67044723 -0.338265 2.7770002 4.4947783e-39
-0.087562136 -0.083755821 0.59606767 1.3263419e-38
-0.075234629 -0.083589584 0.59679335 1.3263419e-38
-0.08592882 -0.074843496 0.59681922 1.3263419e-38
-0.056472585 -0.067942336 0.59497762 1.3263419e-38
-0.028597811 -0.058111459 0.59321558 1.3263419e-38
0.023115227 -0.044603627 0.59817094 1.3263419e-38
-0.081578098 -0.00057047623 0.5990001 1.3263419e-38
-0.056993917 -0.0070640459 0.5960871 1.3263419e-38
-0.029812057 -0.033661347 0.59831613 1.3263419e-38
0.032787569 -0.031551179 0.59775108 1.3263419e-38
0.046427969 -0.018725339 0.59826535 1.3263419e-38
-0.08416374 0.023621721 0.59527391 1.3263419e-38
-0.060767587 0.022036118 0.5902074 1.3263419e-38
-0.029069986 0.023532979 0.59187645 1.3263419e-38
-0.088302903 0.059480038 0.59426981 1.3263419e-38
-0.061822202 0.058978081 0.58777064 1.3263419e-38
-0.031593945 0.044424251 0.59124988 1.3263419e-38
-0.08237645 0.085363559 0.59557152 1.3263419e-38
-0.060927089 0.090131491 0.59395218 1.3263419e-38
-0.068976104 -0.083490565 0.61210006 1.3263419e-38
-0.01814061 -0.082083642 0.63240802 1.3263419e-38
-0.13020204 -0.059350148 0.63568193 1.3263419e-38
-0.099758007 -0.054671165 0.62144393 1.3263419e-38
-0.063043803 -0.054855291 0.6078769 1.3263419e-38
-0.010623815 -0.058468658 0.6163525 1.3263419e-38
0.014499313 -0.050614618 0.60212708 1.3263419e-38
0.043266945 -0.042933054 0.6010645 1.3263419e-38
-0.12561353 -0.038783364 0.63570595 1.3263419e-38
-0.092913866 -0.020989031 0.61635047 1.3263419e-38
-0.060845997 -0.024680598 0.60577947 1.3263419e-38
-0.019498533 -0.018215742 0.60921979 1.3263419e-38
0.018648695 -0.026669584 0.60466146 1.3263419e-38
0.050646566 -0.018822435 0.60071421 1.3263419e-38
-0.095315605 0.019751104 0.60664988 1.3263419e-38
-0.05296478 0.0077391616 0.61549968 1.3263419e-38
-0.018905023 0.01245342 0.6194703 1.3263419e-38
0.00098412705 0.00098412705 0.62 1.3263419e-38
0.050345261 0.0019405071 0.60204244 1.3263419e-38
-0.1050998 0.057750732 0.61036146 1.3263419e-38
-0.044618327 0.070579022 0.62789369 1.3263419e-38
-0.03596092 0.07065592 0.63502318 1.3263419e-38
-0.090415716 0.085157998 0.60444605 1.3263419e-38
-0.054615609 0.10596567 0.60535848 1.3263419e-38
-0.032860484 0.098459974 0.61561316 1.3263419e-38
-0.051921658 0.13972224 0.62706125 1.3263419e-38
-0.034846708 0.13645041 0.63083595 1.3263419e-38
-0.050422292 0.16540757 0.63775587 1.3263419e-38
-0.03863655 0.16215275 0.63887501 1.3263419e-38
-0.13594501 -0.080221906 0.64300007 1.3263419e-38
-0.082081757 -0.097840741 0.648 1.3263419e-38
-0.067699499 -0.089907683 0.64321429 1.3263419e-38
-0.14478572 -0.064382717 0.64320672 1.3263419e-38
-0.11824763 -0.07131429 0.64000005 1.3263419e-38
-0.063499235 -0.075550936 0.64504415 1.3263419e-38
-0.0051809531 -0.064304762 0.64000005 1.3263419e-38
-0.12309471 -0.037761908 0.64400005 1.3263419e-38
-0.10849059 -0.031272262 0.64397764 1.3263419e-38
-0.028182331 0.063004896 0.64372259 1.3263419e-38
-0.025195478 0.082382753 0.64137506 1.3263419e-38
-0.069325045 0.15327299 0.64854425 1.3263419e-38
-0.029130211 0.15293011 0.64827728 1.3263419e-38
-0.057807941 0.18330544 0.64736289 1.3263419e-38
-0.030167177 0.18114893 0.65535736 1.3263419e-38
-0.081893072 0.22507474 0.67515069 1.3263419e-38
-0.059316091 0.2198275 0.65964866 1.3263419e-38
-0.02684552 0.21932665 0.66697782 1.3263419e-38
-0.081667982 0.24322987 0.67787498 1.3263419e-38
-0.057468332 0.2585991 0.67012733 1.3263419e-38
-0.028994102 0.25759789 0.67264456 1.3263419e-38
0.18663268 0.26758862 0.67044461 1.3263419e-38
0.21973133 0.26217678 0.66504234 1.3263419e-38
0.25737751 0.26545542 0.66947973 1.3263419e-38
0.28506276 0.27467567 0.67601472 1.3263419e-38
-0.050816052 0.28531882 0.67814332 1.3263419e-38
-0.034341276 0.28456312 0.6782037 1.3263419e-38
0.18059373 0.28982341 0.66807288 1.3263419e-38
0.21962582 0.28722918 0.65587401 1.3263419e-38
0.26060912 0.28857952 0.66205841 1.3263419e-38
0.28981301 0.29200453 0.67411292 1.3263419e-38
-0.017001765 0.19524974 0.6817776 1.3263419e-38
