# .PCD v0.7 - Point Cloud Data file format
VERSION 0.7
FIELDS x y z rgb
SIZE 4 4 4 4
TYPE F F F F
COUNT 1 1 1 1
WIDTH 277
HEIGHT 1
VIEWPOINT 0 0 0 1 0 0 0
POINTS 277
DATA ascii
-0.0017500755 -0.045606911 0.50547367 4.8882069e-39
0.013568282 -0.048300669 0.49776667 4.7952952e-39
0.067486823 -0.057849631 0.50756943 6.556384e-39
0.087177992 -0.061806567 0.50407261 1.2917159e-38
-0.029362304 -0.029259188 0.51803571 3.3212357e-39
0.015204999 -0.036049493 0.5024361 8.6678578e-39
-0.31551906 0.22918384 0.51900005 1.032374e-38
-0.020282855 -0.081957437 0.54711431 1.4562271e-38
0.015723372 -0.088620588 0.52864057 9.5880204e-39
-0.042306256 -0.056530789 0.54501379 9.4914962e-39
-0.023486221 -0.0584777 0.54622906 6.8272004e-39
0.023328857 -0.06686078 0.53135186 7.4776215e-39
0.050233137 -0.051302891 0.52534282 6.280523e-39
-0.045216966 -0.02884764 0.52746302 4.4265043e-39
-0.018567931 -0.023421085 0.53762579 5.6272097e-39
0.018880395 -0.019729679 0.54133499 8.3001641e-39
0.053216022 -0.032413207 0.5397321 1.1439475e-38
-0.0012837567 0.0037363495 0.55127782 1.0957215e-38
0.011038398 0.0066055758 0.55434787 1.3443986e-38
-0.30283061 0.13964571 0.54688936 1.2717602e-38
-0.3226839 0.187537 0.53792495 8.939016e-39
-0.29870805 0.18607572 0.54241103 1.0229036e-38
-0.27304667 0.19380024 0.55454171 1.0597097e-38
-0.32537833 0.20612633 0.5426001 8.8493329e-39
-0.29734632 0.21873195 0.53655618 9.584384e-39
-0.27568391 0.20485878 0.54256386 8.0177842e-39
-0.29368466 0.24120903 0.53503382 9.8602465e-39
-0.045094293 -0.080946535 0.57042867 2.15745e-38
-0.054469235 -0.054808848 0.56880504 1.1977899e-38
-0.038665242 -0.078409053 0.56650007 1.6772078e-38
-0.088326775 -0.021188464 0.58415067 8.1197343e-39
-0.062833942 -0.019818278 0.57960254 7.1905613e-39
-0.0228865 -0.0061905649 0.58305722 5.713248e-39
0.03012489 -0.0047242031 0.5669744 8.2115712e-39
0.053738937 -0.014393855 0.5718717 1.0333088e-38
-0.053276919 0.019800767 0.58570975 1.224616e-38
-0.022309704 0.026550259 0.5876587 9.4820892e-39
0.01879517 0.025252298 0.57266176 1.455285e-38
0.047655907 0.0052805287 0.58304209 1.3923657e-38
-0.052754357 0.059679899 0.58097303 1.2061409e-38
-0.020277282 0.059368253 0.57831889 1.1416398e-38
0.012681216 0.0560105 0.57851255 1.6306011e-38
-0.052859418 0.09527529 0.59389496 1.0035264e-38
-0.023269983 0.091147467 0.5926742 1.1693705e-38
0.0023560713 0.083250605 0.59395832 1.8801425e-38
-0.25631717 0.19512244 0.56427854 1.2164062e-38
-0.23600502 0.19917527 0.57661551 1.2532846e-38
-0.25248072 0.21910916 0.57402575 9.2156057e-39
-0.22693728 0.22192311 0.58506805 9.9524547e-39
-0.24214248 0.2446266 0.58947384 7.5546466e-39
-0.22888374 0.24210998 0.58858323 7.6479213e-39
-0.0918727 -0.0053272122 0.60697097 1.3457684e-38
-0.041142859 -0.009142857 0.60000002 7.5499523e-39
-0.021826141 -0.0025730846 0.6034205 5.5273994e-39
-0.088955238 0.0005852381 0.61450005 2.286052e-38
-0.0173382 0.010220964 0.60457182 6.9985652e-39
-0.080164284 0.11876144 0.62349999 1.4091892e-38
-0.063720234 0.1090164 0.6043492 1.0403334e-38
-0.019808747 0.10934211 0.60600251 1.3443985e-38
-0.085597605 0.14472438 0.62697214 1.012783e-38
-0.059559524 0.13992082 0.61129057 9.7590391e-39
-0.026715066 0.13821833 0.62106949 1.4918029e-38
-0.087301381 0.17972358 0.63174385 8.7459689e-39
-0.059737854 0.17971964 0.62302774 9.6661274e-39
-0.03347975 0.175901 0.63135511 1.5654515e-38
-0.21642543 0.23628828 0.60018748 1.0783663e-38
-0.084672287 0.20954469 0.63564473 8.1920777e-39
-0.061288267 0.21367988 0.63380438 9.0214782e-39
-0.037663352 0.20377596 0.63748002 1.4732926e-38
-0.21579866 0.24166751 0.60171443 1.2903795e-38
0.19627325 0.27453008 0.63827956 8.8360052e-39
0.21876763 0.26919794 0.63561332 1.0678837e-38
0.24646887 0.27318281 0.63670272 1.5196419e-38
0.19490001 0.28303814 0.63753855 8.1924294e-39
0.219096 0.28226879 0.63332629 9.7586775e-39
0.2499108 0.28285578 0.6360147 1.4274101e-38
-0.097207621 0.15934667 0.64600003 1.159259e-38
-0.016988406 0.15733823 0.64217401 1.1230566e-38
-0.10009041 0.18317021 0.64611316 9.6664903e-39
-0.023327416 0.18243675 0.64520109 1.5745986e-38
-0.096642151 0.22317223 0.65048885 8.2853551e-39
-0.056482811 0.23235287 0.64344078 9.6668476e-39
-0.028085753 0.22076879 0.65662009 1.5286091e-38
0.19632301 0.23811838 0.6760304 1.1692605e-38
0.22072388 0.23548634 0.67162997 1.3167021e-38
0.25416839 0.23593223 0.67349488 1.6576819e-38
-0.094409235 0.2569299 0.66508406 7.5481502e-39
-0.059681561 0.25907671 0.65674222 7.7321786e-39
-0.029846467 0.25622654 0.66926622 1.2153965e-38
0.15465774 0.27330387 0.67319512 1.0125654e-38
0.18137507 0.26063985 0.65923464 1.0402598e-38
0.21975079 0.24956705 0.65067536 1.2429105e-38
0.26059756 0.25703669 0.65348154 1.7869008e-38
0.29285005 0.26436782 0.66713411 2.0821071e-38
-0.085680678 0.28412858 0.67612201 6.7194672e-39
-0.059548531 0.28781778 0.67409384 6.7180308e-39
-0.036922574 0.28254744 0.67779994 9.1133109e-39
0.14952137 0.28983873 0.67012435 8.9285539e-39
0.17346184 0.28575554 0.65118915 8.5604917e-39
0.26955795 0.28466219 0.64412242 1.694777e-38
0.30202866 0.28917825 0.6635229 1.9159747e-38
0.32334724 0.29606858 0.67735308 1.8237427e-38
-0.0083036236 0.23536846 0.71398026 1.1136922e-38
0.015679888 0.23706631 0.71844155 1.1046168e-38
0.041085713 0.23898192 0.71900004 1.1323838e-38
0.15313417 0.23061003 0.71421796 1.1139437e-38
0.18158157 0.2247275 0.70474714 1.1968478e-38
0.21923664 0.21819621 0.70074701 1.3442529e-38
0.25963524 0.22154877 0.70007181 1.6853045e-38
0.29364082 0.23036464 0.70606649 1.9988062e-38
0.32115334 0.23898192 0.71900004 2.1004014e-38
-0.10909691 0.27659863 0.69358629 8.3764718e-39
-0.010470919 0.26231772 0.70760459 9.1107872e-39
0.019249596 0.25976023 0.71380025 1.0310046e-38
0.042184658 0.25773233 0.71825957 9.8490739e-39
0.11983334 0.27869812 0.71900004 9.1115047e-39
0.14329046 0.26108268 0.7007882 1.0401878e-38
0.16920233 0.24627391 0.68811959 1.1231271e-38
0.27810225 0.24050224 0.68066669 1.9158306e-38
0.30698928 0.25273255 0.69235665 2.0911822e-38
0.33254057 0.26627934 0.70624369 2.0452285e-38
-0.097865045 0.29950061 0.69893146 6.9957009e-39
-0.059164356 0.30182073 0.684331 6.3499686e-39
-0.01834866 0.2982108 0.70133746 7.8222134e-39
0.014180229 0.29454044 0.71276319 7.5456237e-39
0.11314035 0.30304968 0.71131086 8.1902686e-39
0.12983716 0.29312539 0.6937474 9.0196692e-39
0.31927618 0.28106666 0.68000001 2.1003305e-38
0.3392866 0.29192191 0.69278938 1.860765e-38
-0.10115048 0.32072195 0.71600002 8.4772616e-39
-0.00068285712 0.32026002 0.71700001 4.3238227e-39
0.0027385717 0.32093 0.71850008 3.5876982e-39
0.10339905 0.32115334 0.71900004 7.1779104e-39
0.17905222 0.15902458 0.75783342 1.537576e-38
-0.0056503094 0.19770421 0.75502497 1.2150361e-38
0.022569772 0.19182667 0.74770182 1.2795008e-38
0.059770383 0.18811455 0.74631518 1.4085747e-38
0.099806644 0.18845335 0.75150448 1.3809519e-38
0.14189854 0.18297587 0.74890995 1.1875211e-38
0.17992514 0.18070769 0.74109989 1.4085744e-38
0.21910071 0.18315336 0.74052411 1.5467958e-38
0.25672108 0.18944243 0.74352086 1.7864322e-38
0.28908673 0.1961752 0.75346673 1.8971028e-38
-0.0095409397 0.21789323 0.73249412 1.0859619e-38
0.020284427 0.21740665 0.72805148 1.1506067e-38
0.059929553 0.21995582 0.729123 1.2612779e-38
0.099399559 0.21942942 0.73913884 1.1415675e-38
0.13741145 0.21823607 0.73523355 9.9416213e-39
0.17478314 0.20531976 0.7230916 1.2612772e-38
0.22033663 0.20151278 0.72140735 1.4362328e-38
0.26428312 0.20483883 0.72640133 1.7773564e-38
0.30284515 0.21356432 0.73724729 1.9618197e-38
0.3368555 0.22693327 0.74511194 2.0264293e-38
0.36785716 0.23434938 0.75384104 1.9066829e-38
-0.01859143 0.24031144 0.72300005 1.3625461e-38
0.038628574 0.24114287 0.72000003 1.1047967e-38
0.0612926 0.2595998 0.72558242 8.7438025e-39
0.10211615 0.26048592 0.73907292 6.6251037e-39
0.12677129 0.25418755 0.72712022 8.5594113e-39
0.34739879 0.25427824 0.72913569 1.9344858e-38
0.36639801 0.25353888 0.74012369 1.75935e-38
-0.11325629 0.31041256 0.72153121 8.7445312e-39
0.029300474 0.30587035 0.72604775 4.8748357e-39
0.058037378 0.29498583 0.73662657 4.8748329e-39
0.098728701 0.29863253 0.73773587 6.3488756e-39
-0.11170381 0.32062858 0.72400004 1.9629708e-38
0.015366984 0.32357481 0.7296924 1.8388721e-39
0.079793148 0.32564232 0.75480002 4.6922423e-39
0.088634945 0.32550997 0.74098474 5.7964263e-39
0.38706613 -0.010309041 0.78971082 7.3680834e-39
0.35897335 0.038253337 0.79800004 1.0311498e-38
0.38068491 0.025724599 0.79285139 1.095615e-38
0.35412729 0.064622506 0.79520434 9.7586803e-39
0.37526628 0.059448075 0.78645295 1.049661e-38
0.15580001 0.11932001 0.79800004 1.5654857e-38
0.35280964 0.098827437 0.79508388 6.8127446e-39
0.37584233 0.10017277 0.78627127 6.9993023e-39
0.069126368 0.15495352 0.79095072 1.3993187e-38
0.10243174 0.14709134 0.78344864 1.3717319e-38
0.14062795 0.1415012 0.7789737 1.4454527e-38
0.17875521 0.14233062 0.77707362 1.6297714e-38
0.21713616 0.15025152 0.78121263 1.6942363e-38
0.25156981 0.15596588 0.79115069 1.6482102e-38
0.35636467 0.12437788 0.79605281 5.9837042e-39
0.3780261 0.13301642 0.79088068 6.1695402e-39
-0.0075491918 0.19339378 0.76531911 1.2613144e-38
0.022466179 0.17809448 0.77432704 1.3625129e-38
0.059295602 0.16829668 0.77337337 1.4361968e-38
0.09865687 0.16862385 0.76538038 1.3716602e-38
0.13244514 0.1647675 0.76201516 1.2980121e-38
0.19786 0.16017239 0.76100004 1.675834e-38
0.22570774 0.1635401 0.76442516 1.6665421e-38
0.26283899 0.17056511 0.77467138 1.7403705e-38
0.29928929 0.18229119 0.77876472 1.8142708e-38
0.33233622 0.19242361 0.78844362 2.0355763e-38
0.31534413 0.20106499 0.76155567 1.9433085e-38
0.34535909 0.20927928 0.7733053 1.989371e-38
0.37630388 0.21780914 0.77997124 1.9157944e-38
0.40052003 0.21508001 0.79800004 1.8511496e-38
0.07774242 0.3156541 0.77246881 2.6668251e-39
0.086288258 0.30435061 0.76320201 3.1263627e-39
0.072470896 0.33521113 0.78004277 4.1401503e-39
0.080406122 0.3310712 0.76291674 4.7840778e-39
0.39694032 -0.082058415 0.82449996 4.1477271e-39
0.4068554 -0.083144285 0.82435501 4.700545e-39
0.35813221 -0.045248736 0.83734781 3.3161574e-39
0.38339397 -0.0567245 0.82557344 4.1444817e-39
0.40463212 -0.062687889 0.81760389 3.9604534e-39
0.35268661 -0.01527528 0.8302815 4.9735193e-39
0.37658331 -0.022828711 0.81370622 7.2748059e-39
0.40174949 -0.034644358 0.80628568 1.1232006e-38
0.34504098 0.022055956 0.81866789 9.7590405e-39
0.37252441 0.010309299 0.80340588 1.0126384e-38
0.31905836 0.068100542 0.83842868 1.0034543e-38
0.33545306 0.059225947 0.816751 9.5750051e-39
0.11690944 0.1171234 0.82336366 1.4270864e-38
0.14287658 0.11482508 0.8148908 1.491622e-38
0.17440483 0.11372542 0.81415123 1.5929653e-38
0.3164407 0.10768551 0.83716655 1.0862853e-38
0.33313969 0.10000467 0.81674331 8.1013156e-39
0.063568458 0.1484993 0.81101471 1.3993909e-38
0.098736897 0.13069952 0.81344545 1.4270491e-38
0.12953703 0.12236895 0.80481827 1.4915502e-38
0.18744537 0.12370022 0.80650008 1.685088e-38
0.21999851 0.13672027 0.811427 1.5929284e-38
0.26135892 0.14794743 0.81744725 1.4454879e-38
0.303637 0.1446608 0.82979882 1.2429097e-38
0.3389824 0.1390298 0.82225591 9.9419828e-39
0.37034678 0.14815913 0.81180298 9.7586761e-39
0.034220207 0.16511017 0.80384392 1.4269421e-38
0.041912172 0.16123599 0.80666673 1.4363047e-38
0.30535275 0.16518886 0.80780089 1.6392424e-38
0.34311387 0.17628287 0.81561995 1.8696961e-38
0.37619737 0.18572037 0.82308537 1.9065746e-38
0.40801945 0.19595174 0.82947773 1.8236345e-38
0.38713193 0.20455514 0.80403614 1.915794e-38
0.4057813 0.20566908 0.81337738 1.8327466e-38
0.066285715 0.33752379 0.80000001 4.1408706e-39
0.37108713 -0.086483449 0.86417091 3.592394e-39
0.34700608 -0.052799214 0.85679603 3.0395775e-39
0.36931306 -0.069541283 0.84995717 3.2243289e-39
0.31410229 -0.0087422952 0.8736735 1.0768869e-38
0.33594722 -0.020724684 0.85634619 6.2602939e-39
0.31196815 0.020675199 0.86498016 1.1414598e-38
0.32850626 0.015875043 0.85380328 1.0770307e-38
0.31284645 0.062709935 0.86178452 1.1692979e-38
0.32157224 0.051438097 0.84684843 1.0863579e-38
0.27759108 0.11915904 0.87740004 1.2706047e-38
0.30313969 0.10103335 0.85743964 1.1876645e-38
0.23012739 0.13191412 0.86616927 1.3534727e-38
0.26185361 0.13182755 0.85908884 1.3166663e-38
0.29186821 0.1291904 0.85001707 1.2061035e-38
0.37912923 0.15720676 0.84122211 1.4735417e-38
0.38574362 0.17222895 0.84549993 1.9895502e-38
0.41570228 0.18737055 0.8601622 1.7683172e-38
0.44150859 0.19148763 0.87800002 1.6669733e-38
0.35744253 -0.090057291 0.89621449 4.604039e-39
0.36474591 -0.091352403 0.88819575 3.8679103e-39
0.33058903 -0.047750276 0.88942015 3.5927485e-39
0.31736174 -0.022364033 0.88823086 5.2504678e-39
0.32454646 -0.033079963 0.88609993 4.0515686e-39
0.30784693 0.023785295 0.90040004 6.3539286e-39
0.30505285 0.057428665 0.89044303 9.9466673e-39
0.22211058 0.11751126 0.89356166 1.390461e-38
0.26757544 0.11494338 0.89484257 1.2705691e-38
0.29029715 0.097658128 0.88931811 1.2061761e-38
0.22253761 0.12316083 0.88335067 1.3626921e-38
0.25119901 0.12220301 0.88405669 1.3259577e-38
0.43264884 0.18424645 0.89391667 1.6760851e-38
0.44451466 0.18586524 0.89230442 1.5748498e-38
0.43695241 0.17971429 0.92500007 1.731837e-38
0.11002836 0.23878157 0.69764739 1.0495158e-38
0.15632063 0.18288915 0.67141163 1.1606201e-38
-0.093296751 0.12044063 0.79795665 1.280474e-38
0.12192413 0.10935071 0.69934291 1.0132152e-38
0.16336609 0.15948726 0.63420117 1.6398915e-38
0.084214047 0.32557613 0.74789238 5.2443343e-39
