# .PCD v0.7 - Point Cloud Data file format
VERSION 0.7
FIELDS x y z rgb
SIZE 4 4 4 4
TYPE F F F F
COUNT 1 1 1 1
WIDTH 1019
HEIGHT 1
VIEWPOINT 0 0 0 1 0 0 0
POINTS 1019
DATA ascii
-0.77793604 -0.54152632 1.977723 2.1449851e-38
-0.75390559 -0.52537978 1.9876366 2.1449851e-38
-0.77221811 -0.5029878 1.9698991 2.1449851e-38
-0.74854189 -0.4985882 1.9798838 2.1449851e-38
-0.76322198 -0.47068477 1.9690002 2.1449851e-38
-0.7395162 -0.4630686 1.973212 2.1449851e-38
-0.70555842 -0.45227572 1.989062 2.1449851e-38
-0.72884256 -0.42422068 1.9690009 2.1449851e-38
-0.70012575 -0.42083669 1.982733 2.1449851e-38
-0.67130125 -0.41248491 1.9920006 2.1449851e-38
-0.72196674 -0.39942575 1.9690001 2.1449851e-38
-0.69445527 -0.38362083 1.9736425 2.1449851e-38
-0.66364527 -0.37684658 1.9887648 2.1449851e-38
-0.63364571 -0.36235431 1.9920001 2.1449851e-38
-0.68787628 -0.35255432 1.97 2.1449851e-38
-0.65558881 -0.34396371 1.9746455 2.1449851e-38
-0.62518054 -0.33506402 1.9900538 2.1449851e-38
-0.64317101 -0.31051013 1.9712 2.1449851e-38
-0.61827481 -0.30221233 1.9790618 2.1449851e-38
-0.58901107 -0.29250866 1.9911996 2.1449851e-38
-0.6067583 -0.27454954 1.9745001 2.1449851e-38
-0.58074218 -0.2622413 1.9867393 2.1449851e-38
-0.54237205 -0.27086988 1.9920003 2.1449851e-38
-0.58645719 -0.23948573 1.9800001 2.1449851e-38
1.0233496 -0.18789975 1.9781818 2.1449851e-38
-0.48851532 -0.14495343 1.9747244 2.1449851e-38
-0.46883395 -0.13844803 1.9739031 2.1449851e-38
-0.10227325 0.35166129 1.9920005 2.1449851e-38
-0.09131635 0.37527719 1.9915719 2.1449851e-38
-0.053577937 0.38629761 1.9920005 2.1449851e-38
-0.088089839 0.41146573 1.9843333 2.1449851e-38
-0.060549326 0.41869271 1.9881116 2.1449851e-38
-0.033143878 0.42082915 1.9898665 2.1449851e-38
-0.062231287 0.44454098 1.9862858 2.1449851e-38
-0.03794286 0.4420343 1.9920001 2.1449851e-38
-0.94780028 -0.15893213 1.6986998 2.1449851e-38
-0.73820561 -0.046884418 1.7714977 2.1449851e-38
-0.73192 -0.38574859 1.9266768 2.1449851e-38
-0.42457962 -0.43960711 1.9786301 2.1449851e-38
-0.044556379 -0.69117957 1.9820085 2.1449851e-38
-0.53340381 -0.49867469 1.9166269 2.1449851e-38
-0.91128999 -0.35686454 1.8090696 2.1449851e-38
-0.85548806 -0.10246196 1.7306383 2.1449851e-38
-0.68101454 0.13793944 1.7348382 2.1449851e-38
-0.62080628 0.18167579 1.7487379 2.1449851e-38
-0.543652 0.50535417 1.6399608 2.1449851e-38
-0.88923407 -0.60097861 1.9461448 2.1449851e-38
-0.89509761 -0.75816733 2.0138984 2.1449851e-38
-0.86150295 -0.77630335 2.0243032 2.1449851e-38
-0.83394277 -0.77504808 2.0368185 2.1449851e-38
0.012199958 -0.79342777 2.0343876 2.1449851e-38
0.031186871 -0.79278123 2.0344815 2.1449851e-38
0.067327753 -0.79088295 2.0341079 2.1449851e-38
0.063729778 -0.79529816 2.0390003 2.1449851e-38
-0.016287705 -0.7295956 2.0126381 2.1449851e-38
-0.02588523 -0.68381512 2.0012259 2.1449851e-38
0.054246042 -0.61268049 1.9971451 2.1449851e-38
0.10641746 -0.66340739 1.9992254 2.1449851e-38
0.12246975 -0.67738175 1.9959311 2.1449851e-38
0.20925501 -0.69181168 1.9973228 2.1449851e-38
0.24942932 -0.66259664 1.9849845 2.1449851e-38
0.28674778 -0.67731667 1.9871718 2.1449851e-38
0.41854927 -0.77224392 2.014348 2.1449851e-38
0.45887154 -0.77304363 2.0177214 2.1449851e-38
0.50099039 -0.7705102 2.0175719 2.1449851e-38
0.54041165 -0.77229112 2.0156934 2.1449851e-38
0.57401258 -0.77006739 2.012784 2.1449851e-38
0.61607885 -0.76301712 2.0079999 2.1449851e-38
0.65049809 -0.76325953 2.003 2.1449851e-38
1.0396523 -0.76113999 2.003 2.1449851e-38
1.0434676 -0.76113999 2.003 2.1449851e-38
-0.92138004 -0.75732476 2.003 2.1449851e-38
-0.89675003 -0.74022341 2.0106854 2.1449851e-38
-0.85617191 -0.74254686 2.010565 2.1449851e-38
-0.82408369 -0.73383951 2.0301306 2.1449851e-38
-0.79569548 -0.72481591 2.0389998 2.1449851e-38
0.25827333 -0.75928479 2.039 2.1449851e-38
0.34102526 -0.75905704 2.0345001 2.1449851e-38
0.37519288 -0.75913298 2.036 2.1449851e-38
0.42837122 -0.75805217 2.0312858 2.1449851e-38
0.45753962 -0.75903267 2.0342002 2.1449851e-38
0.48780474 -0.75852823 2.0245998 2.1449851e-38
0.55344284 -0.75928479 2.039 2.1449851e-38
0.5846805 -0.74760717 2.0190713 2.1449851e-38
0.62087584 -0.75122792 2.0271454 2.1449851e-38
0.66042781 -0.74155957 2.0220664 2.1449851e-38
0.69969475 -0.73795724 2.0229557 2.1449851e-38
0.7381438 -0.73596406 2.0226374 2.1449851e-38
0.7789427 -0.72650582 2.0190644 2.1449851e-38
0.81640965 -0.72718233 2.0219288 2.1449851e-38
0.84882039 -0.72249281 2.0184288 2.1449851e-38
0.90463448 -0.72370797 2.0150001 2.1449851e-38
0.93802989 -0.72505671 2.0191858 2.1449851e-38
0.96911907 -0.723481 2.0150001 2.1449851e-38
1.029404 -0.73878038 2.0035989 2.1449851e-38
1.0466166 -0.73289424 2.0123334 2.1449851e-38
-0.88990515 -0.71127427 2.0039594 2.1449851e-38
-0.85674548 -0.70211625 2.0029993 2.1449851e-38
-0.82201123 -0.69950414 2.0154872 2.1449851e-38
-0.79354876 -0.69432884 2.0291004 2.1449851e-38
0.77853566 -0.7128309 2.0318 2.1449851e-38
0.82452625 -0.7116425 2.0326474 2.1449851e-38
0.8614015 -0.70637679 2.0254745 2.1449851e-38
0.90291995 -0.70035535 2.0273159 2.1449851e-38
0.94077432 -0.69765419 2.0182722 2.1449851e-38
0.97996128 -0.7012403 2.0202565 2.1449851e-38
1.0185161 -0.70166296 2.0249372 2.1449851e-38
1.0490452 -0.70718575 2.0290694 2.1449851e-38
-0.84221381 -0.67338955 2.003 2.1449851e-38
-0.81755853 -0.661165 2.0102477 2.1449851e-38
-0.78099889 -0.65805501 2.0237596 2.1449851e-38
-0.73598194 -0.64406508 2.039 2.1449851e-38
0.94539458 -0.67702085 2.0252862 2.1449851e-38
0.97375393 -0.67441189 2.0310004 2.1449851e-38
1.0224128 -0.67456913 2.0389998 2.1449851e-38
1.0428028 -0.66995716 2.039 2.1449851e-38
-0.80865502 -0.63070858 2.0052216 2.1449851e-38
-0.77944493 -0.62012953 2.0136228 2.1449851e-38
-0.74511886 -0.61573923 2.0340242 2.1449851e-38
-0.71170807 -0.60296142 2.0389998 2.1449851e-38
-0.77082348 -0.58482069 2.0047133 2.1449851e-38
-0.74173486 -0.57877833 2.0242817 2.1449851e-38
-0.7073077 -0.57787436 2.0368011 2.1449851e-38
-0.76252729 -0.54956776 2.0030003 2.1449851e-38
-0.73775703 -0.54059905 2.01016 2.1449851e-38
-0.69965667 -0.53768945 2.0254858 2.1449851e-38
-0.67772478 -0.53596574 2.039 2.1449851e-38
-0.73115772 -0.50199926 2.006063 2.1449851e-38
-0.6994102 -0.49890444 2.0148983 2.1449851e-38
-0.66264534 -0.4975214 2.0370979 2.1449851e-38
-0.72680283 -0.4788124 2.003 2.1449851e-38
-0.69741988 -0.46676418 2.0043535 2.1449851e-38
-0.66019762 -0.45953694 2.0191789 2.1449851e-38
-0.63105643 -0.45484641 2.0376163 2.1449851e-38
-0.65573728 -0.42326018 2.005651 2.1449851e-38
-0.62191075 -0.41799182 2.0268865 2.1449851e-38
-0.5942229 -0.40877098 2.039 2.1449851e-38
-0.55344284 -0.40197429 2.039 2.1449851e-38
-0.64773536 -0.38645735 2.0029993 2.1449851e-38
-0.61813796 -0.38041422 2.0148323 2.1449851e-38
-0.58064497 -0.37602738 2.0384867 2.1449851e-38
-0.54370147 -0.37650666 2.0390007 2.1449851e-38
1.0563962 -0.36313617 2.039 2.1449851e-38
-0.61123794 -0.34718898 2.008142 2.1449851e-38
-0.57863218 -0.34022385 2.0203331 2.1449851e-38
-0.53941929 -0.33984092 2.0304277 2.1449851e-38
-0.51196784 -0.33032057 2.0378006 2.1449851e-38
1.038919 -0.33650437 2.039 2.1449851e-38
1.0512178 -0.33767566 2.0390007 2.1449851e-38
-0.57538515 -0.30537629 2.0041826 2.1449851e-38
-0.54007411 -0.29896295 2.0132413 2.1449851e-38
-0.50563014 -0.29752436 2.034416 2.1449851e-38
-0.47166714 -0.28589153 2.039 2.1449851e-38
1.0378059 -0.3001602 2.0319412 2.1449851e-38
1.0446842 -0.29705417 2.0267146 2.1449851e-38
-0.5627476 -0.26363298 2.003 2.1449851e-38
-0.5436157 -0.27047873 2.0087135 2.1449851e-38
-0.49956357 -0.27608824 2.0377369 2.1449851e-38
-0.47064352 -0.27567652 2.0336666 2.1449851e-38
1.0320045 -0.25317398 2.0343337 2.1449851e-38
1.0469648 -0.26364675 2.0294003 2.1449851e-38
1.0273619 -0.22039752 2.0242424 2.1449851e-38
1.0446841 -0.22239502 2.02175 2.1449851e-38
1.0278838 -0.19181509 2.0177271 2.1449851e-38
-0.090027146 0.27783763 2.033 2.1449851e-38
-0.089683428 0.30162457 2.0264785 2.1449851e-38
-0.056124493 0.3012915 2.0386374 2.1449851e-38
-0.036896192 0.31005746 2.039 2.1449851e-38
-0.089881375 0.33826604 2.0081103 2.1449851e-38
-0.059389394 0.33917722 2.0208597 2.1449851e-38
-0.025316773 0.34496805 2.0357103 2.1449851e-38
-0.089658104 0.38152388 2.0029993 2.1449851e-38
-0.060831625 0.37709764 2.0044358 2.1449851e-38
-0.01974614 0.3802875 2.0229278 2.1449851e-38
0.0056309518 0.38690671 2.0384002 2.1449851e-38
-0.062951431 0.40823048 2.003 2.1449851e-38
-0.013829471 0.41791534 2.0154991 2.1449851e-38
0.017675746 0.42343581 2.0330005 2.1449851e-38
0.04042 0.4272286 2.0210001 2.1449851e-38
-0.061679684 0.44574699 2.003 2.1449851e-38
-0.011791701 0.44370222 2.0218573 2.1449851e-38
0.015489523 0.4424167 2.033 2.1449851e-38
-0.68861592 0.032942411 1.7675369 2.1449851e-38
-0.72239649 -0.2863895 1.8935244 2.1449851e-38
-0.67244202 -0.44979477 1.9718736 2.1449851e-38
-0.78825575 -0.80573785 2.0760002 2.1449851e-38
-0.97022414 -0.64931381 1.9121935 2.1449851e-38
-0.77930033 -0.52052522 1.9445311 2.1449851e-38
-0.61140823 -0.66857684 2.0277503 2.1449851e-38
-0.55170238 -0.64444011 2.0335977 2.1449851e-38
-0.40592796 -0.67905766 1.92274 2.1449851e-38
-0.20901124 -0.79459661 2.0452154 2.1449851e-38
-0.44026557 -0.77730525 2.0476441 2.1449851e-38
-0.39395678 -0.75881666 2.0488086 2.1449851e-38
-0.34557024 -0.73646545 2.0463481 2.1449851e-38
-0.33539614 -0.67309552 2.0281935 2.1449851e-38
-0.21672025 -0.68731147 2.0355632 2.1449851e-38
-0.20075712 -0.69495225 2.0347822 2.1449851e-38
-0.16455659 -0.71666718 2.0208766 2.1449851e-38
-0.062897339 -0.80360138 2.0510004 2.1449851e-38
-0.025393335 -0.80282003 2.0510001 2.1449851e-38
-0.8540951 -0.79573911 2.0510004 2.1449851e-38
-0.81796861 -0.78013623 2.0600872 2.1449851e-38
-0.78432977 -0.77886039 2.0738614 2.1449851e-38
-0.75724578 -0.76120007 2.0760002 2.1449851e-38
-0.36181718 -0.79678869 2.0760002 2.1449851e-38
-0.34995434 -0.79678869 2.0760002 2.1449851e-38
-0.29462823 -0.79736263 2.0734003 2.1449851e-38
-0.2621243 -0.79822344 2.0695 2.1449851e-38
-0.21727292 -0.79383415 2.0668554 2.1449851e-38
-0.17733593 -0.79536974 2.0684106 2.1449851e-38
-0.14019196 -0.79055947 2.0666382 2.1449851e-38
-0.098542914 -0.79307616 2.0678728 2.1449851e-38
-0.058570184 -0.78460044 2.0586452 2.1449851e-38
-0.022086743 -0.78730941 2.0609159 2.1449851e-38
0.022668708 -0.78030491 2.0621002 2.1449851e-38
0.056921326 -0.78193969 2.0608273 2.1449851e-38
0.097960472 -0.77135092 2.0642083 2.1449851e-38
0.14096034 -0.76916736 2.0666733 2.1449851e-38
0.18106091 -0.77010626 2.0654638 2.1449851e-38
0.21963933 -0.77003354 2.0630388 2.1449851e-38
0.25883493 -0.76512009 2.0611529 2.1449851e-38
0.2986494 -0.76458943 2.0572863 2.1449851e-38
0.33132589 -0.76361859 2.0573158 2.1449851e-38
0.39148992 -0.76261348 2.0593078 2.1449851e-38
0.41136149 -0.76365715 2.0572858 2.1449851e-38
0.46606538 -0.76570672 2.0510004 2.1449851e-38
0.50298333 -0.76375335 2.0510004 2.1449851e-38
0.53894246 -0.76446372 2.0510006 2.1449851e-38
0.56255996 -0.76375335 2.0510001 2.1449851e-38
-0.84188676 -0.75594008 2.0510001 2.1449851e-38
-0.81900686 -0.75176835 2.0527143 2.1449851e-38
-0.77852768 -0.73758888 2.0609028 2.1449851e-38
-0.7556569 -0.73099625 2.071667 2.1449851e-38
0.1146743 -0.75724578 2.0760002 2.1449851e-38
0.12456002 -0.75724578 2.0760002 2.1449851e-38
0.18189716 -0.75447792 2.0760002 2.1449851e-38
0.22157182 -0.7559278 2.0760002 2.1449851e-38
0.26826891 -0.74849319 2.0715864 2.1449851e-38
0.29820505 -0.7507025 2.0710015 2.1449851e-38
0.34027302 -0.75293005 2.0664546 2.1449851e-38
0.38007683 -0.75124186 2.0657711 2.1449851e-38
0.42260873 -0.74538422 2.0634458 2.1449851e-38
0.46001396 -0.74369705 2.0589538 2.1449851e-38
0.50117713 -0.74606931 2.063971 2.1449851e-38
0.53996259 -0.74371451 2.0620766 2.1449851e-38
0.57882792 -0.74084234 2.0581615 2.1449851e-38
0.62236387 -0.73327726 2.0573435 2.1449851e-38
0.65742964 -0.73095208 2.0591094 2.1449851e-38
0.70169783 -0.72667521 2.0590217 2.1449851e-38
0.7420615 -0.72695601 2.0572002 2.1449851e-38
0.76949072 -0.72411329 2.0587368 2.1449851e-38
-0.77668053 -0.70208263 2.0544882 2.1449851e-38
-0.74295849 -0.69584024 2.0675821 2.1449851e-38
-0.71770293 -0.68409151 2.0760002 2.1449851e-38
0.59868807 -0.71472919 2.0584002 2.1449851e-38
0.61232263 -0.71606308 2.0615718 2.1449851e-38
0.66612655 -0.71709985 2.0591669 2.1449851e-38
0.69940841 -0.71617025 2.0602503 2.1449851e-38
0.73634464 -0.71265239 2.0672004 2.1449851e-38
0.78139466 -0.70642185 2.0675948 2.1449851e-38
0.81731761 -0.70449948 2.0612359 2.1449851e-38
0.86056834 -0.69162422 2.063699 2.1449851e-38
0.89720094 -0.68683326 2.0656345 2.1449851e-38
0.93730742 -0.68607944 2.0664058 2.1449851e-38
0.96731794 -0.68439215 2.0630002 2.1449851e-38
1.0092566 -0.68344116 2.0610003 2.1449851e-38
1.0610263 -0.69147062 2.0614083 2.1449851e-38
1.0814974 -0.68606871 2.0760002 2.1449851e-38
-0.76609737 -0.66738892 2.0510006 2.1449851e-38
-0.74040204 -0.66083258 2.0560455 2.1449851e-38
-0.70239645 -0.65575385 2.0716689 2.1449851e-38
-0.67816007 -0.65048009 2.0760002 2.1449851e-38
0.8699429 -0.67816007 2.0760002 2.1449851e-38
0.91252285 -0.67676347 2.0704448 2.1449851e-38
0.9423421 -0.66884255 2.070116 2.1449851e-38
0.97883654 -0.66684663 2.0674946 2.1449851e-38
1.0162832 -0.66608447 2.0645695 2.1449851e-38
1.0561035 -0.67117208 2.0718932 2.1449851e-38
1.0814973 -0.67618293 2.0760002 2.1449851e-38
-0.73328137 -0.62450248 2.0510006 2.1449851e-38
-0.69814634 -0.62142766 2.0579195 2.1449851e-38
-0.6739316 -0.61248261 2.0722859 2.1449851e-38
-0.73171872 -0.59732938 2.0510004 2.1449851e-38
-0.69000846 -0.58252329 2.0514221 2.1449851e-38
-0.66617483 -0.57932949 2.0658021 2.1449851e-38
-0.68338764 -0.53912008 2.0510006 2.1449851e-38
-0.65941769 -0.54020834 2.0558813 2.1449851e-38
-0.63096768 -0.53696328 2.0707054 2.1449851e-38
1.0735887 -0.52789718 2.0760002 2.1449851e-38
-0.68562007 -0.51763332 2.0510001 2.1449851e-38
-0.65014744 -0.50231916 2.0509996 2.1449851e-38
-0.623972 -0.49823695 2.0608075 2.1449851e-38
-0.59204447 -0.48352131 2.0760002 2.1449851e-38
-0.55360007 -0.48044574 2.0760002 2.1449851e-38
1.073893 -0.50310677 2.0760002 2.1449851e-38
-0.61346018 -0.46319884 2.0546291 2.1449851e-38
-0.58483797 -0.45464349 2.0735645 2.1449851e-38
-0.55390424 -0.45701361 2.0745883 2.1449851e-38
1.0647614 -0.45665139 2.0722878 2.1449851e-38
-0.60720772 -0.43140763 2.0510006 2.1449851e-38
-0.58151251 -0.41902375 2.0569293 2.1449851e-38
-0.54279131 -0.41730848 2.0657365 2.1449851e-38
-0.5199886 -0.40531433 2.0760002 2.1449851e-38
1.036682 -0.41124576 2.0760002 2.1449851e-38
1.0584924 -0.41781497 2.0698192 2.1449851e-38
-0.57582921 -0.38817444 2.0509996 2.1449851e-38
-0.52873021 -0.38433188 2.059387 2.1449851e-38
-0.50369817 -0.37679622 2.0755088 2.1449851e-38
-0.47490975 -0.36498061 2.0760002 2.1449851e-38
1.0321429 -0.37324235 2.0717845 2.1449851e-38
1.0556883 -0.38178942 2.0648289 2.1449851e-38
-0.49648225 -0.34232926 2.0628841 2.1449851e-38
-0.46913838 -0.33382899 2.0753343 2.1449851e-38
1.0331395 -0.34143382 2.0686994 2.1449851e-38
1.0483544 -0.34321353 2.0581467 2.1449851e-38
-0.4888016 -0.30762807 2.0529997 2.1449851e-38
-0.45947585 -0.30180252 2.0657697 2.1449851e-38
-0.43596005 -0.29756001 2.0760002 2.1449851e-38
1.0311499 -0.3005282 2.068897 2.1449851e-38
1.0423027 -0.30186614 2.0544288 2.1449851e-38
-0.45903334 -0.27932668 2.0510001 2.1449851e-38
1.0225378 -0.26066884 2.0666084 2.1449851e-38
1.0431218 -0.26557586 2.0534 2.1449851e-38
0.99687558 -0.21629944 2.0760002 2.1449851e-38
1.0159965 -0.21972448 2.0640013 2.1449851e-38
0.99450296 -0.19969144 2.0760002 2.1449851e-38
1.0223444 -0.19513068 2.0596666 2.1449851e-38
-0.06129143 0.1561943 2.0760002 2.1449851e-38
-0.057996199 0.18255621 2.0760002 2.1449851e-38
-0.052555352 0.22546682 2.0718877 2.1449851e-38
-0.036247626 0.23264384 2.0760002 2.1449851e-38
-0.083743237 0.27276438 2.0546005 2.1449851e-38
-0.056562722 0.26250395 2.0582633 2.1449851e-38
-0.024775613 0.2646533 2.0701993 2.1449851e-38
0.0019771431 0.27482289 2.0760002 2.1449851e-38
-0.080086671 0.29690668 2.0510001 2.1449851e-38
-0.066367909 0.29795149 2.0510004 2.1449851e-38
-0.019363472 0.30019295 2.0602937 2.1449851e-38
0.0034150656 0.30681664 2.0760002 2.1449851e-38
-0.068366669 0.32230002 2.0510001 2.1449851e-38
-0.011645748 0.3331897 2.0526807 2.1449851e-38
0.017605186 0.34290063 2.0615122 2.1449851e-38
0.041520003 0.34995434 2.0760002 2.1449851e-38
-0.0019533334 0.36332002 2.0510001 2.1449851e-38
0.022477783 0.37836316 2.0571451 2.1449851e-38
0.051063519 0.38542017 2.0738351 2.1449851e-38
0.027873822 0.40720469 2.0523331 2.1449851e-38
0.055983443 0.41557914 2.0576427 2.1449851e-38
0.081062868 0.40729147 2.0760002 2.1449851e-38
-0.65966374 -0.52393913 1.9243706 2.1449851e-38
-0.74965411 -0.71895158 2.0530112 2.1449851e-38
-0.72955 -0.78345531 2.076061 2.1449851e-38
-0.67962253 -0.77557462 2.0786073 2.1449851e-38
-0.64098465 -0.74554271 2.0699518 2.1449851e-38
-0.59060031 -0.74233001 2.0749927 2.1449851e-38
-0.53956604 -0.80619144 2.1009996 2.1449851e-38
-0.50097024 -0.79871106 2.095397 2.1449851e-38
-0.46099615 -0.80836356 2.0966656 2.1449851e-38
-0.42180949 -0.80798161 2.0966656 2.1449851e-38
-0.38571092 -0.80359387 2.0984838 2.1449851e-38
-0.32942331 -0.80245274 2.0945001 2.1449851e-38
-0.31716716 -0.80188811 2.0945001 2.1449851e-38
-0.26201704 -0.80150414 2.0894444 2.1449851e-38
-0.80139434 -0.77753145 2.0880001 2.1449851e-38
-0.77206242 -0.77939254 2.0893683 2.1449851e-38
-0.7400161 -0.78028643 2.0983746 2.1449851e-38
-0.71412647 -0.78176266 2.1116047 2.1449851e-38
-0.57045531 -0.79708439 2.1112144 2.1449851e-38
-0.54003453 -0.79718876 2.1127 2.1449851e-38
-0.5029307 -0.79889077 2.1140001 2.1449851e-38
-0.4512969 -0.79906499 2.11075 2.1449851e-38
-0.40909716 -0.79331303 2.1122272 2.1449851e-38
-0.37899578 -0.79260862 2.1123035 2.1449851e-38
-0.34029219 -0.79243451 2.1089995 2.1449851e-38
-0.29926199 -0.7918818 2.104599 2.1449851e-38
-0.26042226 -0.79029506 2.1057262 2.1449851e-38
-0.22077183 -0.77827841 2.1023672 2.1449851e-38
-0.18090542 -0.77947605 2.1023228 2.1449851e-38
-0.13947318 -0.77286321 2.1001434 2.1449851e-38
-0.099741451 -0.7779513 2.10132 2.1449851e-38
-0.060497358 -0.76918525 2.0953956 2.1449851e-38
-0.018955031 -0.77122438 2.0918989 2.1449851e-38
0.016582996 -0.76776761 2.0932548 2.1449851e-38
0.063389778 -0.76692235 2.0921361 2.1449851e-38
0.091181949 -0.7661857 2.0955005 2.1449851e-38
0.14737523 -0.76250672 2.0880001 2.1449851e-38
0.16372572 -0.76294863 2.0880001 2.1449851e-38
0.24658287 -0.76162291 2.0880001 2.1449851e-38
-0.7617709 -0.74983454 2.0906003 2.1449851e-38
-0.73920715 -0.73996383 2.0914652 2.1449851e-38
-0.70244944 -0.73878509 2.1023674 2.1449851e-38
-0.67446673 -0.72631001 2.1140001 2.1449851e-38
-0.16889629 -0.75678968 2.1140001 2.1449851e-38
-0.14830759 -0.75619048 2.112227 2.1449851e-38
-0.055026293 -0.75272548 2.1076663 2.1449851e-38
-0.020177355 -0.75468928 2.1078243 2.1449851e-38
0.017303508 -0.75480682 2.1101944 2.1449851e-38
0.06131161 -0.75269902 2.1063688 2.1449851e-38
0.10322248 -0.75081098 2.1037357 2.1449851e-38
0.13970417 -0.7524119 2.1020644 2.1449851e-38
0.17952549 -0.74733984 2.0973496 2.1449851e-38
0.21982847 -0.74819523 2.0984385 2.1449851e-38
0.2589086 -0.74050361 2.0968463 2.1449851e-38
0.29969001 -0.73721188 2.1047137 2.1449851e-38
0.33910108 -0.73541933 2.1011434 2.1449851e-38
0.37898263 -0.73907387 2.1070538 2.1449851e-38
0.41811848 -0.73176241 2.1051519 2.1449851e-38
0.46086752 -0.72708595 2.0978792 2.1449851e-38
0.50088388 -0.72869462 2.0941315 2.1449851e-38
0.54268861 -0.72623932 2.0986054 2.1449851e-38
0.57826054 -0.72613049 2.0981739 2.1449851e-38
0.61514068 -0.72400314 2.0920625 2.1449851e-38
0.65569723 -0.7256937 2.0891819 2.1449851e-38
0.7034955 -0.72368705 2.0879998 2.1449851e-38
0.74099135 -0.72334284 2.0879998 2.1449851e-38
0.76560009 -0.72469223 2.0880003 2.1449851e-38
-0.73123741 -0.70960182 2.0880003 2.1449851e-38
-0.69988245 -0.70094466 2.0954797 2.1449851e-38
-0.66795254 -0.6976918 2.1113551 2.1449851e-38
0.34226668 -0.71876007 2.1140001 2.1449851e-38
0.42570809 -0.71443701 2.1131337 2.1449851e-38
0.45606247 -0.70943284 2.1108611 2.1449851e-38
0.50118023 -0.71436101 2.1086667 2.1449851e-38
0.53883952 -0.71456122 2.1119471 2.1449851e-38
0.58526736 -0.7130636 2.1099992 2.1449851e-38
0.61888307 -0.70819455 2.1002865 2.1449851e-38
0.66148144 -0.71046489 2.1023574 2.1449851e-38
0.69822687 -0.7062034 2.1007001 2.1449851e-38
0.73936546 -0.70379037 2.097713 2.1449851e-38
0.77800655 -0.69773793 2.0963862 2.1449851e-38
0.82149452 -0.69398272 2.0971537 2.1449851e-38
0.85230011 -0.68981868 2.0914044 2.1449851e-38
0.89366406 -0.68287545 2.0880001 2.1449851e-38
-0.69068044 -0.6704756 2.0885203 2.1449851e-38
-0.65954614 -0.65952128 2.0980272 2.1449851e-38
-0.63647461 -0.65207338 2.112375 2.1449851e-38
0.83587182 -0.67520386 2.1088002 2.1449851e-38
0.86163038 -0.67348289 2.0998435 2.1449851e-38
0.90215325 -0.67212701 2.1000359 2.1449851e-38
0.93641496 -0.66105533 2.1007991 2.1449851e-38
0.97725874 -0.65121824 2.0994797 2.1449851e-38
1.0201616 -0.6502015 2.1036527 2.1449851e-38
1.0625374 -0.66093516 2.1072748 2.1449851e-38
1.08979 -0.65831798 2.1096659 2.1449851e-38
-0.68208003 -0.63833147 2.0880001 2.1449851e-38
-0.65746361 -0.62287533 2.0931692 2.1449851e-38
-0.62978947 -0.61784589 2.1065366 2.1449851e-38
0.95432001 -0.63420004 2.1140001 2.1449851e-38
0.97738034 -0.63499409 2.1110001 2.1449851e-38
1.0754555 -0.61943561 2.1140003 2.1449851e-38
1.0874602 -0.61876535 2.107275 2.1449851e-38
-0.6492402 -0.58492392 2.0880001 2.1449851e-38
-0.62241328 -0.5793007 2.0984523 2.1449851e-38
-0.58952987 -0.56779391 2.1101768 2.1449851e-38
-0.5576933 -0.56172001 2.1140001 2.1449851e-38
1.0756233 -0.57128334 2.1140001 2.1449851e-38
1.0890529 -0.58070487 2.1090353 2.1449851e-38
-0.61351615 -0.54064155 2.0919712 2.1449851e-38
-0.58145434 -0.54050922 2.1079679 2.1449851e-38
-0.55180824 -0.5273385 2.1140003 2.1449851e-38
1.0673829 -0.53502512 2.1087534 2.1449851e-38
1.0866535 -0.54979652 2.1010005 2.1449851e-38
-0.60916573 -0.50890875 2.0880003 2.1449851e-38
-0.58133805 -0.50213528 2.0944223 2.1449851e-38
-0.54161811 -0.49866322 2.1023753 2.1449851e-38
-0.51742667 -0.48118669 2.1140001 2.1449851e-38
1.0634397 -0.50052398 2.1018028 2.1449851e-38
1.0837715 -0.49515426 2.0880001 2.1449851e-38
-0.58300239 -0.4705897 2.0880001 2.1449851e-38
-0.53526384 -0.4617708 2.0914402 2.1449851e-38
-0.50654823 -0.45489001 2.1035151 2.1449851e-38
1.0290315 -0.45295662 2.1122887 2.1449851e-38
1.0498335 -0.46127495 2.0988321 2.1449851e-38
-0.52962291 -0.43118858 2.0880003 2.1449851e-38
-0.50104588 -0.42055193 2.0962486 2.1449851e-38
-0.46508002 -0.40504605 2.1140003 2.1449851e-38
1.0320094 -0.41895431 2.1034646 2.1449851e-38
1.0461078 -0.42600986 2.0890403 2.1449851e-38
-0.49093813 -0.39159113 2.0893452 2.1449851e-38
-0.45928714 -0.37931162 2.1005926 2.1449851e-38
-0.42229664 -0.36390999 2.1140001 2.1449851e-38
-0.39528447 -0.36172891 2.1140001 2.1449851e-38
1.0249792 -0.38144785 2.1030416 2.1449851e-38
1.0459886 -0.39572573 2.0880003 2.1449851e-38
-0.4553625 -0.34396505 2.090199 2.1449851e-38
-0.4226965 -0.33608881 2.1020694 2.1449851e-38
-0.38949165 -0.33509275 2.1126451 2.1449851e-38
1.0236371 -0.33836156 2.1014688 2.1449851e-38
1.0400229 -0.34004572 2.0880001 2.1449851e-38
-0.4444457 -0.3132 2.0880001 2.1449851e-38
-0.4205429 -0.30817944 2.0906475 2.1449851e-38
-0.38855264 -0.30945429 2.1077092 2.1449851e-38
1.0179088 -0.30001062 2.1027451 2.1449851e-38
0.9948293 -0.26073951 2.1114004 2.1449851e-38
1.0071244 -0.26149833 2.1018655 2.1449851e-38
0.9905197 -0.21733803 2.1041505 2.1449851e-38
1.0043365 -0.2208515 2.094842 2.1449851e-38
0.98749578 -0.19870715 2.1075001 2.1449851e-38
1.0142753 -0.19727716 2.0923336 2.1449851e-38
-0.051227801 0.14702718 2.1074998 2.1449851e-38
-0.032739215 0.1516656 2.1101763 2.1449851e-38
-0.048388802 0.17827763 2.0923331 2.1449851e-38
-0.027535049 0.18281533 2.1047449 2.1449851e-38
-0.054874033 0.21594726 2.0888391 2.1449851e-38
-0.020427546 0.22019044 2.0979314 2.1449851e-38
0.01122931 0.23064317 2.1106446 2.1449851e-38
-0.069600008 0.24989715 2.0880001 2.1449851e-38
-0.011374358 0.25135514 2.0899999 2.1449851e-38
0.017818855 0.26207426 2.1030109 2.1449851e-38
0.047816664 0.2743167 2.1140001 2.1449851e-38
-0.0033142855 0.28304002 2.0880001 2.1449851e-38
0.021483541 0.29851952 2.0933683 2.1449851e-38
0.047534186 0.30511552 2.11075 2.1449851e-38
0.028372983 0.32693714 2.0889635 2.1449851e-38
0.05821722 0.34077966 2.1015897 2.1449851e-38
0.082546666 0.35099113 2.1140001 2.1449851e-38
0.068204373 0.37548798 2.0963719 2.1449851e-38
0.092813261 0.38566148 2.1030388 2.1449851e-38
0.12281334 0.37850669 2.1140001 2.1449851e-38
0.077554286 0.40368 2.0880001 2.1449851e-38
0.087215818 0.40417773 2.0906 2.1449851e-38
-0.69462049 -0.80795187 2.1341186 2.1449851e-38
-0.66068649 -0.80750847 2.1362081 2.1449851e-38
-0.62034112 -0.80668545 2.1353192 2.1449851e-38
-0.59286296 -0.80525309 2.129786 2.1449851e-38
-0.54694289 -0.80015719 2.1270001 2.1449851e-38
-0.49562484 -0.80083245 2.1270003 2.1449851e-38
-0.46222034 -0.8030172 2.1270003 2.1449851e-38
-0.42793214 -0.80066353 2.1270001 2.1449851e-38
-0.69676018 -0.78282613 2.1364198 2.1449851e-38
-0.65960711 -0.77885121 2.1449032 2.1449851e-38
-0.6224221 -0.78783655 2.1504838 2.1449851e-38
-0.57882935 -0.7875908 2.1399996 2.1449851e-38
-0.53914452 -0.78686351 2.1374772 2.1449851e-38
-0.49933043 -0.78745979 2.1398284 2.1449851e-38
-0.45949429 -0.78839576 2.1427462 2.1449851e-38
-0.42119265 -0.78147638 2.138555 2.1449851e-38
-0.38038534 -0.77527565 2.1372466 2.1449851e-38
-0.34003675 -0.77318132 2.1381423 2.1449851e-38
-0.30062827 -0.77409279 2.139133 2.1449851e-38
-0.2606135 -0.77130747 2.1357338 2.1449851e-38
-0.21647595 -0.7632823 2.1366665 2.1449851e-38
-0.1916302 -0.76231396 2.1392353 2.1449851e-38
-0.12712021 -0.76204973 2.1427858 2.1449851e-38
-0.10171521 -0.76522309 2.1397398 2.1449851e-38
-0.077447623 -0.76154351 2.1400001 2.1449851e-38
-0.68671715 -0.74951428 2.1270003 2.1449851e-38
-0.65922087 -0.74098343 2.1425712 2.1449851e-38
-0.63002527 -0.73519474 2.1530001 2.1449851e-38
-0.35419691 -0.75650263 2.14975 2.1449851e-38
-0.24450138 -0.75560021 2.1418571 2.1449851e-38
-0.22211879 -0.75407374 2.1482728 2.1449851e-38
-0.17937875 -0.75293225 2.1467953 2.1449851e-38
-0.13963774 -0.75266445 2.1463411 2.1449851e-38
-0.10057586 -0.74944937 2.1530001 2.1449851e-38
-0.059282254 -0.74052423 2.1441598 2.1449851e-38
-0.020763259 -0.73927021 2.141505 2.1449851e-38
0.021899477 -0.73916185 2.1411059 2.1449851e-38
0.06079575 -0.73906106 2.1427207 2.1449851e-38
0.099912688 -0.73619097 2.136833 2.1449851e-38
0.13919364 -0.73347878 2.1324298 2.1449851e-38
0.17880872 -0.73356032 2.1330659 2.1449851e-38
0.21989341 -0.73294705 2.134835 2.1449851e-38
0.25559837 -0.73054492 2.1356661 2.1449851e-38
0.30527514 -0.72642106 2.1270001 2.1449851e-38
0.33379272 -0.72453052 2.1270001 2.1449851e-38
0.38010505 -0.7272315 2.1269999 2.1449851e-38
0.41932285 -0.72318006 2.1270001 2.1449851e-38
-0.65097439 -0.70494688 2.131062 2.1449851e-38
-0.62278944 -0.70067644 2.1486666 2.1449851e-38
-0.58575279 -0.68371987 2.1530001 2.1449851e-38
-0.045110479 -0.7197172 2.1530001 2.1449851e-38
-0.034858096 -0.7197172 2.1530004 2.1449851e-38
0.0020504764 -0.7197172 2.1530001 2.1449851e-38
0.14244646 -0.71730959 2.1499047 2.1449851e-38
0.18005316 -0.71608633 2.1495788 2.1449851e-38
0.21744168 -0.7164672 2.1492257 2.1449851e-38
0.2633464 -0.71429771 2.1469753 2.1449851e-38
0.30087596 -0.71336943 2.1399999 2.1449851e-38
0.34012756 -0.71187508 2.1360333 2.1449851e-38
0.38195059 -0.71184027 2.1426375 2.1449851e-38
0.42128411 -0.70958167 2.1390841 2.1449851e-38
0.45968276 -0.695768 2.1459088 2.1449851e-38
0.49934289 -0.70579118 2.1462252 2.1449851e-38
0.54032862 -0.70109028 2.1422234 2.1449851e-38
0.57920676 -0.70161575 2.1443331 2.1449851e-38
0.62046248 -0.69447273 2.1398084 2.1449851e-38
0.65930116 -0.69257045 2.1367877 2.1449851e-38
0.70112026 -0.68918532 2.1382828 2.1449851e-38
0.7372489 -0.69154614 2.1402278 2.1449851e-38
0.77955085 -0.6901347 2.1420169 2.1449851e-38
0.81802022 -0.68579626 2.1270001 2.1449851e-38
-0.64215147 -0.67861432 2.1270001 2.1449851e-38
-0.61763138 -0.66071522 2.1407022 2.1449851e-38
-0.58033204 -0.65846491 2.1486104 2.1449851e-38
-0.55807137 -0.65376019 2.1530001 2.1449851e-38
0.63086319 -0.67642933 2.1530001 2.1449851e-38
0.66445339 -0.67616683 2.151762 2.1449851e-38
0.70150417 -0.67320418 2.1517317 2.1449851e-38
0.73983967 -0.67505997 2.1505926 2.1449851e-38
0.78496319 -0.67555505 2.1465001 2.1449851e-38
0.82054329 -0.66858613 2.1420357 2.1449851e-38
0.86005187 -0.66403133 2.1356661 2.1449851e-38
0.90145421 -0.66230541 2.1398165 2.1449851e-38
0.94034582 -0.65007079 2.1385317 2.1449851e-38
0.96372592 -0.64432967 2.1381431 2.1449851e-38
1.0225241 -0.64276308 2.1280003 2.1449851e-38
1.065238 -0.64759701 2.1298106 2.1449851e-38
1.0822287 -0.64403808 2.1400001 2.1449851e-38
-0.61230892 -0.62146842 2.1378684 2.1449851e-38
-0.57822281 -0.61837906 2.1397228 2.1449851e-38
-0.54965717 -0.61349159 2.1498291 2.1449851e-38
0.95396495 -0.63712752 2.1465001 2.1449851e-38
0.98159719 -0.62704754 2.1389799 2.1449851e-38
1.0216632 -0.62913626 2.1403821 2.1449851e-38
1.0610384 -0.62086278 2.1374459 2.1449851e-38
1.0837572 -0.6077143 2.1270001 2.1449851e-38
-0.60703909 -0.59263402 2.1270001 2.1449851e-38
-0.57930833 -0.58224553 2.1311524 2.1449851e-38
-0.54116994 -0.57770377 2.1394086 2.1449851e-38
-0.51502025 -0.57192254 2.1459582 2.1449851e-38
1.036521 -0.56849867 2.142889 2.1449851e-38
1.0616758 -0.57988727 2.1360428 2.1449851e-38
1.0871334 -0.58745718 2.1270001 2.1449851e-38
-0.56627923 -0.54602206 2.1270003 2.1449851e-38
-0.53788769 -0.54052168 2.1286449 2.1449851e-38
-0.50302446 -0.53743678 2.1417873 2.1449851e-38
-0.47403285 -0.52883649 2.1530001 2.1449851e-38
1.0371677 -0.54232228 2.1379197 2.1449851e-38
1.0528883 -0.541731 2.1314683 2.1449851e-38
-0.52650166 -0.50458699 2.1270001 2.1449851e-38
-0.49976525 -0.50062597 2.1370389 2.1449851e-38
-0.46983722 -0.49886656 2.1491275 2.1449851e-38
1.0342679 -0.49664998 2.1376362 2.1449851e-38
1.0482447 -0.50233883 2.1289496 2.1449851e-38
-0.49024653 -0.46452871 2.1311359 2.1449851e-38
-0.4611302 -0.46066052 2.1414769 2.1449851e-38
-0.42182097 -0.44902954 2.1493332 2.1449851e-38
-0.39820251 -0.44495335 2.1530001 2.1449851e-38
1.0189056 -0.46245578 2.1349316 2.1449851e-38
-0.48240942 -0.42655763 2.1270006 2.1449851e-38
-0.45770189 -0.42358065 2.1282833 2.1449851e-38
-0.42210433 -0.41988111 2.1455519 2.1449851e-38
-0.39598304 -0.41802472 2.1524584 2.1449851e-38
1.0184848 -0.41920218 2.1349618 2.1449851e-38
1.0472944 -0.42742574 2.1270001 2.1449851e-38
-0.44536775 -0.39212042 2.1270001 2.1449851e-38
-0.42180875 -0.38081935 2.1299753 2.1449851e-38
-0.3797884 -0.38023099 2.1358018 2.1449851e-38
-0.35488713 -0.36829489 2.1494546 2.1449851e-38
1.0143673 -0.38112578 2.1371632 2.1449851e-38
-0.41384152 -0.35283178 2.1270003 2.1449851e-38
-0.37141785 -0.34275979 2.1304092 2.1449851e-38
-0.34368116 -0.33865842 2.1443942 2.1449851e-38
0.98945051 -0.32966417 2.151 2.1449851e-38
1.0089782 -0.34218168 2.1352389 2.1449851e-38
-0.36876431 -0.30829504 2.1274998 2.1449851e-38
-0.34193105 -0.31074148 2.1383748 2.1449851e-38
0.98515898 -0.29892391 2.1417665 2.1449851e-38
1.0093626 -0.2996324 2.1286247 2.1449851e-38
0.98617423 -0.25979808 2.1408567 2.1449851e-38
1.0034045 -0.27808827 2.1313334 2.1449851e-38
0.97601992 -0.22138053 2.138649 2.1449851e-38
-0.027339682 0.079285085 2.1530001 2.1449851e-38
-0.044453021 0.10959573 2.1378331 2.1449851e-38
-0.022269536 0.10235134 2.1474998 2.1449851e-38
0.0066338931 0.10771032 2.1530001 2.1449851e-38
-0.048064679 0.12798831 2.1270003 2.1449851e-38
-0.018143656 0.13656469 2.1360693 2.1449851e-38
0.013515666 0.14411406 2.1515555 2.1449851e-38
-0.0099477917 0.17490065 2.1287723 2.1449851e-38
0.019897919 0.1801195 2.1430821 2.1449851e-38
0.052498732 0.18947382 2.1487942 2.1449851e-38
-0.0044590482 0.20768078 2.1296003 2.1449851e-38
0.023401173 0.21565318 2.1344528 2.1449851e-38
0.058348406 0.2218989 2.1469641 2.1449851e-38
0.033846967 0.25033382 2.1297371 2.1449851e-38
0.061702982 0.25997555 2.1402762 2.1449851e-38
0.099204011 0.26880768 2.1530001 2.1449851e-38
0.12234509 0.27544734 2.1530004 2.1449851e-38
0.06635002 0.29905042 2.1353049 2.1449851e-38
0.10020311 0.3003813 2.1472957 2.1449851e-38
0.13040155 0.30403757 2.1529999 2.1449851e-38
0.073264815 0.32828164 2.1294377 2.1449851e-38
0.10054598 0.34097099 2.1332104 2.1449851e-38
0.13578753 0.34250095 2.1464999 2.1449851e-38
0.16100954 0.3464762 2.1400001 2.1449851e-38
0.10467455 0.37218678 2.1272702 2.1449851e-38
0.13539886 0.3683579 2.1408668 2.1449851e-38
-0.64184475 -0.76980096 2.1670001 2.1449851e-38
-0.61774093 -0.77414513 2.17979 2.1449851e-38
-0.57753187 -0.77313268 2.1747782 2.1449851e-38
-0.53983092 -0.7724452 2.180934 2.1449851e-38
-0.49965206 -0.77077544 2.1743753 2.1449851e-38
-0.46052 -0.77063578 2.1769254 2.1449851e-38
-0.42359671 -0.76716393 2.1759751 2.1449851e-38
-0.38353601 -0.76442963 2.1682727 2.1449851e-38
-0.33626518 -0.7633695 2.168 2.1449851e-38
-0.29670411 -0.76436347 2.1700001 2.1449851e-38
-0.27035904 -0.76440334 2.1670001 2.1449851e-38
-0.61478001 -0.74243277 2.1730504 2.1449851e-38
-0.57751381 -0.73945487 2.1812832 2.1449851e-38
-0.54709578 -0.74280381 2.1931334 2.1449851e-38
-0.49649429 -0.75455153 2.1922669 2.1449851e-38
-0.4642089 -0.75519603 2.1914837 2.1449851e-38
-0.41612959 -0.75254923 2.1882823 2.1449851e-38
-0.37837186 -0.7512539 2.1817546 2.1449851e-38
-0.3414754 -0.74733263 2.1813121 2.1449851e-38
-0.30024111 -0.74816489 2.1841369 2.1449851e-38
-0.25745305 -0.74974293 2.1836166 2.1449851e-38
-0.218796 -0.7378251 2.1774106 2.1449851e-38
-0.18003617 -0.73502004 2.177541 2.1449851e-38
-0.14195248 -0.74030799 2.1778531 2.1449851e-38
-0.098521888 -0.73611224 2.1796157 2.1449851e-38
-0.065429673 -0.72865397 2.1788421 2.1449851e-38
-0.015940676 -0.72268564 2.1719031 2.1449851e-38
0.02226346 -0.72299427 2.1752632 2.1449851e-38
0.060242824 -0.72515506 2.1812272 2.1449851e-38
0.09726809 -0.72409695 2.1782565 2.1449851e-38
0.13237865 -0.72144896 2.1670001 2.1449851e-38
-0.60442114 -0.7065109 2.1670003 2.1449851e-38
-0.57920915 -0.70256132 2.1732228 2.1449851e-38
-0.54354233 -0.69788343 2.1895206 2.1449851e-38
-0.51611239 -0.68327427 2.194 2.1449851e-38
-0.050502591 -0.71430671 2.1888335 2.1449851e-38
-0.022506213 -0.71372068 2.1893749 2.1449851e-38
0.01461115 -0.71474564 2.1896253 2.1449851e-38
0.060441416 -0.71237284 2.194 2.1449851e-38
0.10448361 -0.70371246 2.1873879 2.1449851e-38
0.14046693 -0.70205134 2.1818941 2.1449851e-38
0.17950815 -0.69962561 2.1813536 2.1449851e-38
0.21999572 -0.70169717 2.1813488 2.1449851e-38
0.2585876 -0.70210201 2.1818223 2.1449851e-38
0.29961804 -0.69543225 2.1760473 2.1449851e-38
0.34137449 -0.69460922 2.1769264 2.1449851e-38
0.37948382 -0.69375491 2.1789365 2.1449851e-38
0.41938314 -0.6926918 2.1741719 2.1449851e-38
0.46062219 -0.68691254 2.173655 2.1449851e-38
0.49729237 -0.68948859 2.1705103 2.1449851e-38
0.53616172 -0.68732166 2.173372 2.1449851e-38
0.58178687 -0.68475002 2.1709523 2.1449851e-38
0.61324519 -0.68661058 2.1794193 2.1449851e-38
0.66248286 -0.68312097 2.1670001 2.1449851e-38
-0.56823558 -0.67761743 2.1670001 2.1449851e-38
-0.53853256 -0.66031003 2.1807396 2.1449851e-38
-0.50686783 -0.65161484 2.194 2.1449851e-38
0.30505678 -0.67723954 2.1898637 2.1449851e-38
0.34091169 -0.67692488 2.192143 2.1449851e-38
0.37744403 -0.67795551 2.1940002 2.1449851e-38
0.42082042 -0.6751582 2.1853333 2.1449851e-38
0.45960823 -0.67756909 2.1851482 2.1449851e-38
0.50147051 -0.67711157 2.1821852 2.1449851e-38
0.54434735 -0.67615557 2.1822059 2.1449851e-38
0.57836205 -0.67593253 2.1858237 2.1449851e-38
0.62757009 -0.67054999 2.1830001 2.1449851e-38
0.65878254 -0.66972035 2.1818907 2.1449851e-38
0.69935602 -0.66829693 2.1853514 2.1449851e-38
0.7413947 -0.66611767 2.1915314 2.1449851e-38
0.78114676 -0.66884923 2.1845801 2.1449851e-38
0.81942445 -0.65336376 2.1805544 2.1449851e-38
0.86035669 -0.65115774 2.17625 2.1449851e-38
0.90030247 -0.64953101 2.1821427 2.1449851e-38
0.93013906 -0.64714313 2.1777143 2.1449851e-38
-0.53319156 -0.62248069 2.174077 2.1449851e-38
-0.50074184 -0.6194827 2.1917586 2.1449851e-38
-0.47562781 -0.61510354 2.194 2.1449851e-38
0.82955283 -0.63286781 2.1914001 2.1449851e-38
0.86219376 -0.62829906 2.1902578 2.1449851e-38
0.89759785 -0.62665039 2.1910818 2.1449851e-38
0.94455826 -0.62693781 2.1840832 2.1449851e-38
0.98145652 -0.6221025 2.1818972 2.1449851e-38
1.0202842 -0.6106565 2.1744642 2.1449851e-38
1.0477529 -0.60894704 2.16924 2.1449851e-38
-0.52214384 -0.59644097 2.1670001 2.1449851e-38
-0.49690986 -0.5823639 2.1790848 2.1449851e-38
-0.46530497 -0.5768761 2.1912742 2.1449851e-38
1.0238323 -0.58288693 2.184 2.1449851e-38
1.0437844 -0.58357435 2.1729231 2.1449851e-38
-0.49072552 -0.55238581 2.1708183 2.1449851e-38
-0.45822644 -0.54192746 2.1807027 2.1449851e-38
-0.42454574 -0.53584552 2.1900001 2.1449851e-38
0.99768537 -0.5355289 2.1858749 2.1449851e-38
1.02 -0.53888547 2.1841488 2.1449851e-38
1.0429163 -0.53953975 2.175909 2.1449851e-38
-0.45205274 -0.50253928 2.1731923 2.1449851e-38
-0.42019004 -0.49904251 2.1798048 2.1449851e-38
-0.38148493 -0.49692023 2.1871941 2.1449851e-38
-0.35730857 -0.48267999 2.194 2.1449851e-38
0.99461329 -0.48685902 2.194 2.1449851e-38
1.0175565 -0.50001657 2.1772804 2.1449851e-38
1.0422239 -0.49944192 2.1670001 2.1449851e-38
-0.44666734 -0.47320211 2.1670001 2.1449851e-38
-0.41769511 -0.46996319 2.1718571 2.1449851e-38
-0.37954241 -0.46139866 2.1794724 2.1449851e-38
-0.3525134 -0.45417196 2.1910646 2.1449851e-38
0.99341661 -0.45241576 2.1829231 2.1449851e-38
1.0107993 -0.45977321 2.1723552 2.1449851e-38
-0.41482574 -0.42720857 2.1670001 2.1449851e-38
-0.37719253 -0.42319456 2.1699176 2.1449851e-38
-0.34109789 -0.41942358 2.1831954 2.1449851e-38
-0.31508285 -0.4088307 2.1910002 2.1449851e-38
0.99016005 -0.42191249 2.1821187 2.1449851e-38
1.0083665 -0.42352253 2.1714599 2.1449851e-38
-0.36254257 -0.3934997 2.1670001 2.1449851e-38
-0.33844483 -0.38104478 2.16873 2.1449851e-38
-0.30777943 -0.37780893 2.18525 2.1449851e-38
-0.27581716 -0.36148763 2.194 2.1449851e-38
0.9929266 -0.38133776 2.1843259 2.1449851e-38
1.0074135 -0.38200188 2.1699805 2.1449851e-38
-0.32771119 -0.34509066 2.1670001 2.1449851e-38
-0.30198032 -0.34346634 2.1756837 2.1449851e-38
-0.27052593 -0.34241909 2.1875 2.1449851e-38
0.98486251 -0.34213337 2.1737254 2.1449851e-38
1.0023235 -0.35084766 2.1670001 2.1449851e-38
-0.32755607 -0.30986631 2.1670001 2.1449851e-38
-0.30772486 -0.30696452 2.1670001 2.1449851e-38
0.97574508 -0.30057928 2.1874287 2.1449851e-38
0.95591313 -0.25003904 2.1928184 2.1449851e-38
0.97230792 -0.25711352 2.1824212 2.1449851e-38
0.95696855 -0.21802859 2.1856251 2.1449851e-38
0.96870959 -0.22365373 2.1842284 2.1449851e-38
-0.0062685716 0.035521906 2.194 2.1449851e-38
0.0076615871 0.035986245 2.194 2.1449851e-38
-0.0146225 0.061806712 2.175492 2.1449851e-38
0.014332397 0.061673313 2.1900001 2.1449851e-38
-0.0064666038 0.087643109 2.1670003 2.1449851e-38
0.022915505 0.098376624 2.1795068 2.1449851e-38
0.051243708 0.10970178 2.1925004 2.1449851e-38
0.028935645 0.13483611 2.1694348 2.1449851e-38
0.05745222 0.14323904 2.1868494 2.1449851e-38
0.092356957 0.15587847 2.194 2.1449851e-38
0.037836507 0.16441685 2.1670003 2.1449851e-38
0.06446562 0.17550804 2.1754911 2.1449851e-38
0.0971701 0.18337077 2.1920679 2.1449851e-38
0.1232819 0.19223619 2.194 2.1449851e-38
0.07481309 0.21102451 2.1670001 2.1449851e-38
0.099715933 0.22033526 2.181344 2.1449851e-38
0.13104516 0.22600995 2.1899145 2.1449851e-38
0.10246902 0.25136441 2.1716666 2.1449851e-38
0.13968755 0.25929233 2.1858206 2.1449851e-38
0.16606741 0.26855353 2.194 2.1449851e-38
0.14855188 0.29649612 2.1743817 2.1449851e-38
0.17707239 0.30386788 2.1912 2.1449851e-38
0.20407683 0.31551811 2.194 2.1449851e-38
0.15108453 0.33142412 2.1705 2.1449851e-38
0.17862403 0.33573651 2.1801691 2.1449851e-38
0.20477334 0.32805526 2.194 2.1449851e-38
-0.53227901 -0.74075586 2.2130942 2.1449851e-38
-0.50056785 -0.73761886 2.2214966 2.1449851e-38
-0.45943832 -0.74221092 2.2260485 2.1449851e-38
-0.4194726 -0.73716748 2.2237511 2.1449851e-38
-0.38103867 -0.73445421 2.2238488 2.1449851e-38
-0.33855668 -0.73125327 2.2243531 2.1449851e-38
-0.29983047 -0.73167157 2.2248359 2.1449851e-38
-0.26328084 -0.7343021 2.2217264 2.1449851e-38
-0.22440489 -0.72488499 2.2080002 2.1449851e-38
-0.17909355 -0.72289962 2.209579 2.1449851e-38
-0.13902399 -0.72747785 2.2091541 2.1449851e-38
-0.10290432 -0.72616392 2.2080002 2.1449851e-38
-0.074188225 -0.72451758 2.2098751 2.1449851e-38
-0.52901888 -0.71106619 2.2080002 2.1449851e-38
-0.50065726 -0.70077276 2.2189796 2.1449851e-38
-0.47780776 -0.69511634 2.2369998 2.1449851e-38
-0.42041394 -0.70566112 2.2369998 2.1449851e-38
-0.37748164 -0.71758306 2.2369998 2.1449851e-38
-0.33835846 -0.71215999 2.2369998 2.1449851e-38
-0.30513149 -0.71489316 2.2369998 2.1449851e-38
-0.25505915 -0.71251333 2.232296 2.1449851e-38
-0.2209014 -0.70921177 2.2233977 2.1449851e-38
-0.18012588 -0.71237069 2.2279813 2.1449851e-38
-0.13906345 -0.71365196 2.2257671 2.1449851e-38
-0.099821463 -0.71227062 2.2230566 2.1449851e-38
-0.061297469 -0.70609903 2.2217374 2.1449851e-38
-0.019910837 -0.70224428 2.2206204 2.1449851e-38
0.021968137 -0.70383638 2.2194526 2.1449851e-38
0.060098868 -0.69941986 2.2198362 2.1449851e-38
0.097768627 -0.69239223 2.2174582 2.1449851e-38
0.14161095 -0.68559545 2.2230556 2.1449851e-38
0.18090172 -0.68569022 2.2203054 2.1449851e-38
0.22172582 -0.68577886 2.2141111 2.1449851e-38
0.26302004 -0.68808633 2.2142324 2.1449851e-38
0.28234857 -0.68511242 2.2180002 2.1449851e-38
0.39113146 -0.68342859 2.2080002 2.1449851e-38
0.46473145 -0.68342859 2.2080002 2.1449851e-38
-0.49439174 -0.66573983 2.2117782 2.1449851e-38
-0.46113637 -0.65850902 2.2345064 2.1449851e-38
-0.42254436 -0.65884972 2.2369998 2.1449851e-38
-0.39839906 -0.64127332 2.237 2.1449851e-38
0.11220507 -0.67820156 2.237 2.1449851e-38
0.1385906 -0.67623186 2.2357914 2.1449851e-38
0.18101493 -0.67521769 2.2360666 2.1449851e-38
0.2204233 -0.67552978 2.2316666 2.1449851e-38
0.26108149 -0.67273164 2.2325315 2.1449851e-38
0.29908594 -0.66662461 2.2239196 2.1449851e-38
0.33995339 -0.66466236 2.2242069 2.1449851e-38
0.37969488 -0.66550696 2.2238593 2.1449851e-38
0.41764584 -0.66387278 2.2210844 2.1449851e-38
0.46275577 -0.66202825 2.2226927 2.1449851e-38
0.50036156 -0.65814596 2.2192316 2.1449851e-38
0.54027313 -0.65934986 2.218076 2.1449851e-38
0.57840538 -0.65907854 2.2214701 2.1449851e-38
0.62083459 -0.66165262 2.2187052 2.1449851e-38
0.66147161 -0.65185785 2.2166157 2.1449851e-38
0.69980854 -0.65242618 2.2178974 2.1449851e-38
0.73757046 -0.64739084 2.2147708 2.1449851e-38
0.78045124 -0.6494714 2.2156134 2.1449851e-38
0.80885381 -0.64780527 2.209579 2.1449851e-38
0.91264009 -0.64137149 2.2080002 2.1449851e-38
0.92736006 -0.64137149 2.2080002 2.1449851e-38
-0.48365718 -0.63716573 2.2080002 2.1449851e-38
-0.45767754 -0.62166238 2.2249248 2.1449851e-38
-0.41843972 -0.61932164 2.2352741 2.1449851e-38
-0.39124683 -0.61388141 2.2369998 2.1449851e-38
0.48787904 -0.63701236 2.237 2.1449851e-38
0.64986217 -0.63496667 2.2323332 2.1449851e-38
0.70412242 -0.63701236 2.237 2.1449851e-38
0.74220484 -0.6354031 2.2298999 2.1449851e-38
0.78049058 -0.63601208 2.2312999 2.1449851e-38
0.81683898 -0.63312542 2.2260585 2.1449851e-38
0.86128139 -0.62033558 2.2311833 2.1449851e-38
0.90017158 -0.61614287 2.2291033 2.1449851e-38
0.93879008 -0.61957973 2.2257307 2.1449851e-38
0.97971302 -0.6116215 2.223105 2.1449851e-38
1.0046657 -0.60780972 2.2284 2.1449851e-38
-0.45046926 -0.58833373 2.2110002 2.1449851e-38
-0.41938862 -0.58064461 2.2222154 2.1449851e-38
-0.38126272 -0.577649 2.2341328 2.1449851e-38
-0.35578954 -0.56031525 2.237 2.1449851e-38
0.88627803 -0.59866381 2.237 2.1449851e-38
0.9565838 -0.59866381 2.237 2.1449851e-38
0.98122466 -0.58649826 2.2261248 2.1449851e-38
1.0154953 -0.57875729 2.2142127 2.1449851e-38
1.0409143 -0.5719772 2.2080002 2.1449851e-38
-0.40893653 -0.54540628 2.2126875 2.1449851e-38
-0.37823889 -0.53967315 2.2260137 2.1449851e-38
-0.34257725 -0.5339362 2.2364397 2.1449851e-38
-0.31744093 -0.52196664 2.237 2.1449851e-38
0.9985655 -0.53516668 2.2196002 2.1449851e-38
1.0066392 -0.53744936 2.2233157 2.1449851e-38
-0.36972985 -0.50910848 2.2089376 2.1449851e-38
-0.34127057 -0.49937716 2.2265759 2.1449851e-38
-0.31266701 -0.49096274 2.2352498 2.1449851e-38
0.99369502 -0.50461465 2.2267895 2.1449851e-38
1.0053887 -0.49994558 2.2197499 2.1449851e-38
-0.33565316 -0.46216652 2.2161815 2.1449851e-38
-0.30251753 -0.45883623 2.2314327 2.1449851e-38
-0.27672514 -0.44716325 2.2369998 2.1449851e-38
0.99268651 -0.44981441 2.2339997 2.1449851e-38
1.0042195 -0.46872145 2.2253332 2.1449851e-38
-0.32257831 -0.43445036 2.2080002 2.1449851e-38
-0.29783574 -0.42076543 2.2197483 2.1449851e-38
-0.26559085 -0.4149361 2.2329998 2.1449851e-38
0.98705012 -0.41680482 2.2295713 2.1449851e-38
-0.29015249 -0.38493967 2.2113335 2.1449851e-38
-0.25964993 -0.38045594 2.2237573 2.1449851e-38
-0.22661193 -0.36816531 2.2320321 2.1449851e-38
0.9565838 -0.36005047 2.237 2.1449851e-38
0.98218006 -0.3778618 2.2277236 2.1449851e-38
-0.25372484 -0.34546781 2.2188888 2.1449851e-38
-0.22103584 -0.34457448 2.2227666 2.1449851e-38
0.9552145 -0.33307499 2.2338331 2.1449851e-38
0.97605377 -0.34139609 2.2256253 2.1449851e-38
0.95095277 -0.30162334 2.2321486 2.1449851e-38
0.96819186 -0.29953396 2.2213037 2.1449851e-38
0.91823518 -0.26630953 2.237 2.1449851e-38
0.94277602 -0.25707459 2.2267976 2.1449851e-38
0.96753031 -0.26973602 2.2163043 2.1449851e-38
0.94482267 -0.22843139 2.2262201 2.1449851e-38
0.96198285 -0.2248686 2.2113335 2.1449851e-38
0.022795746 -0.015263297 2.2297306 2.1449851e-38
0.042948946 -0.016134284 2.2327998 2.1449851e-38
-0.0021028572 0.029440003 2.2080002 2.1449851e-38
0.021513563 0.019648805 2.2162714 2.1449851e-38
0.05023649 0.02085859 2.2293911 2.1449851e-38
0.033653308 0.058099926 2.2084689 2.1449851e-38
0.059744168 0.060250595 2.2246392 2.1449851e-38
0.097808219 0.072242513 2.2369998 2.1449851e-38
0.03890286 0.085165724 2.2080002 2.1449851e-38
0.06496577 0.097273216 2.2133446 2.1449851e-38
0.099197946 0.10167406 2.2312152 2.1449851e-38
0.12838922 0.11022411 2.2369998 2.1449851e-38
0.073600009 0.13248001 2.2080002 2.1449851e-38
0.099825859 0.13858397 2.211477 2.1449851e-38
0.13583776 0.14391814 2.2348311 2.1449851e-38
0.16404666 0.15765524 2.237 2.1449851e-38
0.10929588 0.17020723 2.2086 2.1449851e-38
0.14131612 0.18012427 2.2196562 2.1449851e-38
0.16894676 0.18684275 2.2369998 2.1449851e-38
0.10304001 0.20818287 2.2080002 2.1449851e-38
0.14755385 0.21580693 2.2172642 2.1449851e-38
0.17674471 0.22241309 2.2311141 2.1449851e-38
0.15771429 0.24182858 2.2080002 2.1449851e-38
0.18322346 0.2576685 2.2199421 2.1449851e-38
0.2073386 0.26366657 2.2351332 2.1449851e-38
0.19160178 0.29311848 2.2107778 2.1449851e-38
0.21816285 0.30359033 2.228868 2.1449851e-38
0.24216413 0.31460032 2.237 2.1449851e-38
0.19977143 0.3406629 2.2080002 2.1449851e-38
0.22013105 0.33126962 2.2206073 2.1449851e-38
0.24074382 0.32596284 2.237 2.1449851e-38
-0.48257142 -0.72492957 2.2520001 2.1449851e-38
-0.4628396 -0.72707444 2.2519999 2.1449851e-38
-0.43681654 -0.72778928 2.2520001 2.1449851e-38
-0.48257142 -0.71849525 2.2520001 2.1449851e-38
-0.46006921 -0.70190346 2.2523677 2.1449851e-38
-0.42152289 -0.70337349 2.2565994 2.1449851e-38
-0.37940571 -0.71048456 2.2616661 2.1449851e-38
-0.33915874 -0.70124757 2.2598529 2.1449851e-38
-0.29931036 -0.7101633 2.2602723 2.1449851e-38
-0.25880608 -0.70279562 2.2607105 2.1449851e-38
-0.21975712 -0.695903 2.2588439 2.1449851e-38
-0.1785332 -0.69933271 2.2608564 2.1449851e-38
-0.14059199 -0.69894558 2.2601998 2.1449851e-38
-0.10197441 -0.69691014 2.2616246 2.1449851e-38
-0.060323048 -0.69196701 2.2570901 2.1449851e-38
-0.0182609 -0.69032037 2.2527564 2.1449851e-38
0.018286871 -0.68876714 2.2557554 2.1449851e-38
0.059973486 -0.68746442 2.2552302 2.1449851e-38
