# .PCD v0.7 - Point Cloud Data file format
VERSION 0.7
FIELDS x y z rgb
SIZE 4 4 4 4
TYPE F F F F
COUNT 1 1 1 1
WIDTH 1037
HEIGHT 1
VIEWPOINT 0 0 0 1 0 0 0
POINTS 1037
DATA ascii
0.18129642 -0.10055961 2.3807995 1.296903e-38
0.21549542 -0.090160877 2.3895378 1.296903e-38
0.18913102 -0.066790782 2.3759997 1.296903e-38
0.21590917 -0.062840588 2.3820956 1.296903e-38
0.22667621 -0.020899048 2.3809996 1.296903e-38
0.25262272 -0.0093111712 2.3876362 1.296903e-38
0.28020576 -0.0022780953 2.3920002 1.296903e-38
0.23005715 0.0030171431 2.3760004 1.296903e-38
0.26007643 0.019112859 2.3790004 1.296903e-38
0.28219908 0.019648571 2.3920002 1.296903e-38
0.26955938 0.060176216 2.37641 1.296903e-38
0.29767284 0.065864697 2.3825178 1.296903e-38
0.3230339 0.070165344 2.3920002 1.296903e-38
0.27380571 0.088703997 2.3760002 1.296903e-38
0.30076739 0.099488154 2.3767872 1.296903e-38
0.32723212 0.1010498 2.3919995 1.296903e-38
0.30871838 0.13593307 2.3759999 1.296903e-38
0.33859178 0.14258862 2.3871989 1.296903e-38
0.36884436 0.14931881 2.3920002 1.296903e-38
0.30548573 0.16066287 2.3760002 1.296903e-38
0.34825373 0.16858286 2.3759999 1.296903e-38
0.37756154 0.17854331 2.3847611 1.296903e-38
0.40777907 0.19439748 2.3920002 1.296903e-38
0.39212322 0.21543112 2.383333 1.296903e-38
0.40872678 0.22249323 2.3913839 1.296903e-38
0.39449143 0.24363431 2.3760002 1.296903e-38
0.42233777 0.25804251 2.3837941 1.296903e-38
0.44574735 0.27413082 2.3920002 1.296903e-38
0.43562046 0.2918407 2.3789093 1.296903e-38
0.45744216 0.3011184 2.3871181 1.296903e-38
0.49810567 0.30389795 2.391999 1.296903e-38
0.45942536 0.3235037 2.3897145 1.296903e-38
0.50508624 0.32511672 2.3920002 1.296903e-38
0.52624005 0.32121146 2.3920002 1.296903e-38
-0.13417871 -0.61242646 2.4089997 1.296903e-38
-0.098515227 -0.61476934 2.4145572 1.296903e-38
-0.063912258 -0.6073302 2.4090002 1.296903e-38
-0.024473511 -0.60326529 2.4151821 1.296903e-38
0.016387757 -0.60569155 2.4090002 1.296903e-38
0.07112287 -0.60339713 2.4090002 1.296903e-38
0.093410216 -0.60405272 2.4090002 1.296903e-38
-0.1269505 -0.59154344 2.4090004 1.296903e-38
-0.097685672 -0.58207273 2.413656 1.296903e-38
-0.062542863 -0.58260763 2.4190736 1.296903e-38
-0.019613413 -0.59620303 2.4217501 1.296903e-38
0.020957334 -0.59791952 2.4175003 1.296903e-38
0.059835095 -0.59387004 2.4169681 1.296903e-38
0.098972514 -0.59291536 2.4198616 1.296903e-38
0.14331396 -0.57879466 2.418273 1.296903e-38
0.18011582 -0.58315742 2.4176483 1.296903e-38
0.22250988 -0.58477038 2.4208677 1.296903e-38
0.25979066 -0.58149749 2.4183793 1.296903e-38
0.29993224 -0.58032775 2.4199286 1.296903e-38
0.34028926 -0.5718869 2.419668 1.296903e-38
0.37995023 -0.57324308 2.419311 1.296903e-38
0.42165765 -0.57000273 2.4150195 1.296903e-38
0.45882496 -0.57143193 2.4161074 1.296903e-38
0.49236271 -0.5678401 2.4139585 1.296903e-38
0.55407 -0.56324714 2.4090002 1.296903e-38
0.5770129 -0.56267357 2.4090002 1.296903e-38
0.61912942 -0.56275553 2.4090002 1.296903e-38
0.66046751 -0.5643943 2.4090002 1.296903e-38
0.68599141 -0.56668854 2.4090002 1.296903e-38
-0.086787298 -0.54390395 2.4089999 1.296903e-38
-0.06217932 -0.54004693 2.4149299 1.296903e-38
-0.039278094 -0.53372002 2.4260001 1.296903e-38
0.35003719 -0.55335909 2.4260001 1.296903e-38
0.3812286 -0.55480313 2.4260001 1.296903e-38
0.42365736 -0.55556452 2.4260006 1.296903e-38
0.44592199 -0.5541842 2.4260004 1.296903e-38
0.50189346 -0.55314088 2.4175 1.296903e-38
0.5408085 -0.55117601 2.4150324 1.296903e-38
0.58079141 -0.55353636 2.4199998 1.296903e-38
0.6194436 -0.5489046 2.4171135 1.296903e-38
0.65662444 -0.5514313 2.419625 1.296903e-38
0.70066792 -0.54558885 2.4188416 1.296903e-38
0.73745841 -0.54056954 2.4184444 1.296903e-38
0.77765858 -0.54653549 2.4175 1.296903e-38
0.81906599 -0.53787965 2.4174998 1.296903e-38
0.86262202 -0.54173791 2.4157999 1.296903e-38
0.89830959 -0.53228545 2.4136894 1.296903e-38
-0.081829533 -0.50933146 2.4090004 1.296903e-38
-0.057590298 -0.50808471 2.4098098 1.296903e-38
-0.023410354 -0.49870676 2.4189434 1.296903e-38
0.90286773 -0.50079966 2.4108891 1.296903e-38
-0.012282117 -0.46354088 2.4136746 1.296903e-38
0.0030806351 -0.44900259 2.4260004 1.296903e-38
0.90551931 -0.46370921 2.4133713 1.296903e-38
-0.0063133342 -0.4332338 2.4132502 1.296903e-38
0.020072399 -0.41763672 2.418272 1.296903e-38
0.88843012 -0.41551235 2.4190454 1.296903e-38
0.026705356 -0.38387728 2.4116437 1.296903e-38
0.053075116 -0.37286022 2.4226 1.296903e-38
0.8755461 -0.36978778 2.4138575 1.296903e-38
0.88360232 -0.38890344 2.4180002 1.296903e-38
0.039002858 -0.3556143 2.4090002 1.296903e-38
0.062535524 -0.34155443 2.4139752 1.296903e-38
0.094069391 -0.32313663 2.4260004 1.296903e-38
0.12245524 -0.32346666 2.4260001 1.296903e-38
0.86753768 -0.34034577 2.4162853 1.296903e-38
0.075711429 -0.30972859 2.4090002 1.296903e-38
0.10052736 -0.30048087 2.4202266 1.296903e-38
0.12880903 -0.29535592 2.4259996 1.296903e-38
0.85537076 -0.30156097 2.4154217 1.296903e-38
0.10770627 -0.26276025 2.4136751 1.296903e-38
0.13927139 -0.25987095 2.4239314 1.296903e-38
0.16558413 -0.24799111 2.4260004 1.296903e-38
0.83653849 -0.25225919 2.4235718 1.296903e-38
0.84915763 -0.26369506 2.4174998 1.296903e-38
0.11242001 -0.23631144 2.4090002 1.296903e-38
0.14600259 -0.22451165 2.414912 1.296903e-38
0.1758509 -0.21703422 2.4243007 1.296903e-38
0.83074892 -0.21671732 2.4232581 1.296903e-38
0.84372991 -0.21862398 2.4164376 1.296903e-38
0.15626638 -0.1914454 2.4090002 1.296903e-38
0.17849974 -0.17956319 2.4226608 1.296903e-38
0.20717271 -0.17266959 2.4260004 1.296903e-38
0.79387969 -0.18899697 2.4260004 1.296903e-38
0.81350976 -0.18647715 2.4218538 1.296903e-38
0.18784687 -0.14298566 2.4130254 1.296903e-38
0.21602467 -0.1381827 2.4257121 1.296903e-38
0.79128301 -0.15078296 2.4209003 1.296903e-38
0.80173522 -0.15711239 2.4260001 1.296903e-38
0.19463192 -0.11127287 2.4090004 1.296903e-38
0.22322278 -0.10828647 2.4188418 1.296903e-38
0.24889751 -0.0943271 2.423655 1.296903e-38
0.23376222 -0.050729208 2.4090002 1.296903e-38
0.25732273 -0.058511745 2.4242413 1.296903e-38
0.28649902 -0.043899048 2.4260001 1.296903e-38
0.26404619 -0.026203418 2.4170187 1.296903e-38
0.29868051 -0.010745922 2.4245217 1.296903e-38
0.32770255 -0.0080866683 2.4260006 1.296903e-38
0.73969501 -0.026607556 2.4226005 1.296903e-38
0.30381009 0.021293597 2.4188418 1.296903e-38
0.33637577 0.022984205 2.4251907 1.296903e-38
0.36274478 0.039278094 2.4260001 1.296903e-38
0.71624768 0.023104765 2.4260001 1.296903e-38
0.30614969 0.047767293 2.41155 1.296903e-38
0.34261149 0.058578748 2.415982 1.296903e-38
0.36982056 0.060650002 2.4260001 1.296903e-38
0.34693393 0.097466029 2.4094038 1.296903e-38
0.37765279 0.10189532 2.4225998 1.296903e-38
0.40433335 0.11090286 2.4260001 1.296903e-38
0.34643713 0.12861498 2.4090002 1.296903e-38
0.38118848 0.13769606 2.4110589 1.296903e-38
0.41874072 0.14407662 2.4222541 1.296903e-38
0.44130099 0.15018095 2.4260001 1.296903e-38
0.3939617 0.17403798 2.4090002 1.296903e-38
0.42091438 0.18082637 2.4150698 1.296903e-38
0.44883347 0.18523392 2.4233158 1.296903e-38
0.6964581 0.1956943 2.4175003 1.296903e-38
0.42804819 0.21981439 2.408999 1.296903e-38
0.46015784 0.22055873 2.4208481 1.296903e-38
0.49641398 0.22737117 2.4243815 1.296903e-38
0.53926516 0.2361307 2.4260004 1.296903e-38
0.69569063 0.21776889 2.4175 1.296903e-38
0.43153429 0.24674003 2.4090004 1.296903e-38
0.46146125 0.25882453 2.4119551 1.296903e-38
0.50090486 0.25992045 2.420332 1.296903e-38
0.53110325 0.26669946 2.4245839 1.296903e-38
0.46803433 0.29252148 2.4090002 1.296903e-38
0.49897248 0.29443333 2.4089997 1.296903e-38
0.53688157 0.3035264 2.4179316 1.296903e-38
0.56683683 0.31422478 2.4260004 1.296903e-38
0.64693332 0.31653526 2.4260001 1.296903e-38
0.47644672 0.32502386 2.4090002 1.296903e-38
0.49457276 0.32838157 2.4153752 1.296903e-38
0.54133153 0.32965279 2.4137599 1.296903e-38
0.57282305 0.3238529 2.4203339 1.296903e-38
0.60765523 0.33039811 2.4260001 1.296903e-38
0.64693332 0.3211562 2.4260001 1.296903e-38
-0.048416838 -0.57579458 2.4430006 1.296903e-38
-0.020955497 -0.57790673 2.4477882 1.296903e-38
0.020583106 -0.58068824 2.4590347 1.296903e-38
0.060407083 -0.57505578 2.4555063 1.296903e-38
0.098905154 -0.57564062 2.4573691 1.296903e-38
0.13905349 -0.56654429 2.4510002 1.296903e-38
0.17934617 -0.56588608 2.4459007 1.296903e-38
0.21704254 -0.56977159 2.4459145 1.296903e-38
0.25962201 -0.56625581 2.4531379 1.296903e-38
0.29904163 -0.56688106 2.444134 1.296903e-38
0.33735466 -0.56243771 2.4464002 1.296903e-38
0.46998668 -0.56072664 2.4430001 1.296903e-38
0.48162001 -0.56072664 2.4430001 1.296903e-38
-0.047308896 -0.54986894 2.4430001 1.296903e-38
-0.020057043 -0.54099184 2.444999 1.296903e-38
0.019303123 -0.54144388 2.4693379 1.296903e-38
0.048031226 -0.54417092 2.4773574 1.296903e-38
0.097983688 -0.55940902 2.4754291 1.296903e-38
0.13950321 -0.55892462 2.4723752 1.296903e-38
0.18219818 -0.55569375 2.4709287 1.296903e-38
0.21900254 -0.55758172 2.4726667 1.296903e-38
0.26562002 -0.55644065 2.4726002 1.296903e-38
0.30190235 -0.55508399 2.4693789 1.296903e-38
0.34012541 -0.54812008 2.4720514 1.296903e-38
0.37912482 -0.54378307 2.4612851 1.296903e-38
0.42024767 -0.54533648 2.4603505 1.296903e-38
0.4603546 -0.54355562 2.464216 1.296903e-38
0.50013536 -0.5384478 2.4630373 1.296903e-38
0.54057765 -0.53397727 2.4565072 1.296903e-38
0.58009082 -0.53486162 2.4571347 1.296903e-38
0.61875504 -0.53198153 2.4573567 1.296903e-38
0.66181028 -0.53280741 2.4595993 1.296903e-38
0.69841671 -0.53276724 2.4589546 1.296903e-38
0.74017507 -0.52783501 2.4457421 1.296903e-38
0.78147995 -0.5318734 2.4465966 1.296903e-38
0.81823587 -0.5291723 2.4465005 1.296903e-38
0.8613075 -0.52892673 2.447886 1.296903e-38
0.89301693 -0.5298456 2.4430006 1.296903e-38
-0.0088413339 -0.50985032 2.4430003 1.296903e-38
0.021233924 -0.49903375 2.4524682 1.296903e-38
0.058066137 -0.49449801 2.4676588 1.296903e-38
0.086064994 -0.4880808 2.4757504 1.296903e-38
0.51438743 -0.51626861 2.4708002 1.296903e-38
0.53440398 -0.51331347 2.4742107 1.296903e-38
0.58217788 -0.51458359 2.4760003 1.296903e-38
0.62515181 -0.51079619 2.4749134 1.296903e-38
0.65885049 -0.51212007 2.4780004 1.296903e-38
0.70067292 -0.51317912 2.4752698 1.296903e-38
0.73940313 -0.51405412 2.4647417 1.296903e-38
0.7816363 -0.51313007 2.4667423 1.296903e-38
0.81785822 -0.5123508 2.4645398 1.296903e-38
0.86223984 -0.51246756 2.4596853 1.296903e-38
0.89230138 -0.49919599 2.4534106 1.296903e-38
0.021960879 -0.46072006 2.4457862 1.296903e-38
0.061401259 -0.45963097 2.454813 1.296903e-38
0.091505371 -0.45842642 2.4664607 1.296903e-38
0.86741024 -0.45621127 2.4686081 1.296903e-38
0.89140302 -0.46113655 2.4492366 1.296903e-38
0.02991429 -0.43176293 2.4430003 1.296903e-38
0.060038928 -0.42062223 2.4447241 1.296903e-38
0.097964816 -0.4180702 2.4619503 1.296903e-38
0.13189787 -0.41425282 2.4757497 1.296903e-38
0.86416465 -0.41895115 2.4653955 1.296903e-38
0.88897145 -0.42874876 2.4461484 1.296903e-38
0.067085542 -0.38506329 2.4430006 1.296903e-38
0.099843152 -0.37944105 2.4521985 1.296903e-38
0.14100428 -0.3800689 2.4670777 1.296903e-38
0.16567202 -0.37335205 2.4780004 1.296903e-38
0.83282512 -0.37492555 2.4772506 1.296903e-38
0.85965836 -0.38036054 2.4618478 1.296903e-38
0.88180667 -0.38855335 2.4430001 1.296903e-38
0.076780006 -0.35132667 2.4430003 1.296903e-38
0.10087967 -0.34208757 2.4490154 1.296903e-38
0.14085971 -0.3399156 2.4504533 1.296903e-38
0.17055207 -0.33571044 2.4773574 1.296903e-38
0.83141726 -0.33853927 2.4730904 1.296903e-38
0.85141891 -0.34153903 2.4525931 1.296903e-38
0.11051667 -0.31061 2.4430001 1.296903e-38
0.14521392 -0.30470967 2.4452977 1.296903e-38
0.17695002 -0.2994642 2.4632881 1.296903e-38
0.20060001 -0.28084001 2.4780002 1.296903e-38
0.82577437 -0.29895595 2.4604869 1.296903e-38
0.84684515 -0.30074146 2.4438953 1.296903e-38
0.15588668 -0.27222002 2.4430003 1.296903e-38
0.18157002 -0.26163808 2.4482756 1.296903e-38
0.21340945 -0.25767687 2.473736 1.296903e-38
0.7901603 -0.25258327 2.4681284 1.296903e-38
0.82069927 -0.26056293 2.4521224 1.296903e-38
0.84551066 -0.26756668 2.4430001 1.296903e-38
0.1922515 -0.22693017 2.4438505 1.296903e-38
0.21947007 -0.21948437 2.45419 1.296903e-38
0.24758199 -0.21584724 2.4732635 1.296903e-38
0.78856623 -0.21878912 2.4616466 1.296903e-38
0.81707966 -0.22346567 2.4465642 1.296903e-38
0.19577239 -0.19178383 2.4430001 1.296903e-38
0.22291858 -0.18229879 2.446208 1.296903e-38
0.25878105 -0.17808524 2.4655685 1.296903e-38
0.2832 -0.17936002 2.4780004 1.296903e-38
0.78402597 -0.17814124 2.4540443 1.296903e-38
0.81026161 -0.16635667 2.4430001 1.296903e-38
0.23324832 -0.14890668 2.4430003 1.296903e-38
0.26025105 -0.14061819 2.4498005 1.296903e-38
0.28341454 -0.13623638 2.4780006 1.296903e-38
0.32898402 -0.13121599 2.4780004 1.296903e-38
0.75756001 -0.12744001 2.4780002 1.296903e-38
0.77705026 -0.13944437 2.4576852 1.296903e-38
0.26712152 -0.10295616 2.4471467 1.296903e-38
0.29800045 -0.0941488 2.4652822 1.296903e-38
0.33164588 -0.09936557 2.4774995 1.296903e-38
0.74838746 -0.091145359 2.465451 1.296903e-38
0.77352619 -0.10663552 2.4591506 1.296903e-38
0.80318677 -0.11406668 2.4780002 1.296903e-38
0.27512836 -0.068054996 2.4430001 1.296903e-38
0.30105111 -0.061106812 2.4473932 1.296903e-38
0.33854824 -0.060199998 2.4670379 1.296903e-38
0.36674401 -0.044368006 2.4780004 1.296903e-38
0.71980011 -0.044840004 2.4780002 1.296903e-38
0.74221569 -0.059445646 2.457514 1.296903e-38
0.76260978 -0.059598472 2.4430006 1.296903e-38
0.30366966 -0.026190175 2.4440632 1.296903e-38
0.34168676 -0.022680499 2.4499998 1.296903e-38
0.37786353 -0.016685095 2.4724991 1.296903e-38
0.41347203 -0.0042480002 2.4780004 1.296903e-38
0.71958292 -0.031528004 2.4708002 1.296903e-38
0.73396504 -0.026395101 2.4573414 1.296903e-38
0.34977555 0.0054288898 2.4430001 1.296903e-38
0.37898877 0.020222547 2.4551306 1.296903e-38
0.41505468 0.018863931 2.476124 1.296903e-38
0.71591544 0.025572693 2.4589202 1.296903e-38
0.72364324 0.024293879 2.4454286 1.296903e-38
0.38954344 0.059040722 2.4491603 1.296903e-38
0.41930342 0.059083913 2.4715886 1.296903e-38
0.44935888 0.060557611 2.4774995 1.296903e-38
0.71270066 0.055596486 2.4710774 1.296903e-38
0.72557133 0.052068714 2.4678574 1.296903e-38
0.3936297 0.088201836 2.4430003 1.296903e-38
0.42198664 0.098926172 2.4512343 1.296903e-38
0.46081012 0.10027792 2.4702454 1.296903e-38
0.49670136 0.10682933 2.4780004 1.296903e-38
0.52156007 0.11564001 2.4780002 1.296903e-38
0.70667255 0.099857531 2.4779997 1.296903e-38
0.42822075 0.12694634 2.4458337 1.296903e-38
0.46203825 0.13816236 2.4620507 1.296903e-38
0.50009614 0.14257804 2.4756382 1.296903e-38
0.53653848 0.14153446 2.4776592 1.296903e-38
0.56561339 0.15654668 2.4780002 1.296903e-38
0.67732 0.15576001 2.4780002 1.296903e-38
0.70105869 0.14309128 2.469352 1.296903e-38
0.72394288 0.14525715 2.46 1.296903e-38
0.46503824 0.17635113 2.4453187 1.296903e-38
0.50134367 0.17947055 2.465986 1.296903e-38
0.54064608 0.18078117 2.4691272 1.296903e-38
0.57055819 0.1830686 2.4780004 1.296903e-38
0.67312455 0.17857334 2.4780004 1.296903e-38
0.69708627 0.17839752 2.4646184 1.296903e-38
0.47347665 0.20358333 2.4430001 1.296903e-38
0.50571978 0.21099862 2.454576 1.296903e-38
0.54170817 0.22004516 2.4576039 1.296903e-38
0.57973605 0.21872364 2.469878 1.296903e-38
0.60708642 0.22306724 2.4780004 1.296903e-38
0.66771156 0.22384943 2.4719992 1.296903e-38
0.68694401 0.21938546 2.4508183 1.296903e-38
0.54354638 0.25996017 2.4440856 1.296903e-38
0.5801962 0.26070598 2.4595377 1.296903e-38
0.61731285 0.26499364 2.4746654 1.296903e-38
0.66310322 0.2597394 2.472894 1.296903e-38
0.68811339 0.26016635 2.4552305 1.296903e-38
0.55226612 0.28871816 2.4430003 1.296903e-38
0.58153886 0.29974681 2.4513733 1.296903e-38
0.6204468 0.3001278 2.4603186 1.296903e-38
0.65954524 0.29823488 2.4714496 1.296903e-38
0.68667263 0.28964064 2.4726002 1.296903e-38
0.49560004 0.33748004 2.4780002 1.296903e-38
0.59795332 0.32340667 2.4430001 1.296903e-38
0.62560076 0.32785952 2.4577663 1.296903e-38
0.64448667 0.32573333 2.4430001 1.296903e-38
0.070521906 -0.56338286 2.4960001 1.296903e-38
0.11437714 -0.56472576 2.5020003 1.296903e-38
0.25673142 -0.56338286 2.4960001 1.296903e-38
0.065518014 -0.54088509 2.5002551 1.296903e-38
0.097722441 -0.54326886 2.5104599 1.296903e-38
0.13871318 -0.54432541 2.5072515 1.296903e-38
0.18055762 -0.54136693 2.5064402 1.296903e-38
0.21950383 -0.53829378 2.5022871 1.296903e-38
0.25733623 -0.539693 2.501183 1.296903e-38
0.29980031 -0.54180789 2.5035799 1.296903e-38
0.34121644 -0.52852869 2.4975429 1.296903e-38
0.38160077 -0.52846664 2.5006449 1.296903e-38
0.4208051 -0.52827376 2.4995997 1.296903e-38
0.4614298 -0.52640516 2.4959993 1.296903e-38
0.49349484 -0.52249599 2.4960001 1.296903e-38
0.070965238 -0.51218814 2.4975004 1.296903e-38
0.10308915 -0.50305378 2.5101926 1.296903e-38
0.13788769 -0.49932373 2.5123138 1.296903e-38
0.16376917 -0.48795542 2.5140002 1.296903e-38
0.23064956 -0.51956004 2.5140004 1.296903e-38
0.24900573 -0.51956004 2.5140002 1.296903e-38
0.34118572 -0.51896149 2.5140002 1.296903e-38
0.38253322 -0.51771832 2.5140004 1.296903e-38
0.42299053 -0.51796389 2.5140002 1.296903e-38
0.46078435 -0.51527804 2.5094998 1.296903e-38
0.49972585 -0.51052922 2.5050001 1.296903e-38
0.54234648 -0.50701606 2.5038753 1.296903e-38
0.5783307 -0.50682145 2.5076125 1.296903e-38
0.61861801 -0.50625974 2.5056922 1.296903e-38
0.65989763 -0.5018872 2.5006955 1.296903e-38
0.69757742 -0.50346792 2.5063844 1.296903e-38
0.74211234 -0.49951452 2.5087645 1.296903e-38
0.78058994 -0.49661306 2.5080016 1.296903e-38
0.82008344 -0.49485308 2.504817 1.296903e-38
0.860358 -0.4961572 2.5100312 1.296903e-38
0.8833257 -0.50344133 2.5 1.296903e-38
0.11122312 -0.46299061 2.5030432 1.296903e-38
0.13795371 -0.46023825 2.5021026 1.296903e-38
0.1669296 -0.45807478 2.5139999 1.296903e-38
0.78213346 -0.47566479 2.5140002 1.296903e-38
0.82579952 -0.46730459 2.5105162 1.296903e-38
0.85046744 -0.4609971 2.5052004 1.296903e-38
0.1125181 -0.43660194 2.4960003 1.296903e-38
0.14763308 -0.42751047 2.4960003 1.296903e-38
0.18082556 -0.42001811 2.5092797 1.296903e-38
0.20898697 -0.41215926 2.5140004 1.296903e-38
0.8296656 -0.41717646 2.5111198 1.296903e-38
0.84627968 -0.42318085 2.5052726 1.296903e-38
0.18574354 -0.38241446 2.5039203 1.296903e-38
0.21224637 -0.37519866 2.5140002 1.296903e-38
0.818986 -0.38082606 2.5076852 1.296903e-38
0.84039432 -0.39745146 2.5140002 1.296903e-38
0.1876092 -0.3445625 2.4970002 1.296903e-38
0.21982612 -0.33928442 2.5086575 1.296903e-38
0.24550641 -0.33243737 2.5140004 1.296903e-38
0.79410481 -0.35355622 2.5140004 1.296903e-38
0.81865716 -0.33952284 2.5075474 1.296903e-38
0.19730285 -0.30665144 2.4960001 1.296903e-38
0.21909541 -0.29996186 2.4974296 1.296903e-38
0.25572214 -0.29827318 2.5117905 1.296903e-38
0.7873919 -0.28923431 2.5116522 1.296903e-38
0.80707443 -0.30119446 2.5028822 1.296903e-38
0.23010746 -0.26576456 2.4959996 1.296903e-38
0.25705227 -0.2581425 2.5056934 1.296903e-38
0.29125324 -0.25186342 2.5140002 1.296903e-38
0.77751476 -0.25944653 2.5046544 1.296903e-38
0.80585146 -0.27574861 2.4960003 1.296903e-38
0.26617506 -0.21933141 2.4988422 1.296903e-38
0.29472885 -0.2180609 2.5124681 1.296903e-38
0.33176476 -0.21579805 2.5140002 1.296903e-38
0.75898862 -0.22506288 2.5140002 1.296903e-38
0.77539718 -0.22097529 2.5097873 1.296903e-38
0.26861715 -0.19730286 2.4960001 1.296903e-38
0.30462596 -0.18106717 2.5034723 1.296903e-38
0.33262089 -0.17657009 2.5087898 1.296903e-38
0.75606221 -0.17584701 2.5140002 1.296903e-38
0.77056116 -0.18114544 2.5077002 1.296903e-38
0.30310383 -0.13934046 2.4966552 1.296903e-38
0.34130505 -0.14102572 2.4966931 1.296903e-38
0.36897075 -0.13785851 2.5111198 1.296903e-38
0.74970716 -0.1362966 2.5062861 1.296903e-38
0.76541781 -0.15118414 2.5020001 1.296903e-38
0.30633447 -0.11235961 2.4960001 1.296903e-38
0.34884572 -0.10073145 2.4959998 1.296903e-38
0.37907934 -0.097022876 2.5072503 1.296903e-38
0.41009751 -0.092776477 2.5129414 1.296903e-38
0.74196595 -0.10288854 2.5043726 1.296903e-38
0.35759023 -0.069616333 2.4960001 1.296903e-38
0.38210651 -0.06180571 2.496001 1.296903e-38
0.41199461 -0.057276513 2.5110004 1.296903e-38
0.72917956 -0.061780479 2.5034995 1.296903e-38
0.39317945 -0.029476572 2.4960001 1.296903e-38
0.42095673 -0.021351842 2.5011432 1.296903e-38
0.45011958 -0.0087719057 2.5095 1.296903e-38
0.71589148 -0.0023942858 2.5140002 1.296903e-38
0.72769684 -0.013893122 2.5046666 1.296903e-38
0.43739432 0.019017145 2.4959998 1.296903e-38
0.4542872 0.020913111 2.5049999 1.296903e-38
0.71079797 0.021109257 2.5082397 1.296903e-38
0.72863096 0.0066800006 2.5068002 1.296903e-38
0.4697409 0.058252316 2.4965625 1.296903e-38
0.4996385 0.060162012 2.5053823 1.296903e-38
0.5277434 0.069759123 2.5126157 1.296903e-38
0.70249861 0.062903784 2.5041826 1.296903e-38
0.72562289 0.067748576 2.4959998 1.296903e-38
0.47780573 0.0832 2.4960001 1.296903e-38
0.50367945 0.097779132 2.4963837 1.296903e-38
0.53750902 0.10196207 2.5067143 1.296903e-38
0.56824386 0.11572382 2.5140002 1.296903e-38
0.69558173 0.099342853 2.506125 1.296903e-38
0.72502857 0.0832 2.4960001 1.296903e-38
0.50855017 0.12915811 2.4960001 1.296903e-38
0.55361015 0.13312 2.4959996 1.296903e-38
0.57478416 0.13909313 2.5098002 1.296903e-38
0.67203104 0.14595628 2.5063841 1.296903e-38
0.69453484 0.13044019 2.5008457 1.296903e-38
0.7276544 0.1240543 2.5050001 1.296903e-38
0.58669543 0.17956038 2.5012255 1.296903e-38
0.61431229 0.18756643 2.5128751 1.296903e-38
0.66781604 0.18359224 2.5037141 1.296903e-38
0.62767285 0.21744263 2.5042286 1.296903e-38
0.65503097 0.2193037 2.5037143 1.296903e-38
0.63206285 0.25001085 2.4977996 1.296903e-38
0.64675474 0.25083032 2.4973848 1.296903e-38
0.11671314 -0.53774852 2.5319998 1.296903e-38
0.14797401 -0.52985668 2.5319998 1.296903e-38
0.17749627 -0.5278098 2.5341928 1.296903e-38
0.21235316 -0.52290714 2.5396001 1.296903e-38
0.26662704 -0.52405816 2.5358 1.296903e-38
0.30118081 -0.52626479 2.5404446 1.296903e-38
0.32434684 -0.5252313 2.5415001 1.296903e-38
0.11816 -0.51845711 2.5320001 1.296903e-38
0.15433143 -0.51604575 2.5320001 1.296903e-38
0.18114038 -0.50311559 2.5407693 1.296903e-38
0.22676851 -0.51412612 2.5436928 1.296903e-38
0.2563383 -0.51585424 2.543 1.296903e-38
0.29275763 -0.5174886 2.5510001 1.296903e-38
0.34335625 -0.51069278 2.5430329 1.296903e-38
0.38052678 -0.50661743 2.5422919 1.296903e-38
0.42010337 -0.50560522 2.5443144 1.296903e-38
0.46095455 -0.50352514 2.5434799 1.296903e-38
0.50060862 -0.49729377 2.5435851 1.296903e-38
0.53966939 -0.49252826 2.5395117 1.296903e-38
0.57832599 -0.49124992 2.535897 1.296903e-38
0.61772484 -0.49231622 2.5364461 1.296903e-38
0.6640107 -0.49139813 2.5336766 1.296903e-38
0.69966567 -0.48996279 2.5369999 1.296903e-38
0.73090547 -0.49135947 2.5394351 1.296903e-38
0.77246094 -0.48469716 2.5320001 1.296903e-38
0.87052572 -0.50639999 2.5320001 1.296903e-38
0.18470655 -0.46347824 2.5421789 1.296903e-38
0.21792156 -0.45649895 2.5480452 1.296903e-38
0.54474157 -0.47164449 2.5509996 1.296903e-38
0.57603842 -0.47276026 2.5483789 1.296903e-38
0.62268668 -0.47319049 2.5487652 1.296903e-38
0.65978622 -0.47251254 2.5488288 1.296903e-38
0.69902265 -0.47297958 2.5509996 1.296903e-38
0.74649054 -0.47404805 2.5418274 1.296903e-38
0.78371125 -0.46391097 2.5371149 1.296903e-38
0.8186056 -0.45746484 2.5395281 1.296903e-38
0.22213364 -0.42228654 2.5427177 1.296903e-38
0.25510001 -0.40699801 2.5509996 1.296903e-38
0.79145402 -0.41574141 2.5479352 1.296903e-38
0.8147766 -0.42310506 2.5357254 1.296903e-38
0.22824141 -0.38442332 2.5349236 1.296903e-38
0.25627679 -0.38056859 2.5506053 1.296903e-38
0.78459537 -0.37990877 2.5381176 1.296903e-38
0.80541718 -0.3810057 2.5320001 1.296903e-38
0.26188126 -0.33980098 2.5393894 1.296903e-38
0.28814152 -0.32507032 2.5510004 1.296903e-38
0.78246099 -0.3391014 2.5377815 1.296903e-38
0.80612636 -0.34284839 2.5320001 1.296903e-38
0.27647376 -0.30222785 2.534111 1.296903e-38
0.29322264 -0.29791218 2.5443246 1.296903e-38
0.33695629 -0.29322487 2.5510006 1.296903e-38
0.77817059 -0.30216455 2.5382113 1.296903e-38
0.8030057 -0.31107432 2.5320001 1.296903e-38
0.27731428 -0.27731428 2.5320001 1.296903e-38
0.30539939 -0.26772112 2.5406365 1.296903e-38
0.34204099 -0.25985068 2.5490003 1.296903e-38
0.36918202 -0.2515085 2.5509996 1.296903e-38
0.75305027 -0.25243583 2.5418804 1.296903e-38
0.76492649 -0.26501125 2.5372782 1.296903e-38
0.31077284 -0.22848284 2.5320001 1.296903e-38
0.3410528 -0.2224205 2.5352433 1.296903e-38
0.37425241 -0.21633328 2.5510008 1.296903e-38
0.74948847 -0.21876007 2.5372157 1.296903e-38
0.76562858 -0.21823429 2.5319998 1.296903e-38
0.35049331 -0.18486035 2.5380003 1.296903e-38
0.3791019 -0.18005644 2.547935 1.296903e-38
0.40538341 -0.17180206 2.5510004 1.296903e-38
0.74457544 -0.17950997 2.5329261 1.296903e-38
0.38713869 -0.14221832 2.5341113 1.296903e-38
0.41636533 -0.1373827 2.5510006 1.296903e-38
0.7373445 -0.13959947 2.5394852 1.296903e-38
0.39266098 -0.11012191 2.5319998 1.296903e-38
0.42538953 -0.10539375 2.5410688 1.296903e-38
0.45544228 -0.094003879 2.5510006 1.296903e-38
0.71297187 -0.089518614 2.5510006 1.296903e-38
0.72891736 -0.10260091 2.5468922 1.296903e-38
0.43103519 -0.063150249 2.5349236 1.296903e-38
0.45874247 -0.057212681 2.5408666 1.296903e-38
0.48725453 -0.047240745 2.5510004 1.296903e-38
0.54178387 -0.051020004 2.5510001 1.296903e-38
0.71078515 -0.056673624 2.545063 1.296903e-38
0.72450221 -0.064772256 2.5343757 1.296903e-38
0.4364686 -0.036171429 2.5320001 1.296903e-38
0.46368346 -0.023269653 2.5383332 1.296903e-38
0.49333641 -0.016149189 2.5510004 1.296903e-38
0.53414822 -0.0045119734 2.5510004 1.296903e-38
0.70475966 -0.017222986 2.5423961 1.296903e-38
0.72342855 -0.019291429 2.5319998 1.296903e-38
0.47397974 0.017951747 2.5320003 1.296903e-38
0.4998242 0.020231726 2.5478909 1.296903e-38
0.53993493 0.021601971 2.5461493 1.296903e-38
0.57229865 0.028085299 2.5509996 1.296903e-38
0.6025219 0.036442861 2.5510001 1.296903e-38
0.67480022 0.024902623 2.5510004 1.296903e-38
0.69637531 0.019062908 2.5409997 1.296903e-38
0.73066288 0.0048228572 2.5320001 1.296903e-38
0.51363432 0.040994287 2.5320001 1.296903e-38
0.54408097 0.058143906 2.5328078 1.296903e-38
0.57662988 0.057432063 2.5498376 1.296903e-38
0.61075854 0.057893764 2.5510006 1.296903e-38
0.67021507 0.065037474 2.54653 1.296903e-38
0.69053358 0.052864913 2.5362225 1.296903e-38
0.55318171 0.091634281 2.5319998 1.296903e-38
0.58018005 0.098120742 2.5401421 1.296903e-38
0.61640841 0.10121574 2.5500805 1.296903e-38
0.66504508 0.10242409 2.5406663 1.296903e-38
0.68747634 0.10259533 2.5320005 1.296903e-38
0.59260863 0.13745144 2.5320001 1.296903e-38
0.6190201 0.14040066 2.5375535 1.296903e-38
0.65706509 0.13853736 2.5410001 1.296903e-38
0.68404192 0.12459048 2.5320001 1.296903e-38
0.59562284 0.16156571 2.5320001 1.296903e-38
0.62544841 0.17184602 2.5319998 1.296903e-38
0.65647775 0.17750029 2.5340207 1.296903e-38
0.65574783 0.2072221 2.5320001 1.296903e-38
0.21294287 -0.52256668 2.5700002 1.296903e-38
0.3092159 -0.52134287 2.5700002 1.296903e-38
0.32553333 -0.52134287 2.5700002 1.296903e-38
0.19703335 -0.49441907 2.5700002 1.296903e-38
0.22016259 -0.49913552 2.5709355 1.296903e-38
0.26029542 -0.49901533 2.5803337 1.296903e-38
0.30069861 -0.5002805 2.5836923 1.296903e-38
0.33891287 -0.49640575 2.575429 1.296903e-38
0.37766638 -0.4923766 2.5783598 1.296903e-38
0.42083776 -0.48705915 2.5781426 1.296903e-38
0.45889667 -0.48659444 2.5714617 1.296903e-38
0.49768251 -0.48544449 2.5699999 1.296903e-38
0.52608943 -0.48408374 2.5727146 1.296903e-38
0.73918098 -0.48218098 2.5700002 1.296903e-38
0.19238287 -0.4743486 2.5700002 1.296903e-38
0.22354923 -0.46912703 2.5699999 1.296903e-38
0.26070943 -0.45925105 2.5821724 1.296903e-38
0.28520095 -0.46437621 2.5890002 1.296903e-38
0.42727309 -0.47447398 2.5890005 1.296903e-38
0.45948085 -0.46982655 2.5814993 1.296903e-38
0.49971658 -0.4707678 2.5817354 1.296903e-38
0.53556627 -0.46591181 2.5820334 1.296903e-38
0.58292985 -0.46153635 2.5811379 1.296903e-38
0.61967748 -0.46218902 2.5810318 1.296903e-38
0.66091686 -0.4591966 2.5784442 1.296903e-38
0.70245248 -0.46060452 2.5795002 1.296903e-38
0.7403127 -0.45979193 2.5802305 1.296903e-38
0.77637792 -0.45181531 2.579047 1.296903e-38
0.23619525 -0.43322861 2.5700002 1.296903e-38
0.26004833 -0.42570272 2.5705276 1.296903e-38
0.29797843 -0.41642487 2.5865734 1.296903e-38
0.34360459 -0.41641557 2.5890005 1.296903e-38
0.75533056 -0.43478769 2.5890002 1.296903e-38
0.77600509 -0.42346278 2.5775282 1.296903e-38
0.27511245 -0.37938097 2.5699999 1.296903e-38
0.29764381 -0.38037735 2.5786035 1.296903e-38
0.34124297 -0.37473845 2.5851996 1.296903e-38
0.36410388 -0.36410385 2.5890002 1.296903e-38
0.75486082 -0.36880046 2.5890005 1.296903e-38
0.76995271 -0.38080367 2.5807667 1.296903e-38
0.27576515 -0.3516413 2.5700002 1.296903e-38
0.30060774 -0.34307599 2.5709355 1.296903e-38
0.33937848 -0.34009209 2.5777116 1.296903e-38
0.3702147 -0.33572385 2.587539 1.296903e-38
0.75461477 -0.33940184 2.5878828 1.296903e-38
0.76505625 -0.34115615 2.5747499 1.296903e-38
0.31117404 -0.3052997 2.5700002 1.296903e-38
0.34040296 -0.30142221 2.5707173 1.296903e-38
0.37745884 -0.29905728 2.5752549 1.296903e-38
0.75450855 -0.30081713 2.5890005 1.296903e-38
0.76473725 -0.3015168 2.5787694 1.296903e-38
0.32879686 -0.27086985 2.5700002 1.296903e-38
0.38500017 -0.26376286 2.5747499 1.296903e-38
0.41458383 -0.25018048 2.5880506 1.296903e-38
0.74888337 -0.2617082 2.580292 1.296903e-38
0.7615577 -0.27760339 2.5795002 1.296903e-38
0.39345485 -0.22518094 2.5699999 1.296903e-38
0.41953087 -0.22169165 2.5801554 1.296903e-38
0.44629431 -0.2124624 2.5890007 1.296903e-38
0.74186236 -0.21825041 2.5870004 1.296903e-38
0.42414814 -0.18294689 2.5711875 1.296903e-38
0.45782021 -0.18052495 2.5847335 1.296903e-38
0.73145974 -0.1810261 2.5771775 1.296903e-38
0.43148026 -0.15280138 2.5700002 1.296903e-38
0.45867056 -0.14246586 2.5721924 1.296903e-38
0.49282974 -0.13285044 2.5877738 1.296903e-38
0.7128405 -0.13111593 2.5835719 1.296903e-38
0.72893214 -0.1447434 2.5758965 1.296903e-38
0.4683466 -0.10907869 2.5699999 1.296903e-38
0.49756515 -0.099602222 2.5760174 1.296903e-38
0.52873361 -0.091206551 2.5882089 1.296903e-38
0.70236957 -0.099088147 2.5825593 1.296903e-38
0.72204763 -0.11748572 2.5700002 1.296903e-38
0.47728574 -0.075876199 2.5700002 1.296903e-38
0.50116014 -0.06137576 2.5725906 1.296903e-38
0.53743923 -0.059105173 2.5761483 1.296903e-38
0.56973398 -0.052947719 2.5852003 1.296903e-38
0.67807144 -0.048492383 2.5890002 1.296903e-38
0.69504714 -0.058386166 2.5785298 1.296903e-38
0.51015389 -0.025292061 2.5699999 1.296903e-38
0.53979468 -0.021479467 2.5760005 1.296903e-38
0.57814866 -0.016737539 2.584059 1.296903e-38
0.60723829 -0.013225197 2.5890007 1.296903e-38
0.67264831 -0.011834785 2.5817621 1.296903e-38
0.69003284 -0.024618771 2.5755157 1.296903e-38
0.5164476 0.0048952382 2.5700002 1.296903e-38
0.53170925 0.012238097 2.5699999 1.296903e-38
0.58451486 0.013520178 2.5699999 1.296903e-38
0.62016594 0.022876337 2.5826664 1.296903e-38
0.66299182 0.02215155 2.5830181 1.296903e-38
0.68428439 0.010839458 2.5700002 1.296903e-38
0.59273177 0.060782544 2.5699999 1.296903e-38
0.63188946 0.060034681 2.5776002 1.296903e-38
0.65654778 0.056474265 2.5820572 1.296903e-38
0.59966666 0.080771431 2.5700002 1.296903e-38
0.63600153 0.089958236 2.5727146 1.296903e-38
0.65215921 0.093920387 2.5776 1.296903e-38
0.27580863 -0.49943718 2.6090002 1.296903e-38
0.28761122 -0.49384645 2.6090002 1.296903e-38
0.33639291 -0.4840436 2.6165001 1.296903e-38
0.38340953 -0.48592645 2.6130006 1.296903e-38
0.40253145 -0.4845286 2.6090002 1.296903e-38
0.30291626 -0.46215183 2.6175709 1.296903e-38
0.34157208 -0.46269542 2.6252062 1.296903e-38
0.37768108 -0.46504727 2.6268568 1.296903e-38
0.42181641 -0.4654471 2.6225848 1.296903e-38
0.46198744 -0.45318031 2.6168954 1.296903e-38
0.49987695 -0.45419282 2.6218572 1.296903e-38
0.54103577 -0.45201445 2.6209049 1.296903e-38
0.58101863 -0.44830927 2.6156671 1.296903e-38
0.6211291 -0.44810012 2.6140003 1.296903e-38
0.65925258 -0.44901779 2.6106009 1.296903e-38
0.69805157 -0.44855636 2.6114004 1.296903e-38
0.73797441 -0.44706604 2.6090007 1.296903e-38
0.30997407 -0.42800024 2.6090002 1.296903e-38
0.33605218 -0.41833812 2.6094453 1.296903e-38
0.37087721 -0.41706738 2.6241519 1.296903e-38
0.46904704 -0.43649751 2.6290002 1.296903e-38
0.48323527 -0.43816671 2.6290002 1.296903e-38
0.55459386 -0.4369148 2.6290002 1.296903e-38
0.58156663 -0.43338668 2.6290007 1.296903e-38
0.62208289 -0.43680096 2.6289999 1.296903e-38
0.6620149 -0.4326137 2.6231177 1.296903e-38
0.70273465 -0.43194902 2.621778 1.296903e-38
0.74474627 -0.42850545 2.6196666 1.296903e-38
0.76549798 -0.41189712 2.6090007 1.296903e-38
0.31556478 -0.39507717 2.6090002 1.296903e-38
0.33140513 -0.38917586 2.6090007 1.296903e-38
0.38046256 -0.38033721 2.6217995 1.296903e-38
0.41047752 -0.37188938 2.6290002 1.296903e-38
0.74632573 -0.37917194 2.6261995 1.296903e-38
0.76530671 -0.39010769 2.6090002 1.296903e-38
0.3883366 -0.34493169 2.6165009 1.296903e-38
0.41784945 -0.33852729 2.6271474 1.296903e-38
0.4431743 -0.32799906 2.6290002 1.296903e-38
0.74799401 -0.34045666 2.6284997 1.296903e-38
0.39507717 -0.31059527 2.6090002 1.296903e-38
0.41927639 -0.29946306 2.6202488 1.296903e-38
0.45414335 -0.29318416 2.6290007 1.296903e-38
0.48323527 -0.28293049 2.6290002 1.296903e-38
0.71859342 -0.28543431 2.6290002 1.296903e-38
0.73974955 -0.29882759 2.6214581 1.296903e-38
0.4248428 -0.26568526 2.6112864 1.296903e-38
0.46169883 -0.26006171 2.6223323 1.296903e-38
0.48657376 -0.25371939 2.6289999 1.296903e-38
0.71397108 -0.25288481 2.6289999 1.296903e-38
0.73440754 -0.2600629 2.617846 1.296903e-38
0.46597031 -0.22150619 2.614455 1.296903e-38
0.49669564 -0.216589 2.6273332 1.296903e-38
0.5470165 -0.21545942 2.6290004 1.296903e-38
0.70817357 -0.21776409 2.6266742 1.296903e-38
0.73116213 -0.22251286 2.6115649 1.296903e-38
0.47600946 -0.1891969 2.6090002 1.296903e-38
0.50239873 -0.17995557 2.6243565 1.296903e-38
0.53935009 -0.17821231 2.6289999 1.296903e-38
0.57149458 -0.16462548 2.6289999 1.296903e-38
0.67853242 -0.19780096 2.6290002 1.296903e-38
0.70371693 -0.18029304 2.6219223 1.296903e-38
0.7244212 -0.17551455 2.6090004 1.296903e-38
0.5077489 -0.14677593 2.6119637 1.296903e-38
0.54170561 -0.13900794 2.6220901 1.296903e-38
0.5785206 -0.13865903 2.6275177 1.296903e-38
0.60627961 -0.12840968 2.6290002 1.296903e-38
0.67352486 -0.13417473 2.6290002 1.296903e-38
0.69881141 -0.14044558 2.6179218 1.296903e-38
0.72306573 -0.1515705 2.6090002 1.296903e-38
0.54720515 -0.10392924 2.6105011 1.296903e-38
0.57927269 -0.099453777 2.610429 1.296903e-38
0.61897749 -0.098542787 2.6289992 1.296903e-38
0.66504902 -0.099042453 2.6237364 1.296903e-38
0.68725717 -0.10562923 2.6111059 1.296903e-38
0.58792233 -0.063085355 2.6090009 1.296903e-38
0.62069625 -0.060198087 2.6188245 1.296903e-38
0.66217232 -0.059520163 2.6227126 1.296903e-38
0.68662262 -0.067640752 2.6090004 1.296903e-38
0.59385824 -0.030043032 2.6090004 1.296903e-38
0.62390119 -0.021572253 2.6090012 1.296903e-38
0.65975749 -0.022550348 2.6193442 1.296903e-38
0.68330956 -0.032301906 2.6090002 1.296903e-38
0.63402849 0.0095249219 2.6090007 1.296903e-38
0.65318191 0.0083860718 2.6090007 1.296903e-38
0.33441871 -0.46336481 2.6490002 1.296903e-38
0.38996166 -0.44942906 2.6490006 1.296903e-38
0.41552392 -0.44860137 2.6490014 1.296903e-38
0.45021534 -0.44516963 2.6490002 1.296903e-38
0.50646359 -0.44276142 2.6490002 1.296903e-38
0.53484577 -0.44150004 2.6490002 1.296903e-38
0.39104289 -0.42384002 2.6490009 1.296903e-38
0.42029732 -0.42025754 2.6583765 1.296903e-38
0.45698109 -0.42431533 2.6606281 1.296903e-38
0.49983203 -0.42929149 2.6609995 1.296903e-38
0.53960973 -0.43039918 2.6615715 1.296903e-38
0.57791978 -0.42251092 2.6576676 1.296903e-38
0.62152344 -0.42507055 2.6601627 1.296903e-38
0.6599285 -0.41713509 2.6606278 1.296903e-38
0.70156127 -0.4151518 2.6565008 1.296903e-38
0.74140888 -0.41281262 2.653187 1.296903e-38
0.76442575 -0.41374859 2.6490002 1.296903e-38
0.3960886 -0.3960886 2.6490002 1.296903e-38
0.42453197 -0.3837235 2.6506679 1.296903e-38
0.45745549 -0.37883446 2.658057 1.296903e-38
0.48042002 -0.3711181 2.6690001 1.296903e-38
0.7193591 -0.39399526 2.6690001 1.296903e-38
0.73009104 -0.38179123 2.6590002 1.296903e-38
0.43645436 -0.35067719 2.6490002 1.296903e-38
0.46071264 -0.3390733 2.6505108 1.296903e-38
0.49583906 -0.33567607 2.6647894 1.296903e-38
0.71827328 -0.3253884 2.6650002 1.296903e-38
0.73352414 -0.33990285 2.6590002 1.296903e-38
0.46471033 -0.30375203 2.6490014 1.296903e-38
0.50016493 -0.29866299 2.6582596 1.296903e-38
0.53343695 -0.29322693 2.6689997 1.296903e-38
0.7126255 -0.29497576 2.6623335 1.296903e-38
0.72483557 -0.30848917 2.6518574 1.296903e-38
0.50555259 -0.26125589 2.6490014 1.296903e-38
0.54077381 -0.25999591 2.6663077 1.296903e-38
0.56849426 -0.25770545 2.6679471 1.296903e-38
0.70048928 -0.26010281 2.6582596 1.296903e-38
0.72406006 -0.26994574 2.6490002 1.296903e-38
0.51087856 -0.23147216 2.6490006 1.296903e-38
0.53839773 -0.22399166 2.6503057 1.296903e-38
0.58079183 -0.216332 2.6629131 1.296903e-38
0.61319715 -0.20589426 2.6689999 1.296903e-38
0.67554754 -0.2114187 2.6597695 1.296903e-38
0.69195807 -0.22377448 2.6508193 1.296903e-38
0.54342341 -0.18295762 2.6490011 1.296903e-38
0.58146602 -0.18332678 2.6585002 1.296903e-38
0.61978668 -0.17885609 2.6686077 1.296903e-38
0.66544735 -0.17522703 2.6619167 1.296903e-38
0.68657762 -0.17804164 2.6490006 1.296903e-38
0.54493719 -0.15641715 2.6490002 1.296903e-38
0.59690803 -0.15288515 2.6490002 1.296903e-38
0.621737 -0.14104004 2.6573339 1.296903e-38
0.65830052 -0.14156085 2.6578896 1.296903e-38
0.6836943 -0.15389429 2.6490002 1.296903e-38
0.63323718 -0.11857429 2.6490002 1.296903e-38
0.65032607 -0.10432784 2.6501117 1.296903e-38
0.65846574 -0.075685717 2.6490002 1.296903e-38
0.47029564 -0.41153198 2.6916156 1.296903e-38
0.50114191 -0.41180569 2.7025993 1.296903e-38
0.54014426 -0.41195485 2.7048535 1.296903e-38
0.57673836 -0.4086425 2.7013078 1.296903e-38
0.61925489 -0.40696767 2.6999168 1.296903e-38
0.65623456 -0.40395033 2.6944206 1.296903e-38
0.70363361 -0.40344071 2.6939373 1.296903e-38
0.47907618 -0.39709523 2.6900001 1.296903e-38
0.50230539 -0.37930137 2.7002668 1.296903e-38
0.53950346 -0.37931058 2.710999 1.296903e-38
0.57873797 -0.38517317 2.7109993 1.296903e-38
0.61500978 -0.39193323 2.711 1.296903e-38
0.66911995 -0.38883933 2.7039995 1.296903e-38
0.70316148 -0.37973404 2.7014847 1.296903e-38
0.7267651 -0.37472007 2.6917503 1.296903e-38
0.50583386 -0.35041165 2.6900003 1.296903e-38
0.53811967 -0.33999291 2.7005 1.296903e-38
0.57637912 -0.33901978 2.7060163 1.296903e-38
0.60726404 -0.32841834 2.7110002 1.296903e-38
0.70300162 -0.33931133 2.7006617 1.296903e-38
0.72672701 -0.35012698 2.6900003 1.296903e-38
0.54722291 -0.30614769 2.6899996 1.296903e-38
0.57800347 -0.30018404 2.6938579 1.296903e-38
0.6176827 -0.29661539 2.7109993 1.296903e-38
0.66193789 -0.29360747 2.7100658 1.296903e-38
0.69652474 -0.30315053 2.6979334 1.296903e-38
0.54824764 -0.27156192 2.6900001 1.296903e-38
0.58779711 -0.26339582 2.6900003 1.296903e-38
0.62163305 -0.25949338 2.7060583 1.296903e-38
0.66344285 -0.25850442 2.7077408 1.296903e-38
0.68737519 -0.2669594 2.6937056 1.296903e-38
0.59179997 -0.23825714 2.6900001 1.296903e-38
0.62199277 -0.22540852 2.6911058 1.296903e-38
0.66050559 -0.22039796 2.693001 1.296903e-38
0.68402863 -0.2314254 2.6900001 1.296903e-38
0.62049341 -0.17984572 2.6900003 1.296903e-38
0.65712863 -0.18665308 2.6900001 1.296903e-38
0.6379143 -0.14602858 2.6900001 1.296903e-38
0.64303815 -0.15115237 2.6900001 1.296903e-38
0.54087371 -0.38678461 2.733 1.296903e-38
0.57809454 -0.37377033 2.7330008 1.296903e-38
0.62065858 -0.37546346 2.7348678 1.296903e-38
0.66077536 -0.37710479 2.7400005 1.296903e-38
0.68975711 -0.36492059 2.733 1.296903e-38
0.59605426 -0.35659143 2.733 1.296903e-38
0.62308854 -0.34284461 2.7379744 1.296903e-38
0.66273332 -0.34078738 2.7492268 1.296903e-38
0.68585396 -0.34163308 2.7347503 1.296903e-38
0.63162673 -0.31321046 2.7330003 1.296903e-38
0.65892327 -0.31294352 2.7330003 1.296903e-38
0.65563083 -0.26520219 2.733 1.296903e-38
0.66912484 -0.3411743 2.7770002 1.296903e-38
-0.13183767 -0.082256384 0.59782368 1.5909806e-38
-0.13322085 -0.072549202 0.59627289 1.5909806e-38
-0.13652307 -0.087333031 0.60304523 1.5909806e-38
-0.11853347 -0.081445307 0.6004287 1.5909806e-38
-0.069284394 -0.081237428 0.62137938 1.5909806e-38
-0.13147214 -0.05824485 0.60971105 1.5909806e-38
-0.1016588 -0.057605617 0.62557536 1.5909806e-38
-0.065555081 -0.064699613 0.62395406 1.5909806e-38
-0.12524536 -0.035757534 0.63575006 1.5909806e-38
-0.096490674 -0.021119848 0.63647294 1.5909806e-38
-0.063413158 0.017405147 0.63900006 1.5909806e-38
-0.095846616 -0.092666 0.65190458 1.5909806e-38
-0.079448439 -0.091956742 0.65685725 1.5909806e-38
-0.13650382 -0.041876972 0.64063644 1.5909806e-38
-0.10326353 -0.07018885 0.65028328 1.5909806e-38
-0.054300707 -0.051506009 0.65791285 1.5909806e-38
-0.033209227 -0.054769199 0.65937907 1.5909806e-38
-0.13077441 -0.017239265 0.65706742 1.5909806e-38
-0.10017807 -0.019945661 0.64814293 1.5909806e-38
-0.062024165 -0.021784741 0.66237712 1.5909806e-38
-0.036672741 -0.033573654 0.6741001 1.5909806e-38
-0.12770075 0.020674992 0.65419722 1.5909806e-38
-0.10049512 0.019491358 0.64981741 1.5909806e-38
-0.065180816 0.011461753 0.65813333 1.5909806e-38
-0.12820886 0.057332221 0.65815556 1.5909806e-38
-0.10056655 0.060877986 0.64554107 1.5909806e-38
-0.073205501 0.073706076 0.65545112 1.5909806e-38
-0.12086858 0.081208572 0.66100001 1.5909806e-38
-0.093070365 0.096527711 0.65069956 1.5909806e-38
-0.066300571 0.099268928 0.65812325 1.5909806e-38
-0.08678142 0.13903606 0.66968822 1.5909806e-38
-0.068428889 0.13907129 0.66904467 1.5909806e-38
-0.084207527 0.17127319 0.67706335 1.5909806e-38
-0.070905864 0.17336267 0.67587239 1.5909806e-38
0.19009674 0.26978821 0.67390162 1.5909806e-38
0.21934204 0.26662907 0.67043549 1.5909806e-38
0.25330025 0.27053607 0.67341053 1.5909806e-38
0.184956 0.2902514 0.67186105 1.5909806e-38
0.21926963 0.28897285 0.66320974 1.5909806e-38
0.26004878 0.2901476 0.66987151 1.5909806e-38
0.28299791 0.29559857 0.67818218 1.5909806e-38
-0.019288661 -0.046286095 0.70441383 1.5909806e-38
-0.14124098 -0.0054785581 0.68072736 1.5909806e-38
-0.041083049 -0.021902857 0.68040001 1.5909806e-38
-0.018823747 -0.032884996 0.70949763 1.5909806e-38
0.00068333332 -0.034165241 0.71750003 1.5909806e-38
-0.14447197 0.017883318 0.68286765 1.5909806e-38
-0.084120005 0.039389525 0.70100003 1.5909806e-38
-0.06033846 0.030766357 0.69519103 1.5909806e-38
-0.14198001 0.041220002 0.68700004 1.5909806e-38
-0.086285383 0.052481201 0.69397813 1.5909806e-38
-0.061287813 0.059255548 0.69128007 1.5909806e-38
-0.051526278 0.094079658 0.68945801 1.5909806e-38
-0.093283214 0.15526012 0.68137497 1.5909806e-38
-0.051040869 0.14296278 0.6916244 1.5909806e-38
-0.090079196 0.18515064 0.68446493 1.5909806e-38
-0.054608464 0.18313134 0.68996119 1.5909806e-38
-0.036377795 0.18766582 0.71330625 1.5909806e-38
-0.091121756 0.22103375 0.69496334 1.5909806e-38
-0.059459254 0.22009203 0.68988079 1.5909806e-38
-0.034140266 0.22192453 0.70847529 1.5909806e-38
0.1937061 0.23762541 0.71450001 1.5909806e-38
0.22046186 0.23555225 0.71040642 1.5909806e-38
0.25246 0.23657672 0.71259898 1.5909806e-38
-0.09102308 0.25992489 0.70428085 1.5909806e-38
-0.05958673 0.25969413 0.69514424 1.5909806e-38
-0.030342378 0.26098734 0.7092427 1.5909806e-38
0.15197435 0.27023783 0.70777643 1.5909806e-38
0.17823119 0.25699991 0.69668341 1.5909806e-38
0.22017978 0.24703492 0.69028753 1.5909806e-38
0.26258743 0.25370005 0.69322515 1.5909806e-38
0.29480609 0.26596084 0.70264447 1.5909806e-38
0.32276666 0.27807048 0.71650004 1.5909806e-38
-0.086385213 0.29426441 0.71343791 1.5909806e-38
-0.059443701 0.29955855 0.70689571 1.5909806e-38
-0.029943753 0.29780081 0.71308511 1.5909806e-38
0.14383161 0.29738271 0.70287216 1.5909806e-38
0.16539304 0.29287872 0.68385738 1.5909806e-38
0.27888668 0.28083146 0.68099999 1.5909806e-38
0.30309713 0.29393294 0.69020569 1.5909806e-38
0.33688068 0.30286348 0.70801568 1.5909806e-38
0.36086956 0.3074581 0.71900004 1.5909806e-38
-0.073726043 0.32115334 0.71900004 1.5909806e-38
-0.031563621 0.32043871 0.71740001 1.5909806e-38
0.12718762 0.32070667 0.71800005 1.5909806e-38
0.35616797 0.32088923 0.71233338 1.5909806e-38
-0.012131136 -0.014374962 0.72919476 1.5909806e-38
0.0021525305 -0.015690271 0.72584271 1.5909806e-38
-0.010107014 0.0040253336 0.73756462 1.5909806e-38
0.0011603176 0.0023206349 0.73100007 1.5909806e-38
-0.040457144 0.18720001 0.72000003 1.5909806e-38
-0.035531692 0.18347137 0.72127289 1.5909806e-38
0.21690834 0.19967885 0.75800008 1.5909806e-38
-0.023743317 0.22864886 0.7299245 1.5909806e-38
0.15000419 0.22781254 0.75069499 1.5909806e-38
0.18069629 0.22208406 0.74160498 1.5909806e-38
0.21918876 0.21687001 0.73891687 1.5909806e-38
0.25942296 0.22208425 0.73873788 1.5909806e-38
0.29445037 0.23120885 0.74572617 1.5909806e-38
-0.01421107 0.26142514 0.73186344 1.5909806e-38
0.055724166 0.27758959 0.75800014 1.5909806e-38
0.11876267 0.27749714 0.75760001 1.5909806e-38
0.1394383 0.25899124 0.73890835 1.5909806e-38
0.16704597 0.24445374 0.72555244 1.5909806e-38
0.27862859 0.24114287 0.72000003 1.5909806e-38
0.30646959 0.25127733 0.73096007 1.5909806e-38
0.33803722 0.26445544 0.74455613 1.5909806e-38
0.36877516 0.27304119 0.75253898 1.5909806e-38
-0.093024939 0.30233732 0.72353947 1.5909806e-38
-0.01044423 0.30099189 0.72949803 1.5909806e-38
0.021168675 0.30331802 0.7524718 1.5909806e-38
0.050957851 0.2977013 0.75669438 1.5909806e-38
0.11289931 0.30482489 0.74456698 1.5909806e-38
0.12562242 0.29581323 0.72905219 1.5909806e-38
0.34824258 0.28925058 0.72912657 1.5909806e-38
0.36609134 0.29108131 0.73768359 1.5909806e-38
-0.089022838 0.32519472 0.73502505 1.5909806e-38
-0.077028573 0.32091427 0.72000003 1.5909806e-38
-0.010237842 0.324251 0.73303384 1.5909806e-38
0.020339739 0.32756594 0.74816728 1.5909806e-38
0.044825595 0.32836673 0.75533324 1.5909806e-38
0.10481531 0.32657301 0.74401635 1.5909806e-38
0.12269118 0.32125324 0.72118187 1.5909806e-38
0.073720016 0.199728 0.79799998 1.5909806e-38
0.10525487 0.19718556 0.79724163 1.5909806e-38
0.14321269 0.1870762 0.7868647 1.5909806e-38
0.17999005 0.18385169 0.77958846 1.5909806e-38
0.21906053 0.1853722 0.77865213 1.5909806e-38
0.2561717 0.19074965 0.78512734 1.5909806e-38
0.288865 0.19707783 0.79366678 1.5909806e-38
0.026836958 0.22944324 0.78798276 1.5909806e-38
0.060948014 0.22144662 0.78167033 1.5909806e-38
0.099578537 0.2197981 0.78210509 1.5909806e-38
0.1349262 0.21633102 0.77302951 1.5909806e-38
0.17257319 0.20301731 0.76159328 1.5909806e-38
0.22845438 0.20160039 0.76046437 1.5909806e-38
0.26495209 0.20538284 0.76747155 1.5909806e-38
0.30207747 0.2143303 0.77774149 1.5909806e-38
0.3376762 0.2273301 0.78192925 1.5909806e-38
0.37330082 0.23522906 0.79129744 1.5909806e-38
0.40052003 0.23940001 0.79800004 1.5909806e-38
-0.0067870398 0.25897524 0.78524113 1.5909806e-38
0.019624949 0.2600739 0.77220726 1.5909806e-38
0.059887692 0.25887847 0.76375651 1.5909806e-38
0.10052489 0.26011884 0.76932508 1.5909806e-38
0.12384418 0.25233898 0.76524639 1.5909806e-38
0.34844488 0.24812007 0.7655322 1.5909806e-38
0.37699518 0.25295147 0.77375275 1.5909806e-38
0.4000181 0.24061811 0.79700005 1.5909806e-38
-0.0023650625 0.28343746 0.7693159 1.5909806e-38
0.01436312 0.28500393 0.76100051 1.5909806e-38
0.068454951 0.3003909 0.76151776 1.5909806e-38
0.097336821 0.29787838 0.7687726 1.5909806e-38
0.064960755 0.33374974 0.77066427 1.5909806e-38
0.088153124 0.33222303 0.77378869 1.5909806e-38
0.38785133 -0.0046295901 0.83344567 1.5909806e-38
0.41069329 -0.012075384 0.83547783 1.5909806e-38
0.38362899 0.021416992 0.83041865 1.5909806e-38
0.40738034 0.0216118 0.82500851 1.5909806e-38
0.35401687 0.067676261 0.83331043 1.5909806e-38
0.37836412 0.059154276 0.82110363 1.5909806e-38
