# .PCD v0.7 - Point Cloud Data file format
VERSION 0.7
FIELDS x y z rgb
SIZE 4 4 4 4
TYPE F F F F
COUNT 1 1 1 1
WIDTH 279
HEIGHT 1
VIEWPOINT 0 0 0 1 0 0 0
POINTS 279
DATA ascii
-0.083012626 -0.080838822 0.50674999 1.8159671e-38
-0.07079687 -0.084692448 0.50472558 1.5292592e-38
-0.087366238 -0.059540316 0.50484914 1.2338726e-38
-0.072365947 -0.06949155 0.49418342 1.2339445e-38
-0.090555437 -0.03248034 0.49914411 1.1325289e-38
-0.067418434 -0.022356225 0.48836839 7.5582648e-39
0.0052563935 -0.036165949 0.51890922 1.9159042e-38
-0.083923891 0.017799733 0.49979877 8.1186469e-39
-0.069423966 0.012854094 0.49125606 7.4776131e-39
-0.31074673 0.23209386 0.51778859 9.5854602e-39
-0.094210878 -0.013457693 0.53305638 1.1140895e-38
-0.04350372 -0.0048661488 0.54075009 7.5495978e-39
-0.019118568 -0.0079365382 0.53756255 1.1972107e-38
0.0047640987 -0.020417793 0.53558832 1.9254837e-38
-0.093424521 0.018110888 0.54241753 1.0588442e-38
-0.055739969 0.023837345 0.54235721 1.1969941e-38
-0.025207458 0.014217917 0.54272878 1.3539426e-38
0.00052285718 0.00052285718 0.54900002 2.1664172e-38
-0.086154819 0.046124287 0.55570567 9.2987798e-39
-0.06778311 0.045579974 0.5547567 1.0957224e-38
-0.30031455 0.13946244 0.5408752 1.2164788e-38
-0.32238564 0.17908268 0.53479439 1.0415225e-38
-0.29857373 0.18497711 0.53683889 9.8606136e-39
-0.26761132 0.19336194 0.5517112 1.0228674e-38
-0.32519251 0.21923037 0.54618132 8.3869198e-39
-0.29836383 0.21850277 0.53566957 8.3854835e-39
-0.27247679 0.21101524 0.53703719 8.8482623e-39
-0.29584286 0.24021429 0.53100002 8.9382845e-39
-0.041090481 0.038956508 0.56033337 1.3352149e-38
-0.033154786 0.03735492 0.56284094 1.7041053e-38
-0.0908482 0.065503508 0.56899774 9.4824536e-39
-0.058293328 0.063073292 0.57110399 1.289153e-38
-0.035961054 0.056256853 0.57997882 1.6210215e-38
-0.092785977 0.099740252 0.58468419 8.4686632e-39
-0.064378954 0.097775556 0.5868752 1.3351786e-38
-0.038295809 0.080569714 0.59660006 1.6024017e-38
-0.090134762 0.13113903 0.59536582 8.376106e-39
-0.071535483 0.13013141 0.5956865 1.1139818e-38
-0.24873951 0.19523817 0.56350005 1.2071509e-38
-0.23463754 0.19832753 0.57180655 1.2163355e-38
-0.25275353 0.21572353 0.56816614 9.2156057e-39
-0.22466284 0.22245908 0.58273804 9.4914793e-39
-0.24000572 0.2411143 0.58200002 6.5423038e-39
-0.23103456 0.24168031 0.58292001 7.6475583e-39
-0.11117004 0.11058006 0.60487044 9.3888258e-39
-0.046541162 0.10639665 0.60721606 1.6667581e-38
-0.039168697 0.098967701 0.60977429 1.5375774e-38
-0.12173533 0.14507502 0.62395239 1.077105e-38
-0.10319802 0.14483155 0.6077584 8.6537747e-39
-0.056569334 0.1427805 0.61207283 1.5101704e-38
-0.039342657 0.13371266 0.62804353 1.648175e-38
-0.12077365 0.16939779 0.62744451 9.2094778e-39
-0.098526858 0.17928915 0.61858082 8.1009639e-39
-0.061778028 0.17874624 0.62265629 1.2890814e-38
-0.093178064 0.20849895 0.63298035 7.455956e-39
-0.067993082 0.20818898 0.63349462 9.8505228e-39
0.22369206 0.26764888 0.63443887 9.481376e-39
0.25087851 0.26992241 0.63548744 1.4090433e-38
0.216801 0.28249997 0.63407558 8.3768249e-39
0.25675735 0.28277031 0.63519585 1.3168835e-38
-0.0408381 0.15603811 0.64000005 1.7312964e-38
-0.038179092 0.15468831 0.64273083 1.7220036e-38
-0.12129524 0.19382858 0.64000005 8.8356619e-39
-0.043213747 0.18769221 0.64289176 1.6483915e-38
-0.034970995 0.18057376 0.6530512 1.6666862e-38
-0.12028095 0.20787081 0.64766669 9.4759824e-39
-0.099648632 0.22467987 0.64792901 7.5492306e-39
-0.056174751 0.22348133 0.6507777 1.150896e-38
-0.036217127 0.21525832 0.6648652 1.4917307e-38
0.19749345 0.23810208 0.67680007 1.1323467e-38
0.2230797 0.23506354 0.66990292 1.2429819e-38
0.25665841 0.23428753 0.67000067 1.5471553e-38
0.28554875 0.23765768 0.67745948 1.8698767e-38
-0.09410765 0.25070938 0.66806591 7.0889742e-39
-0.061172292 0.25226447 0.66829801 8.4690275e-39
-0.038822539 0.24173811 0.67566669 1.2062482e-38
0.15746474 0.2773931 0.67762506 9.6661134e-39
0.18367673 0.26321435 0.66186714 1.0126374e-38
0.21545431 0.25105837 0.64994079 1.0678832e-38
0.26281318 0.25418612 0.64941436 1.6855576e-38
0.29634953 0.26149821 0.6633085 2.0083868e-38
0.32237095 0.27551645 0.67547065 2.128421e-38
0.15453887 0.29132935 0.67452431 8.7441627e-39
0.17688277 0.28675908 0.65561903 8.5601343e-39
0.20053335 0.28391621 0.64000005 8.1002352e-39
0.27523816 0.28418082 0.64188653 1.59347e-38
0.3017756 0.28798962 0.65727615 1.8146676e-38
0.32622588 0.2941128 0.67552394 1.9160109e-38
-0.015221312 0.18886827 0.7113077 1.1689742e-38
0.019429093 0.18787761 0.71228683 1.2796089e-38
0.05254947 0.19158609 0.71610254 1.427122e-38
0.21790068 0.19900487 0.71879995 1.3626201e-38
0.24624038 0.19899182 0.71899998 1.5008775e-38
-0.016786799 0.22059238 0.69472885 1.076923e-38
0.019779569 0.2195943 0.70095247 1.2245081e-38
0.05826655 0.21875942 0.71305472 1.2522024e-38
0.08045952 0.21535763 0.71900004 1.2705695e-38
0.15471934 0.23289114 0.71610105 1.0310042e-38
0.18219501 0.22367875 0.70610404 1.1508221e-38
0.21927391 0.21680008 0.70057249 1.2705685e-38
0.25953677 0.21646495 0.69946384 1.5747059e-38
0.29697612 0.22715062 0.70267349 1.9250858e-38
0.32416654 0.23551919 0.71528566 2.0910749e-38
-0.088938884 0.26956815 0.68409675 6.7212734e-39
-0.054990482 0.27094701 0.68398762 7.3637604e-39
-0.020317532 0.2584911 0.68899286 9.1125935e-39
0.019152844 0.25789735 0.70342189 8.9289197e-39
0.050286677 0.25096685 0.71440649 8.7441669e-39
0.14664327 0.26306272 0.70409667 9.7575887e-39
0.17059986 0.24967001 0.68984288 1.086321e-38
0.31176403 0.248275 0.68818384 2.0636321e-38
0.33571896 0.26260009 0.70283729 2.0728876e-38
-0.081770867 0.28461143 0.69920009 1.1236338e-38
-0.057911038 0.28578207 0.69466293 9.1187143e-39
-0.021528164 0.28562194 0.70190018 4.5093028e-39
0.011073976 0.28368765 0.71412247 3.9557619e-39
0.11596768 0.30646548 0.71479231 7.822205e-39
0.13435069 0.29422179 0.69709015 8.6516083e-39
0.34001258 0.2913352 0.68855888 1.9345222e-38
0.10940857 0.32070667 0.71800005 7.0860847e-39
0.024826271 0.15495785 0.74729037 1.3717325e-38
0.059856843 0.15301172 0.74724853 1.5375763e-38
0.099638812 0.15432002 0.75347418 1.53754e-38
0.14165264 0.15284184 0.75411963 1.3349262e-38
0.17896082 0.15115808 0.75253606 1.4915505e-38
0.21065193 0.15556693 0.75459093 1.694273e-38
-0.040320534 0.17290254 0.73700005 1.5653783e-38
-0.018790446 0.17183331 0.73223215 1.2518784e-38
0.019926473 0.16776438 0.72939825 1.3255628e-38
0.062705822 0.17488325 0.72786504 1.4916227e-38
0.099508636 0.17962079 0.73664254 1.565379e-38
0.14102037 0.18017109 0.74457467 1.1138728e-38
0.17988339 0.17999455 0.73448688 1.316523e-38
0.21991587 0.18034743 0.73554331 1.5192452e-38
0.25804013 0.18469796 0.73972887 1.7219675e-38
0.2936371 0.19336703 0.74894011 1.9063585e-38
0.07684505 0.22699593 0.72130781 1.095542e-38
0.099183813 0.21924803 0.72948164 1.0955779e-38
0.13956925 0.21914297 0.73509979 8.6523258e-39
0.17129853 0.20587726 0.72228187 1.1692255e-38
0.27097344 0.2025893 0.72312057 1.7313668e-38
0.30363697 0.20968062 0.73278672 1.9341611e-38
0.3377035 0.22308335 0.74241853 2.0265014e-38
0.36884624 0.2332661 0.75394797 1.9620723e-38
0.035484932 0.27699253 0.72211772 5.4269291e-39
0.065113828 0.26301244 0.72861201 6.348521e-39
0.10260947 0.26063579 0.74229491 5.612035e-39
0.12857345 0.25613323 0.73144186 7.7310939e-39
0.35081577 0.25205639 0.72818488 2.0544124e-38
0.36691388 0.25293791 0.74085802 1.8975721e-38
0.022229793 0.28674424 0.72359997 3.2200017e-39
0.056566484 0.28495076 0.73812121 3.865011e-39
0.10429971 0.29963762 0.73826897 6.8098551e-39
0.12116077 0.28215906 0.72120005 8.3750242e-39
0.095103838 0.3264986 0.74394411 6.5339885e-39
0.39824003 -0.01216 0.79800004 6.0769956e-39
0.39338157 0.033193808 0.79687154 1.1323498e-38
0.38351864 0.061894715 0.7940715 9.9448765e-39
0.11279207 0.11687139 0.794182 1.463963e-38
0.14150935 0.11397322 0.78805113 1.510097e-38
0.17803757 0.11394703 0.78952688 1.6667215e-38
0.20284823 0.11812358 0.79425001 1.7864675e-38
0.38176543 0.098368108 0.79284543 5.6174524e-39
0.031013947 0.14652561 0.76544631 1.4178303e-38
0.062792875 0.13867889 0.77660894 1.4823665e-38
0.10057206 0.13469695 0.77389872 1.4454523e-38
0.13902588 0.13322322 0.76766294 1.4362333e-38
0.18026911 0.13198805 0.76991546 1.6298434e-38
0.21923369 0.14026047 0.77604139 1.7771763e-38
0.25634995 0.15241049 0.78394932 1.7127115e-38
0.28467494 0.15829144 0.79426682 1.6759411e-38
0.38946688 0.12395003 0.79591936 4.9727949e-39
0.23834226 0.16130921 0.76066673 1.7585222e-38
0.26466462 0.16576131 0.7678948 1.7679935e-38
0.30116165 0.17709258 0.77728039 1.8050154e-38
0.3344329 0.18940207 0.78268987 1.9803673e-38
0.36604387 0.19830646 0.79604769 1.9526723e-38
0.348212 0.2077838 0.76755559 1.998591e-38
0.37703454 0.21568568 0.77943629 1.9434534e-38
0.40026906 0.21418524 0.79750001 1.9525282e-38
0.099614963 0.27777967 0.76092315 3.1256467e-39
0.076163158 0.31029317 0.79126424 4.1430258e-39
0.088323705 0.30079985 0.77050352 4.692601e-39
0.078550339 0.33292308 0.78676939 5.8911456e-39
0.083481304 0.33135548 0.76888788 6.350679e-39
0.41145357 -0.083788238 0.83468026 4.1466524e-39
0.39127442 -0.050455071 0.83455646 4.1452006e-39
0.40739831 -0.061869312 0.83127254 5.0649961e-39
0.35686094 -0.001524762 0.83827281 4.4199952e-39
0.38264459 -0.017721791 0.82287371 7.0907762e-39
0.40343806 -0.025861138 0.81380188 8.9321651e-39
0.35333949 0.02259979 0.83015919 8.930363e-39
0.37770155 0.01886561 0.8109628 1.0771395e-38
0.40224224 0.0083451001 0.80729407 8.6519783e-39
0.34819129 0.06128991 0.82317978 9.1151088e-39
0.36732209 0.055680424 0.80478168 9.7590419e-39
0.10368534 0.11463161 0.80811274 1.4547441e-38
0.13852103 0.10565947 0.8077938 1.4916945e-38
0.17909902 0.10383788 0.81011224 1.5653787e-38
0.20991065 0.11540705 0.80538481 1.6758682e-38
0.34628421 0.10024324 0.82439625 8.1935112e-39
0.36525688 0.1044457 0.80367601 6.3521266e-39
0.06156889 0.13165106 0.80390477 1.4455248e-38
0.08645013 0.12276641 0.80497146 1.4547438e-38
0.23164086 0.13007522 0.80411571 1.5836728e-38
0.26285064 0.14193964 0.81411618 1.5100247e-38
0.30153421 0.14798385 0.82240593 1.3903507e-38
0.33997113 0.13946906 0.82936651 1.1692975e-38
0.37787974 0.13942762 0.81708694 9.2069457e-39
0.40216148 0.14279319 0.8063243 1.0041398e-38
0.31228399 0.1633175 0.80310732 1.6576101e-38
0.34391582 0.17254257 0.81256419 1.9158302e-38
0.37783056 0.18291031 0.82139426 1.9159023e-38
0.40904352 0.19299749 0.82939357 1.9158302e-38
0.39149535 0.20432729 0.80323941 1.9342337e-38
0.40466648 0.20531093 0.81057513 1.9526726e-38
-0.025409717 0.37395436 0.83900017 2.2105357e-39
0.38706014 -0.086151995 0.86639482 3.4090831e-39
0.40411472 -0.086811058 0.84735823 3.9629786e-39
0.3551642 -0.050969582 0.8706978 3.0399363e-39
0.37649053 -0.062590048 0.85583764 3.0402978e-39
0.40095145 -0.079388574 0.84200001 3.5001969e-39
0.34728596 -0.017848043 0.86501175 7.3644806e-39
0.36681503 -0.028004248 0.84714651 3.59311e-39
0.31832486 0.016671499 0.87564301 1.0681716e-38
0.33648157 0.018656537 0.86079651 1.1046535e-38
0.31772152 0.074525259 0.87310529 1.20614e-38
0.32965475 0.059249789 0.85727555 1.0864299e-38
0.26507241 0.11957525 0.87800002 1.2983357e-38
0.30955967 0.10492623 0.86450696 1.2060677e-38
0.32641736 0.097081564 0.84766006 1.1231638e-38
0.23652823 0.12397788 0.87605017 1.3349977e-38
0.2624076 0.12929584 0.86121386 1.3258862e-38
0.29823121 0.12872927 0.8513816 1.2337983e-38
0.32277861 0.12343841 0.84126669 1.1140159e-38
0.39182189 0.15523367 0.84317935 1.5472633e-38
0.40219432 0.15748572 0.84800005 1.9161173e-38
0.394317 0.1699761 0.84467083 2.0356485e-38
0.41771734 0.18131731 0.86005765 1.8420375e-38
0.44150859 0.18981524 0.87800002 1.6947407e-38
-0.040133331 0.35956192 0.86000001 3.5916821e-39
-0.015793145 0.35639226 0.85861886 2.2094581e-39
0.0079429811 0.35659263 0.86698347 1.3811338e-39
-0.042540397 0.36702183 0.8598823 2.7644354e-39
-0.019306799 0.36814258 0.84911811 2.1183387e-39
0.018853337 0.37070498 0.86066693 1.1971027e-39
0.045198098 0.38461447 0.87187499 1.4736895e-39
0.37068141 -0.083642736 0.88200009 3.5009172e-39
0.34643897 -0.052625004 0.89557505 3.4079999e-39
0.36121908 -0.066209525 0.88000005 3.3161658e-39
0.33208004 -0.021505173 0.88965195 7.6399885e-39
0.31810826 0.020389875 0.90889823 4.9720816e-39
0.32313821 0.021932397 0.89604306 9.2091079e-39
0.31565574 0.062875338 0.89410961 1.0222538e-38
0.32141256 0.048269767 0.88778585 1.1326719e-38
0.23526351 0.11633604 0.88894999 1.3259229e-38
0.26152769 0.11582382 0.89159608 1.2983358e-38
0.29807705 0.10089145 0.89326626 1.224615e-38
0.23316573 0.12105587 0.88066673 1.3532212e-38
0.25153112 0.12058794 0.88133335 1.3167025e-38
0.4347567 0.18197995 0.88372225 1.7682807e-38
0.44938037 0.18279806 0.90200001 1.6300597e-38
-0.00084000005 0.35615814 0.88200009 3.035616e-39
0.027686665 0.35805368 0.88499993 2.1186988e-39
0.034074038 0.36493424 0.88218892 1.9339488e-39
0.060365248 0.38129556 0.89884567 2.6715181e-39
0.080157146 0.39647621 0.90500003 2.3963717e-39
0.075179055 0.40066001 0.89700001 2.1183373e-39
0.34133607 -0.048035812 0.92039996 2.4849786e-39
0.45415872 0.18020317 0.92000002 1.6023655e-38
0.071965143 0.37246105 0.9294861 3.3172434e-39
-0.036575042 0.16763103 0.64789104 1.6943449e-38
-0.099648632 0.22467987 0.64792901 7.5492306e-39
-0.0071772346 -0.014177166 0.53657544 1.5567375e-38
-0.26519212 0.1856676 0.54169571 9.7673334e-39
-0.10803033 0.14087617 0.61017233 1.2248327e-38
0.00020441992 0.14476086 0.64443296 1.2892974e-38
0.014863214 0.093349874 0.61839151 1.34429e-38
-0.124006 0.13205677 0.57540005 1.0961193e-38
