# .PCD v0.7 - Point Cloud Data file format
VERSION 0.7
FIELDS x y z rgb
SIZE 4 4 4 4
TYPE F F F F
COUNT 1 1 1 1
WIDTH 162
HEIGHT 1
VIEWPOINT 0 0 0 1 0 0 0
POINTS 162
DATA ascii
-0.0083684875 0.11665465 0.47063723 9.8505172e-39
0.019840773 0.11560544 0.46531868 1.3994635e-38
0.040473334 0.11474857 0.46700001 1.4267619e-38
-0.0069708135 0.12897022 0.47548914 1.0587365e-38
0.01602325 0.13017485 0.47374707 1.4640001e-38
-0.019134695 0.1181388 0.48000005 8.4679457e-39
-0.018671786 0.14486825 0.4896284 8.376469e-39
0.016027534 0.14913097 0.4837532 1.4639643e-38
-0.042336907 0.17468382 0.51739258 7.4552329e-39
-0.01986734 0.17950609 0.50373167 8.376469e-39
0.012997729 0.17951377 0.50013095 1.4455974e-38
-0.015539364 0.20873375 0.51459014 8.2842733e-39
0.01109833 0.2079566 0.51523387 1.3535098e-38
-0.041763555 0.15902209 0.52372724 7.6396172e-39
-0.03781306 0.15836164 0.52242851 7.5474216e-39
-0.04670519 0.18592794 0.52585721 7.4552329e-39
-0.038204286 0.18975526 0.52100003 7.1786474e-39
-0.048633184 0.2213921 0.54145795 6.9949793e-39
-0.023283765 0.22564797 0.52700585 6.9942562e-39
0.01055061 0.22681195 0.52705789 1.2613865e-38
-0.047729269 0.24437413 0.55383056 6.719114e-39
-0.036985662 0.24152102 0.54235303 5.7975123e-39
0.038470481 0.23052479 0.63085717 1.3165238e-38
0.050641924 0.23082443 0.63481534 1.4363777e-38
0.033762563 0.26173073 0.62014848 1.1599353e-38
0.054183178 0.2585457 0.62986559 1.206069e-38
0.19692627 0.27509242 0.63654697 9.2040632e-39
0.22210276 0.26471218 0.62864715 9.2962589e-39
0.25867867 0.26146895 0.62745595 1.3536542e-38
0.2866438 0.26917243 0.63466167 1.8238882e-38
0.058687363 0.28213307 0.63510346 6.5336368e-39
0.19501646 0.2825875 0.63555568 8.3753844e-39
0.20598552 0.28134376 0.62886214 8.0995205e-39
0.27466574 0.28062317 0.62588888 1.4551058e-38
0.29063427 0.28324676 0.6347819 1.6947781e-38
0.066595346 0.18717073 0.66373336 1.4729676e-38
0.096142568 0.18888906 0.67103881 1.7127484e-38
0.1218118 0.1971532 0.67838466 1.8048726e-38
0.06467995 0.21631999 0.6459676 1.4731479e-38
0.099173933 0.21932808 0.66092908 1.5746352e-38
0.12356635 0.22025265 0.67637193 1.473292e-38
0.1968037 0.23691611 0.67651278 1.1138711e-38
0.22287993 0.23300271 0.66705161 1.1876283e-38
0.25902882 0.23072496 0.66306931 1.4365207e-38
0.29279879 0.23381758 0.67011887 1.8237066e-38
0.074298084 0.25983316 0.64358634 1.0862867e-38
0.097263552 0.2575227 0.66208076 8.4675786e-39
0.13535295 0.25595042 0.67787999 8.4675674e-39
0.18405083 0.26292446 0.66173005 1.0124932e-38
0.2144658 0.24784318 0.6493535 1.113944e-38
0.26169857 0.24340133 0.64322937 1.4919105e-38
0.30191782 0.25632381 0.65315056 1.9991313e-38
0.32678562 0.2651332 0.66852337 2.1190938e-38
0.071989819 0.28468668 0.6476925 6.9024165e-39
0.085058719 0.28309974 0.66041678 5.2439783e-39
0.15397431 0.29194888 0.6742357 8.0977157e-39
0.17319523 0.28621528 0.65584511 8.650888e-39
0.30960628 0.28610596 0.64743912 1.8607303e-38
0.32542542 0.28889418 0.65919495 1.9714012e-38
0.10483752 0.1554853 0.70881814 1.6757254e-38
0.13372466 0.15729783 0.71593565 1.6849088e-38
0.074957646 0.1677589 0.68472737 1.5006261e-38
0.10256395 0.17050996 0.69022506 1.7310432e-38
0.13922831 0.17931996 0.7008124 1.7495182e-38
0.18024471 0.18287703 0.7120648 1.2059241e-38
0.21867418 0.18637805 0.70947099 1.5007701e-38
0.25592691 0.19271335 0.71232057 1.6390273e-38
0.28456959 0.1980072 0.71629626 1.8510055e-38
0.14312394 0.21935491 0.69293088 1.0678113e-38
0.17969185 0.22029711 0.6971581 1.0585906e-38
0.21902183 0.21354806 0.69015342 1.2704606e-38
0.26020148 0.21091187 0.69338083 1.5193168e-38
0.2993907 0.21789008 0.69915235 1.8789158e-38
0.32996342 0.23177457 0.70805234 2.0634514e-38
0.11700909 0.2627435 0.68193549 3.7695727e-39
0.14547153 0.26213869 0.69907159 6.5325494e-39
0.16974373 0.25171003 0.68716735 9.4806431e-39
0.31903619 0.24073526 0.68133342 2.072779e-38
0.3384451 0.25042057 0.6948781 2.0820354e-38
0.11526741 0.30690223 0.71392614 4.5989677e-39
0.13423857 0.29376438 0.69708914 6.4396363e-39
0.10804096 0.32070667 0.71800005 4.693673e-39
0.17281039 0.1184916 0.75572747 1.5929286e-38
0.11526235 0.14892469 0.72000009 1.6113318e-38
0.14493848 0.14573893 0.72867209 1.5651265e-38
0.17992033 0.1406123 0.7375049 1.5928572e-38
0.21694346 0.14572693 0.74232936 1.7956153e-38
0.24942641 0.15474248 0.7505725 1.8232025e-38
0.1593143 0.16160002 0.72000003 1.537648e-38
0.18391724 0.16274808 0.72078848 1.436197e-38
0.22267489 0.16691183 0.72462916 1.6942368e-38
0.26139593 0.17447913 0.73366565 1.7771411e-38
0.29617935 0.18629202 0.74111325 1.9246899e-38
0.32581878 0.19607601 0.75330359 1.9985547e-38
0.31051707 0.20444262 0.72742105 1.9985544e-38
0.34094295 0.21701606 0.73846889 2.054016e-38
0.36762831 0.2293894 0.74950707 2.0724557e-38
0.12904584 0.2772274 0.72128588 3.6777358e-39
0.35656506 0.24601324 0.72586846 2.0819276e-38
0.36498073 0.24707085 0.73355025 2.0912549e-38
0.10640009 0.3092511 0.72471207 4.3227437e-39
0.12246858 0.28621718 0.72000003 3.4940649e-39
0.097319409 0.32510203 0.73443484 5.4287283e-39
0.38782823 0.025349615 0.79470569 1.1046905e-38
0.37777498 0.06115745 0.79011649 9.2073128e-39
0.19102663 0.11444633 0.76721948 1.6666492e-38
0.21309747 0.11377767 0.78017259 1.7310778e-38
0.35947999 0.08664 0.79800004 6.9957009e-39
0.37838989 0.098290488 0.78985631 5.6160077e-39
0.19625677 0.12093981 0.76040012 1.7495891e-38
0.22579242 0.12818958 0.76794225 1.8508242e-38
0.26065856 0.14592166 0.77650601 1.7310423e-38
0.29283854 0.15480004 0.78915113 1.6666492e-38
0.39032018 0.12757249 0.79557484 6.4436061e-39
0.27610725 0.16115868 0.76092315 1.7863963e-38
0.30580771 0.16971439 0.77396673 1.8141628e-38
0.33774453 0.18287751 0.78007138 1.9710398e-38
0.36829102 0.19548242 0.79137093 2.0817106e-38
0.35310829 0.2046835 0.76450837 2.0631996e-38
0.37899825 0.21227337 0.77878737 2.0170301e-38
0.40035272 0.21043144 0.79766673 1.9250513e-38
0.39776796 -0.082269214 0.8386668 3.1324976e-39
0.40914905 -0.084868252 0.83311951 3.4090859e-39
0.39332375 -0.054356426 0.83105278 4.604741e-39
0.40617231 -0.062929735 0.82696992 5.8929561e-39
0.3936246 -0.017272543 0.81514561 9.6664819e-39
0.40396252 -0.024847021 0.81406486 8.1956804e-39
0.35163602 0.031961199 0.82675707 9.6668448e-39
0.37333483 0.023151388 0.80792242 1.0679198e-38
0.40000001 0.0053333333 0.80000001 1.0680272e-38
0.34960163 0.060653865 0.82038474 9.1151074e-39
0.36359364 0.050988764 0.80360055 9.9427115e-39
0.34788579 0.10034633 0.82543796 9.0214684e-39
0.36435032 0.10801934 0.80621678 6.9956953e-39
0.26672992 0.13316211 0.82406563 1.4270489e-38
0.30166721 0.14150555 0.82210892 1.3718395e-38
0.33996269 0.13978025 0.82596391 1.2521654e-38
0.37737975 0.14036806 0.82023185 1.086394e-38
0.40510631 0.15294054 0.83620018 1.6208753e-38
0.34706035 0.16692378 0.80680048 1.9065383e-38
0.38111719 0.17899387 0.81816483 2.0171738e-38
0.40770504 0.18479879 0.82899988 1.9802594e-38
0.39335862 0.20235215 0.80241358 1.9064673e-38
0.40346676 0.20334753 0.80758345 1.9157235e-38
0.40375146 -0.08525762 0.84450006 3.5005599e-39
0.38345051 -0.061724868 0.84510779 2.9481036e-39
0.33409461 0.06640093 0.85451216 1.1324196e-38
0.25914127 0.11855201 0.85050005 1.3349621e-38
0.31330287 0.11384852 0.8554256 1.2152151e-38
0.32941842 0.098113731 0.8501308 1.1691533e-38
0.26443592 0.12339614 0.84581697 1.3258142e-38
0.30322173 0.12536754 0.84603226 1.2337623e-38
0.32297722 0.12229291 0.84227276 1.1692248e-38
0.41152334 0.15771058 0.84230012 1.9894786e-38
0.42084381 0.17791481 0.85402215 1.9617838e-38
0.44128352 0.18013176 0.87700003 1.8328889e-38
0.32937145 0.062857151 0.88000005 1.2153244e-38
0.43161908 0.17516191 0.88000005 1.9526e-38
0.44000003 0.18019049 0.88000005 1.8604045e-38
0.44128352 0.18013176 0.87700003 1.8328889e-38
0.012313029 0.19473229 0.56746137 1.1232373e-38
0.13730553 0.12634121 0.70598024 1.1235255e-38
