# .PCD v0.7 - Point Cloud Data file format
VERSION 0.7
FIELDS x y z rgb
SIZE 4 4 4 4
TYPE F F F F
COUNT 1 1 1 1
WIDTH 240
HEIGHT 1
VIEWPOINT 0 0 0 1 0 0 0
POINTS 240
DATA ascii
-0.089899428 0.10598072 0.46196288 8.8370926e-39
-0.067128785 0.10589815 0.46704552 1.4179752e-38
-0.087471038 0.12610729 0.47478259 8.3768347e-39
-0.071528591 0.12581111 0.47566742 1.1415691e-38
-0.047741052 0.11085925 0.48870829 1.7956168e-38
-0.039357811 0.11249381 0.49790007 1.9061789e-38
-0.09054973 0.1443653 0.48962995 8.3768361e-39
-0.05767294 0.141552 0.49446967 1.4548177e-38
-0.036184482 0.13753247 0.51486075 1.9154709e-38
-0.089728616 0.17310278 0.50999486 8.2850006e-39
-0.06201658 0.1735868 0.50960392 1.1139821e-38
-0.039756671 0.16198589 0.51750004 1.8693738e-38
-0.3001121 0.13876155 0.5408228 1.2715807e-38
-0.032590702 0.15002957 0.53012085 1.9615328e-38
-0.32106444 0.17946103 0.52948487 9.9520918e-39
-0.29927105 0.18476355 0.53661013 9.3059993e-39
-0.26780266 0.19326824 0.55129105 9.7651768e-39
-0.087801769 0.19297767 0.52422822 8.1931665e-39
-0.053752065 0.19069982 0.52575064 1.2153254e-38
-0.03046149 0.17958598 0.54149866 1.841751e-38
-0.32685271 0.22577302 0.54998273 7.7393896e-39
-0.3004933 0.21084519 0.53916627 8.4773204e-39
-0.27099067 0.20962688 0.53274888 8.0159821e-39
-0.084025383 0.2056929 0.53392088 8.2860852e-39
-0.058828901 0.21343318 0.54174906 9.205515e-39
-0.03316243 0.2073082 0.55141324 1.5285023e-38
-0.2483891 0.19555224 0.56351036 1.1330706e-38
-0.23519637 0.19819938 0.57150835 1.1238157e-38
-0.018567765 0.18527886 0.56615072 1.9338023e-38
-0.25104094 0.21885088 0.56978422 8.8446666e-39
-0.22445387 0.22228862 0.5831793 8.9368622e-39
-0.054338552 0.23526831 0.56587189 8.8367367e-39
-0.022693792 0.22165851 0.57941532 1.6113702e-38
-0.24485907 0.24009651 0.57866669 1.2345915e-38
-0.23043965 0.24141128 0.58362716 8.3822521e-39
-0.047839977 0.24787234 0.5797112 8.0998905e-39
-0.030172493 0.24828096 0.59148097 1.1138744e-38
-0.00691855 0.19101289 0.63300025 1.3531133e-38
0.015077283 0.19285183 0.63476187 1.5558718e-38
-0.20220955 0.23719485 0.60047054 8.1924645e-39
-0.1992 0.2378286 0.60000002 6.6298275e-39
-0.0055953166 0.22041298 0.61426544 1.6204451e-38
0.019368717 0.2195069 0.6259563 1.6020423e-38
0.042951439 0.22397928 0.63748878 1.7311522e-38
-0.21485716 0.24171428 0.60000002 1.207119e-38
-0.014684119 0.26008156 0.61252922 1.0126032e-38
0.016734743 0.25501648 0.62803811 1.1967783e-38
0.042367429 0.24360967 0.6385417 1.5099194e-38
0.19503114 0.27348489 0.63527262 1.1045816e-38
0.22120325 0.26339981 0.62672645 1.0953622e-38
0.25811219 0.26266521 0.6276809 1.6576479e-38
0.28585717 0.27041027 0.63552266 2.1003673e-38
-0.00060857146 0.28055146 0.63900006 3.4973257e-39
0.0018257144 0.28055149 0.63900006 2.9455854e-39
0.19086231 0.28257322 0.63446784 9.8490725e-39
0.20350507 0.2807602 0.62692314 9.7575957e-39
0.27494696 0.28082737 0.62699997 1.8143807e-38
0.28882542 0.28335556 0.63504452 1.9710413e-38
-0.0049614683 0.15843594 0.67170829 1.5283214e-38
0.022439707 0.15774727 0.67353916 1.5740591e-38
0.052062683 0.1573239 0.67655706 1.703097e-38
-0.010090897 0.17095014 0.65337694 1.4268698e-38
0.021545077 0.17424612 0.6515969 1.6202645e-38
0.059267342 0.17969722 0.66056317 1.8230953e-38
0.090172403 0.18560854 0.6743179 1.9889756e-38
0.039619051 0.20053335 0.64000005 1.7679946e-38
0.061688464 0.21877801 0.65112972 1.777214e-38
0.091073163 0.21808679 0.67144579 1.7404075e-38
0.19572462 0.23674136 0.67655784 1.2611689e-38
0.22239284 0.23334391 0.66684759 1.3625482e-38
0.2586222 0.23152705 0.66442698 1.6667218e-38
0.28913528 0.23480122 0.67072552 2.053908e-38
0.031348161 0.26894742 0.64630127 8.6516209e-39
0.059281923 0.25811312 0.66023833 1.1415681e-38
0.085476406 0.25006524 0.6759553 1.1784098e-38
0.15623455 0.27586016 0.67520654 1.0585549e-38
0.18178692 0.26132241 0.66058457 1.1690816e-38
0.21448733 0.24658388 0.6488018 1.2980476e-38
0.26402465 0.24519072 0.64390284 1.795868e-38
0.30056754 0.25715348 0.65527976 2.1927067e-38
0.32801151 0.26958883 0.67164987 2.2390566e-38
0.060467195 0.28151131 0.67728001 4.9724445e-39
0.1507722 0.29082814 0.67169911 9.7554349e-39
0.1711536 0.28542122 0.65246874 1.0125655e-38
0.30869931 0.28603622 0.64887124 2.109587e-38
0.32900709 0.28923491 0.66586691 2.2020345e-38
0.027254235 0.15111241 0.69091749 1.555764e-38
0.061734378 0.14717014 0.69635403 1.7308273e-38
0.098491587 0.14949162 0.7040236 1.9888308e-38
0.13165399 0.15435176 0.71543157 1.9519886e-38
0.078534767 0.1613954 0.68150008 1.9519533e-38
0.10607215 0.17550157 0.68734574 2.0534765e-38
0.13970366 0.17962804 0.70807028 1.7677781e-38
0.17947914 0.18196428 0.71105844 1.4269058e-38
0.2179419 0.18730439 0.71019155 1.7309713e-38
0.25449601 0.19366981 0.71298856 1.8600092e-38
0.28143713 0.19926573 0.71900004 2.0903906e-38
0.11079829 0.2207261 0.68578821 1.5837827e-38
0.14267321 0.22047374 0.70719576 1.0216777e-38
0.17942835 0.22008997 0.69511718 1.2427302e-38
0.21947715 0.21382633 0.69127262 1.4730391e-38
0.26014808 0.21179412 0.69450355 1.7587376e-38
0.2986798 0.22111605 0.69953543 2.118373e-38
0.32735658 0.23304154 0.70979291 2.238516e-38
0.074677669 0.27391091 0.68183357 7.1771957e-39
0.1009888 0.25650498 0.69322723 8.0980744e-39
0.14275904 0.26093853 0.70131987 8.5583337e-39
0.16872264 0.24895687 0.68566471 1.1414228e-38
0.31534609 0.24267392 0.68289667 2.2294766e-38
0.33868286 0.25452486 0.70064932 2.2296208e-38
0.070901908 0.28035524 0.68300003 8.0087584e-39
0.11328205 0.30297366 0.71148127 7.085363e-39
0.13120961 0.29253623 0.69418728 8.5576162e-39
0.1039381 0.32070667 0.71800005 7.2701144e-39
0.11020861 0.11745775 0.75299978 1.6849088e-38
0.13896495 0.11633228 0.75246125 1.7493736e-38
0.17276983 0.11730403 0.75453603 1.8783756e-38
0.037500478 0.14415619 0.72250009 1.5834953e-38
0.06473542 0.13340245 0.73398113 1.6481389e-38
0.10030992 0.12973326 0.73532772 1.7585213e-38
0.14160898 0.1364632 0.73190719 1.7861085e-38
0.17975831 0.14028341 0.735259 1.8230588e-38
0.21657825 0.14605974 0.74205953 2.0534034e-38
0.24841574 0.15544586 0.75109422 2.0073417e-38
0.15870191 0.16144541 0.72033346 1.5374682e-38
0.18496148 0.16228409 0.72085899 1.6756539e-38
0.22318725 0.16824356 0.72505403 1.933586e-38
0.26088217 0.17595103 0.7342813 2.0073065e-38
0.29594579 0.18858786 0.74272847 2.1456719e-38
0.3254382 0.19649971 0.75468886 2.1920218e-38
0.30850354 0.20645288 0.72849423 2.2102807e-38
0.33991724 0.21892284 0.73855096 2.2382999e-38
0.36795035 0.2305049 0.74964184 2.2200051e-38
0.11587509 0.27463999 0.72598416 4.5056986e-39
0.12522444 0.26357591 0.72226894 5.1510639e-39
0.35485646 0.24840505 0.7258957 2.229693e-38
0.3655194 0.24911328 0.73608494 2.2203655e-38
0.10025672 0.30192277 0.73489565 6.4407167e-39
0.090721481 0.3260397 0.74287677 7.8232896e-39
0.38883743 -0.017214654 0.79151303 6.2642708e-39
0.35910001 0.037620004 0.79800004 1.1784469e-38
0.38063386 0.023326997 0.79107994 1.2519877e-38
0.35553694 0.064215124 0.79337132 1.0403694e-38
0.37413242 0.059589706 0.7825464 1.0221106e-38
0.1064923 0.11335302 0.76659483 1.6572147e-38
0.14340842 0.10809719 0.77219361 1.6941645e-38
0.18069932 0.10822076 0.77528834 1.7954718e-38
0.21061562 0.11453278 0.77767938 1.9059615e-38
0.35604009 0.095227256 0.79317105 7.3644806e-39
0.37367588 0.1002648 0.78115231 6.3535755e-39
0.077674545 0.12341811 0.76354551 1.6296279e-38
0.083590716 0.12084547 0.76325005 1.638955e-38
0.19760001 0.12087619 0.76000005 2.0258161e-38
0.22496267 0.1298698 0.7677983 2.0348914e-38
0.26098067 0.1480312 0.77725297 1.8783754e-38
0.29483616 0.15559414 0.79075474 1.7955433e-38
0.38081062 0.12910181 0.79021508 7.9172985e-39
0.27481997 0.162173 0.76304173 1.9704997e-38
0.30410922 0.17107952 0.77321982 2.0075219e-38
0.33752942 0.18368544 0.7809782 2.1922739e-38
0.36889496 0.19614646 0.79418647 2.2106405e-38
0.35224131 0.20489158 0.76521617 2.2565591e-38
0.37842646 0.21200961 0.77860343 2.2012778e-38
0.40035272 0.20739269 0.79766673 2.1737987e-38
0.079182103 0.31804457 0.76840001 8.4682989e-39
0.082811907 0.31547686 0.76277286 8.2846223e-39
0.079347447 0.33446145 0.76790017 8.653409e-39
0.081895262 0.33036283 0.76228589 8.5608546e-39
0.39727065 -0.083516262 0.8357144 4.3303177e-39
0.40761355 -0.088049807 0.83067936 4.883137e-39
0.38821954 -0.054898422 0.8291446 6.1702675e-39
0.40490839 -0.06324967 0.82126391 7.0900602e-39
0.3555344 -0.0068321596 0.83220959 8.6545034e-39
0.37831566 -0.019781634 0.81546932 9.575738e-39
0.40119237 -0.033353332 0.80449998 1.1969948e-38
0.3494848 0.022359824 0.82129699 1.1508242e-38
0.36868271 0.011639567 0.80447966 1.2612429e-38
0.3409051 0.05970319 0.8166523 1.0772471e-38
0.15847619 0.10133334 0.80000001 1.6662209e-38
0.16152382 0.099809527 0.80000001 1.693594e-38
0.31675863 0.11518706 0.83681411 1.2979757e-38
0.33848605 0.10080795 0.81939912 1.0033824e-38
0.36038095 0.11961904 0.80000001 8.4672227e-39
0.26513919 0.13533954 0.82281619 1.5559068e-38
0.30260918 0.1382952 0.82345903 1.4454525e-38
0.33941293 0.13910255 0.81813627 1.3625848e-38
0.37432858 0.14478166 0.81744277 1.4087546e-38
0.4012543 0.15670286 0.83100003 1.9889764e-38
0.34662077 0.16735961 0.8068822 2.1368121e-38
0.38036844 0.17962226 0.81694126 2.2198605e-38
0.40800208 0.18908329 0.82773685 2.1552154e-38
0.39276683 0.20156932 0.80140013 2.1551799e-38
0.40315798 0.20238368 0.80612504 2.2106056e-38
-0.015134285 0.37266672 0.83611107 3.6813582e-39
0.39160678 -0.086380556 0.85151798 4.5143517e-39
0.4093723 -0.096548341 0.84569216 6.0802424e-39
0.35500923 -0.049394161 0.86856389 4.0526518e-39
0.37241808 -0.06281364 0.85405284 4.0533721e-39
0.34813491 -0.01961951 0.86212194 8.1935238e-39
0.36376727 -0.033407744 0.84528774 4.9738879e-39
0.31843907 0.020889092 0.87136364 1.234124e-38
0.33401871 0.019009707 0.85956532 1.2980127e-38
0.31770143 0.07401599 0.86844081 1.3810242e-38
0.32626361 0.058182243 0.85604811 1.2889726e-38
0.22962652 0.11203162 0.86333609 1.5928582e-38
0.25927931 0.1136665 0.86662728 1.4731477e-38
0.30524731 0.10402641 0.85863835 1.3809157e-38
0.3223784 0.088306688 0.8457585 1.3532212e-38
0.23470668 0.12089334 0.85050005 1.6847286e-38
0.26210362 0.12451369 0.84821379 1.4823306e-38
0.29171795 0.12349655 0.84636563 1.4179015e-38
0.41988149 0.17986508 0.85779589 2.1090091e-38
0.44150859 0.18647048 0.87800002 1.9431652e-38
-0.0058907005 0.37435785 0.84170586 2.945584e-39
0.021976337 0.37662011 0.85406315 2.2090994e-39
0.043906901 0.38456681 0.87235141 3.1303354e-39
0.37351415 -0.084878318 0.89115018 4.6987401e-39
0.35069382 -0.054806307 0.88640696 4.4207169e-39
0.36761159 -0.076485381 0.88417393 4.5143517e-39
0.33196184 -0.016346136 0.88513762 1.0861791e-38
0.318156 0.013877084 0.88231248 7.7390365e-39
0.32620797 0.018646894 0.883807 1.2521311e-38
0.31597206 0.06588161 0.88904178 1.1971734e-38
0.32207823 0.050463114 0.88473207 1.3259949e-38
0.27524686 0.10809418 0.88677269 1.4546013e-38
0.29881659 0.095913306 0.88851732 1.3717686e-38
0.43742427 0.17703429 0.89014292 1.9983744e-38
0.44684306 0.17949292 0.89413214 1.8601171e-38
0.064424977 0.38872924 0.89270687 3.776788e-39
0.081650577 0.39456049 0.89869994 4.514709e-39
0.076046102 0.40074936 0.89720005 3.5927555e-39
0.090172403 0.18560854 0.6743179 1.9889756e-38
0.097026318 0.21853487 0.65978336 1.6298085e-38
0.2099546 0.27477044 0.6689772 1.4738329e-38
-0.21243218 0.17283063 0.53568006 1.2251216e-38
-0.18394414 0.20648678 0.5495283 1.0683892e-38
-0.10235944 0.22934759 0.59470057 1.0864319e-38
0.0772902 0.24376792 0.66187364 1.3904614e-38
0.16152382 0.099809527 0.80000001 1.693594e-38
0.37849325 -0.012711525 1.0192895 1.6854138e-38
